-1.040015432467715495e-01 1.657369926154408646e-01 2.102572618902684431e-01 2.509872874829964886e-04 -2.448440513941690932e-03 -6.226130899274965325e-01
-1.374512684281032904e-01 1.889015847989189145e-01 2.103707207948727342e-01 6.406698235899884050e-05 -4.384232151831124989e-03 -6.063742640268742212e-01
-1.814445127430257543e-01 1.613992401744330507e-01 2.088181810582632192e-01 -9.907213660968656761e-04 -5.640466338999491468e-04 -6.785255138198391656e-01
-1.019680799449464437e-01 2.041884203080772120e-01 2.091763761871603955e-01 -5.220176183959048091e-05 -2.361923210129933566e-03 -5.303173966836557396e-01
-1.314990338078168564e-01 2.866427764863510586e-01 2.091672242629877831e-01 -9.180277430052361919e-04 -1.393337077688365424e-03 -5.365196723298715220e-01
-8.998277870487154939e-02 1.962409166400204963e-01 2.094093591966338375e-01 -2.789493018395202380e-05 -2.064118745942016258e-03 -4.249456710140754323e-01
-6.920739932121368343e-02 2.223445570867122467e-01 2.095737755675974312e-01 -7.185045139727206298e-04 -1.651332446603654162e-03 -4.524705130966197308e-01
-3.872168318475140841e-03 2.793506936195087609e-01 2.099442455603047208e-01 1.752343948045737818e-05 -2.146258731141472299e-03 -4.661318054754379214e-01
-7.142433842385324805e-02 2.412882770300291135e-01 2.090703223158094093e-01 1.366223168472517852e-04 1.539603748223591874e-03 -5.064405906741079599e-01
-7.370740192242528077e-03 2.633263575109927590e-01 2.095409725468923012e-01 -2.252748989164118725e-04 2.023942899794644389e-05 -4.771630646908476825e-01
-4.991543223583400080e-02 2.671931076029280261e-01 2.101122493010294523e-01 -8.042915347109843129e-04 -1.920804612755107853e-03 -4.993136430521401548e-01
-1.176871354334498160e-01 2.546100369091507942e-01 2.088839153509756130e-01 7.275423565980898913e-04 1.480914521057136298e-03 -5.698828188684267326e-01
-1.230108791495591603e-01 2.697159858946172606e-01 2.095946627087338365e-01 -4.897011042737101560e-04 -5.549900739478428550e-04 -5.566388194509925835e-01
-7.272580796258487634e-02 2.687388943994594159e-01 2.099311912243652656e-01 4.193273565353927267e-04 -6.665826565742283445e-04 -4.316616711725722033e-01
-1.112235353688735273e-01 3.106868399636643074e-01 2.089703700529060293e-01 -4.082513639809304566e-04 -1.742637237071963926e-05 -4.013548325397646166e-01
-9.134723607239367271e-02 2.993065681718717341e-01 2.092695111656579510e-01 4.449556486855843853e-04 -1.034813258857524487e-03 -2.628961576864671246e-01
-9.218244578438092307e-02 2.915226169291093572e-01 2.098023141283247850e-01 1.860452689098456968e-04 -2.447555269906147909e-03 -1.963515795331617075e-01
-1.857302172366447068e-02 3.031258676643023842e-01 2.101413464871630943e-01 5.160466440085119904e-05 -2.528555383602846141e-03 -1.888804582225538931e-01
-4.665177716084133175e-02 3.164470138666644061e-01 2.090031600567212600e-01 3.455893621230625890e-04 -8.212485743631478714e-04 -2.913997330492530402e-01
-1.166377557582009977e-01 2.732007921425535502e-01 2.092317736488149005e-01 4.810521129761114183e-04 -6.741852474559268402e-04 -5.677722234344512175e-02
-1.397726542360614999e-01 2.981065785612133090e-01 2.095978425274533929e-01 3.024416067302723330e-04 -4.393134701358162772e-04 -1.054468524066726337e-01
-1.051154824490070083e-01 2.719908545969978997e-01 2.097974467579271640e-01 1.819391173562013092e-05 -3.126705151844808776e-04 -2.582543482223839115e-01
-6.940088129577834386e-02 3.465108518718711950e-01 2.103690526279989870e-01 -3.479042844333984463e-04 -2.013877047426234181e-04 -2.246851639965430081e-01
-1.840555786282217499e-01 3.881159473054044406e-01 2.089701238665211958e-01 -3.179353884972175074e-04 1.764867756146658133e-04 -3.639719604035125400e-01
-1.382177656392077347e-01 3.623599071425971374e-01 2.091847938014915198e-01 7.913500492260219310e-04 -5.850461535816835939e-04 -3.964970381596118476e-01
-1.296672153226028079e-01 3.139521057697328699e-01 2.095915560726727689e-01 1.375855082247333556e-03 -4.495596022346890755e-04 -2.976694371112573179e-01
-1.697678160681199699e-01 2.875933692054586377e-01 2.096892104209456265e-01 6.615682426442313869e-04 1.383537597882061681e-04 -3.497195269431055409e-01
-1.042185941241370734e-01 2.765826141151599415e-01 2.100721168932913607e-01 1.732033684874846949e-04 5.733758509216906312e-04 -2.768344143103925736e-01
-3.957072087484646283e-02 2.641343658858717469e-01 2.101916703919781138e-01 -2.663595137434878845e-04 8.544670452106346370e-04 -3.545571644578691117e-01
-6.927436908434199403e-02 2.213185014177128929e-01 2.087901364881086796e-01 -5.599499080885656351e-05 -1.622516382385984050e-03 -3.661008096628539099e-01
-5.818742900779028115e-02 2.227053897761868129e-01 2.091037985447326553e-01 -1.989768637240301171e-05 -1.094638744352296588e-03 -6.328358587514479883e-01
-3.592905883169050796e-02 2.332663411022300459e-01 2.094351468200171262e-01 1.553947876408777766e-03 -1.357245677286076377e-03 -6.081608075319768769e-01
-1.659854091322714165e-01 1.813825172883674619e-01 2.095533494505036898e-01 -2.082166563396298080e-04 -3.951905334888010846e-05 -4.763205766647636841e-01
-1.377973984886897707e-01 2.080484299422427075e-01 2.096971954939508276e-01 1.649971428083888726e-04 7.649477621366177925e-04 -6.758138913229800870e-01
-1.761504258935331912e-01 2.590132364839402013e-01 2.100352694112940233e-01 1.246055714929049591e-03 1.445051471352586071e-04 -6.003317641080473388e-01
-2.181646734334038995e-01 2.172777842504571566e-01 2.101112208900597356e-01 -1.219291991064324634e-04 1.888681951918516145e-03 -6.697811514855454007e-01
-2.299929374569459062e-01 2.904817375695287751e-01 2.087455256535823422e-01 -3.917849633622826484e-05 -2.439864830309417931e-03 -8.019500361633336016e-01
-1.813457046688584651e-01 3.238636848441092675e-01 2.090280321368595540e-01 9.648135079878112329e-04 -2.668879088430572196e-03 -7.213778222058991885e-01
-1.813896159725751633e-01 3.967433165416238139e-01 2.093624018242379869e-01 2.494220590341110532e-04 -1.663386691120046596e-03 -2.746737699005833422e-01
-1.865177581910879845e-01 3.761094229143917556e-01 2.094991471262096505e-01 2.063084771470312948e-04 1.202017794506113848e-05 -2.937964918734000119e-01
-1.376259962271599580e-01 3.768609397140760819e-01 2.096867257172285171e-01 4.942565371765604955e-04 1.143810152248582327e-03 -3.856223467523907655e-01
-1.203884826780464157e-01 3.823486959356992565e-01 2.100107327738794938e-01 1.748399794386373287e-04 1.361484448639944033e-03 -4.932407479299358299e-01
-1.159243158714512167e-01 3.901830356614428008e-01 2.086571583130715224e-01 6.364823427567805952e-04 -1.889898507436985975e-03 -4.500887689082668786e-01
-1.617159233886061309e-01 4.042118352898952383e-01 2.090482669349033595e-01 3.045328616519340386e-04 2.293874917870939085e-04 -2.606867451622716381e-01
-1.549968001862470079e-01 4.137159240733561116e-01 2.092874823120499106e-01 3.552710855042341665e-04 2.289988548588962197e-03 -1.535524211266408590e-01
-1.328075337384251875e-01 4.143954998494178699e-01 2.095774884237128766e-01 3.533630608081181823e-04 3.270768374247325690e-03 -2.303353341633758711e-01
-1.747358179982153037e-01 3.991015664889077108e-01 2.098519245019674906e-01 -2.937704140537610053e-04 4.111972173556946789e-03 -2.060834783949410942e-01
-7.005397329890625246e-02 3.922263250321362804e-01 2.100788063348656975e-01 4.961507889534135570e-04 4.968533912562688414e-03 -1.504655075538955389e-01
-9.408226942979247553e-02 3.926557249978546715e-01 2.086244201313490754e-01 -6.875993189287036515e-04 2.139085343231162447e-03 -8.501600588917951340e-02
-9.666218752919734925e-02 3.882437300824229109e-01 2.088727030139191920e-01 2.025384498041378023e-04 3.580915969698058449e-03 -9.580013373146102629e-02
-5.669572117414987261e-02 4.061438018295770447e-01 2.089841491373379267e-01 -3.120649391072685111e-05 3.123905195231399794e-03 1.081188728288730305e-02
-5.498838402274924125e-02 4.234579352332591418e-01 2.091329586922140438e-01 -1.545553581333975173e-04 3.257089057039497595e-03 -2.093877351426301769e-01
1.359896774849854093e-02 4.173546299390843428e-01 2.092236429596680547e-01 -1.115505905795251311e-04 3.061875299795544653e-03 -1.468185121479583521e-01
5.632458032406546106e-02 4.583998084464742107e-01 2.093591401718815082e-01 5.365220425004384956e-04 2.278690703699675236e-03 -9.772102469225034393e-02
1.081037155940238054e-01 3.854639360924853042e-01 2.094162553898273882e-01 9.387301166931308859e-04 2.660285374405944262e-03 2.019484219102419750e-02
4.736773773530994491e-02 3.520504347110192667e-01 2.092768917695325137e-01 9.441453309593353166e-04 2.408442933986279597e-03 -6.112410646356106897e-02
4.134884675557837230e-02 4.276870897843123021e-01 2.096048586705582806e-01 -2.923845570510971693e-04 2.515650115735308407e-03 -2.044905711035462786e-02
1.032109503661017696e-01 4.301983069593112718e-01 2.095571392421581303e-01 2.599216892904233914e-05 2.323612627224268257e-03 1.341665675098133725e-01
1.302253075739199517e-01 4.019724463083296229e-01 2.095199285047128490e-01 5.370353034102569312e-04 2.463017303063252516e-03 -3.677666664320120016e-02
7.687346148277479640e-02 3.878672748280428406e-01 2.097027861248345060e-01 1.621672236308921054e-04 2.581922859840977882e-03 4.319130268321443727e-02
1.634289935947995376e-01 3.325526792604119874e-01 2.095477729797876054e-01 5.148642885232872614e-04 1.941730402518144702e-03 -9.678212931374782779e-02
1.434306954692084191e-01 2.399140196744947440e-01 2.095099883347313341e-01 4.949733817403808482e-04 2.494214813645427315e-03 -1.636343344294881874e-01
1.573251157408619705e-01 2.720373149092520926e-01 2.094454325245693749e-01 2.735753606194107120e-04 1.976371269341408755e-03 -4.683629664173190599e-01
1.230456105684981233e-01 3.095881363255916230e-01 2.093719425687451396e-01 -2.301573613609730581e-04 1.430383282768118297e-03 -3.631043766679053486e-01
2.245206371447362181e-01 3.774514504872155674e-01 2.092290448000471703e-01 -1.655940319966672520e-04 1.314486808615869268e-03 -2.379178273679368738e-01
1.576985420007704364e-01 3.557992054369971680e-01 2.092042347354789444e-01 -1.521269957870877837e-04 7.881414575140381715e-04 -2.814835058140651158e-01
1.506900978856406947e-01 2.872030154456505779e-01 2.093985100406411948e-01 5.269465993343994169e-04 -3.305715968750410814e-04 -2.763334580944230012e-01
1.941432503961596223e-01 2.618018222342642920e-01 2.092151339313539915e-01 1.048180447111183699e-03 -3.118420355906318959e-04 -2.474397197425470540e-01
3.013109280233681742e-01 2.981521045830472505e-01 2.089474501632125336e-01 5.109737119262607025e-05 -6.456266362673644807e-04 6.546226204010499594e-02
2.722669741674479948e-01 2.698668740538137101e-01 2.088418475213106862e-01 -1.522365245053203177e-04 -1.599953304218562113e-03 -1.540222287197039186e-01
2.910721086792059653e-01 2.275287972023347927e-01 2.089517170421750780e-01 1.871916656028344765e-04 -1.121129058353515602e-03 -8.073280097987778001e-03
2.997144392381753675e-01 2.202047674572188696e-01 2.088130952551786046e-01 4.508388361657383837e-04 -1.460842999992607340e-03 1.189453893720978928e-01
2.174899984375026629e-01 2.705427058259810558e-01 2.085538333550113199e-01 1.122233233569999077e-04 -1.863525631935900517e-03 -1.031454179361904200e-02
1.009926597350001565e-01 1.921607478485285458e-01 2.101658570884082367e-01 6.146511690129103506e-04 -4.122976461275752388e-03 5.682471509347957611e-02
4.517131902923164632e-02 2.501784230423137467e-01 2.084219579845725812e-01 8.254748933038669450e-04 -4.903047696813919720e-03 -2.175956885738314639e-01
1.277112186847272415e-02 1.955711370110643221e-01 2.101476071443104665e-01 4.509167532057639172e-04 -6.994641994217814206e-03 -4.686986660248186887e-01
-2.035580398118291834e-02 2.176882407624684546e-01 2.086385312874120546e-01 7.650583042767542842e-04 -1.458760925251962638e-03 -3.973009455647510957e-01
1.857771248438329706e-02 2.045882828529912156e-01 2.089455823675839263e-01 2.483622263441072125e-04 -8.664647305807362653e-05 -3.592341009338356206e-01
6.042408687212973140e-02 2.041693451863496322e-01 2.090525088173444401e-01 -9.699254940007675195e-05 -1.251921459532929891e-06 -3.053011410683317273e-01
1.107509443354315060e-01 1.881212005110217689e-01 2.091184730144762249e-01 2.842224174648285925e-04 -2.919627009026309048e-04 -2.517439578320488924e-01
8.383673128372887140e-02 2.622357225788337631e-01 2.093105504929689831e-01 3.675273183597639864e-04 -1.305064270646199339e-03 -1.138633580244376858e-01
6.550360492152806913e-02 3.215071581216523144e-01 2.095188538718583127e-01 -6.696602311513149490e-05 -1.725942454280982247e-03 -2.989605343684426098e-01
5.200454489449350681e-02 3.564066360120193289e-01 2.097510973766537057e-01 8.044388731736802091e-05 -2.068227717727081933e-03 -2.582581702316162908e-01
1.036422897952715416e-01 3.913514305877427990e-01 2.100732683283780822e-01 6.143085950000689232e-05 -2.036050249067051891e-03 -2.473947919869999013e-01
8.815066731198198391e-02 4.107441429949557077e-01 2.089625154828170239e-01 4.845186005230883134e-04 1.996146823286227244e-03 -3.996422495821957410e-01
5.266865595632623520e-02 3.858705450495918954e-01 2.089749188237248201e-01 8.516608711706607441e-04 1.132510628563645778e-03 -4.940941514114061822e-02
8.697225860627191829e-02 3.578428518674646175e-01 2.091924064035711184e-01 8.882208667735528923e-04 2.293048394180324508e-04 -3.814771466820678358e-01
1.567536464393976328e-02 3.469992277816386639e-01 2.094863382147243436e-01 3.804723184185972878e-04 -2.001515757100108615e-04 -4.408918040503416735e-01
-7.176739795578102044e-02 3.408525368216498430e-01 2.096186751418803174e-01 -7.304007636062224431e-05 4.174367882956608769e-04 -4.913585045548476277e-02
-9.810312075128112264e-02 4.153551571235147288e-01 2.099856971753772950e-01 1.638989084034025165e-04 9.340467062043365538e-04 -1.222836882632546834e-01
-1.137808389502408396e-01 4.095826321646456880e-01 2.103505987864145443e-01 1.028301536412062331e-04 9.958684382634836775e-04 1.863832148804031030e-01
-1.081593217561379605e-01 3.321296194828381454e-01 2.092388758541359750e-01 2.685628008609214704e-03 1.914562673803497017e-03 -1.910998454334520216e-03
-1.488803687220088823e-01 2.534818734155039333e-01 2.091091564314432327e-01 1.458338688381040967e-03 1.207384479276814998e-03 -2.270476787101338434e-01
-6.934324738171743219e-02 1.863637879953280729e-01 2.094657892802944121e-01 5.327947685279619270e-04 5.585512670591235261e-04 -1.586782559207909338e-01
-7.384343572511907483e-02 1.997411055820023651e-01 2.096972111834963792e-01 5.532073486505063647e-04 8.617038525370441203e-04 -2.160309279506705538e-01
-9.003172929332575736e-02 2.402366086668013545e-01 2.099171158674831839e-01 5.322484857017959793e-04 6.666521365087315102e-04 -1.770087359665120097e-01
-2.219408571638796165e-02 2.458329381193597174e-01 2.104613845034493114e-01 -4.403053630998956841e-04 3.926386842964208011e-04 -4.456148936116685610e-01
-8.985632461365894441e-02 2.274610982658792357e-01 2.086837844643706363e-01 5.717527230519995913e-04 2.069409613206183449e-04 -5.186409642772512596e-01
-1.065522978958852174e-01 2.063016709046940622e-01 2.090842461468408464e-01 -1.103608582903689057e-04 2.137633568208887063e-04 -2.398868967412675079e-01
-9.727497595256988372e-02 2.115134631934293963e-01 2.093321196698919584e-01 -2.343507428715598711e-04 -6.873901342725499642e-04 -2.316734868141873960e-01
-1.420827705431678134e-01 2.531440828073477922e-01 2.095555179841975257e-01 -2.089865926255061307e-04 -6.790411103880843267e-04 -2.131319110539127981e-01
-1.695810192854489140e-01 2.381752844181670437e-01 2.098884456815194310e-01 2.066020356659665298e-04 -1.614610786705636392e-04 -2.393574341403017780e-01
-6.555056516891247242e-02 2.704492820159651312e-01 2.102303091980194938e-01 6.705232822564587830e-04 3.615834369272706334e-04 -5.399193433350833043e-02
6.959922197748862754e-03 2.627195961701793703e-01 2.104376492106770913e-01 7.497169974256014113e-04 -5.742967177903725686e-04 -9.696696338174026764e-02
-8.068695527290639657e-02 2.449305553850434081e-01 2.089819738877332078e-01 8.490796373523235669e-04 -2.384767931607916121e-03 -1.594605311071025933e-01
-1.119187671229386477e-01 2.465077921718937803e-01 2.090782615644240505e-01 2.321720978304229338e-04 -9.834097939101780258e-04 -1.500745330081699747e-01
-1.100015542132915664e-01 2.936828157764521663e-01 2.093386355361204210e-01 -8.074530307860085173e-06 -1.741117642529121847e-03 -3.755591257775912073e-01
-1.412796483945037707e-01 2.390236431440713460e-01 2.095919723299534132e-01 1.424348556607465065e-04 -6.392984050719549051e-05 -1.342697169377971844e-01
-3.940084029547587241e-02 2.593091356226552291e-01 2.099901772280818313e-01 1.207741613737001720e-05 -9.336868223540750863e-05 -4.359062341692652304e-02
1.071298427373328088e-02 2.141768387041244615e-01 2.103458864171173226e-01 8.301967789775943748e-05 -5.240553884782810611e-04 -5.657730230639940183e-02
-5.218612510597279985e-02 2.552972280569282271e-01 2.092227118965617194e-01 6.372461022783584752e-04 1.458640130699434762e-03 -3.175506351659399540e-01
3.312523946366598832e-02 2.259589776783208215e-01 2.093947586288358864e-01 4.268390318196819098e-05 1.386623515295763763e-03 -7.979302689771666790e-02
5.137123642161225967e-02 1.936405095421671052e-01 2.098107169800214056e-01 1.106111125786868397e-04 1.354307593453629895e-03 -9.228662718292029998e-02
-5.549250150201474885e-03 1.878667297972761996e-01 2.102951668216557768e-01 4.772518094629949934e-04 1.661947130991393287e-03 -1.492448470047650355e-01
-2.823642501315153791e-02 2.128254800168788707e-01 2.105040252255271360e-01 -1.143928066165526700e-04 1.442877559111492526e-03 -9.099608798365274587e-02
-1.004141331676991211e-01 1.434034413171445810e-01 2.095363655764101996e-01 -5.763556651643035134e-05 4.687938267853472042e-03 -1.549379011743078072e-01
-6.469900282785065460e-02 1.725763108635829102e-01 2.097951794689653093e-01 1.219544495434847449e-04 4.768789401847203790e-03 -2.250669133408930156e-01
1.824265192119414042e-02 1.397107712195261864e-01 2.101574638231687442e-01 4.072951959286653912e-04 3.845649644259183358e-03 -1.231991098677996110e-01
9.626890842396090830e-02 1.853008528567864910e-01 2.103499085829251269e-01 -8.560052527336643605e-04 3.406577315854572574e-03 -3.827362975820355895e-01
3.540319941259445491e-02 2.019039159514485204e-01 2.104433787870519379e-01 -2.083526617898864819e-04 9.371685415477260927e-04 -1.887267199828687736e-01
7.054698065446192434e-02 2.072826170753375996e-01 2.096365728534294037e-01 -1.228156496387019592e-04 6.433727945984870494e-03 -4.031531693155934737e-02
5.048618205210152199e-02 2.275889321323588399e-01 2.095749243934443840e-01 -5.380195146154530478e-04 4.945205004618409214e-03 -2.435595951259013348e-01
7.014326939395533478e-02 2.434063331316637102e-01 2.098027507988769469e-01 -1.746476039015302335e-04 4.241776284496090801e-03 -1.179701587699291676e-01
8.799831107306926858e-02 2.396688638442551478e-01 2.098798847783373001e-01 1.206155263362296694e-04 3.169223054070486895e-03 -2.464092507273240445e-02
1.014622023307798909e-01 2.758411803555270714e-01 2.099976871253140254e-01 -3.637797751893546571e-04 3.701559172251980140e-03 3.716878786565395998e-02
1.550864124665428112e-01 2.833299992419849866e-01 2.102136351657988289e-01 1.450703093427365343e-05 3.267943038774720130e-03 5.116296723001988872e-02
1.454658194919600800e-01 3.250606080920170338e-01 2.105221129053163609e-01 6.372120272486997807e-04 2.222260100582310483e-03 3.100901429538848592e-02
1.283488301215687521e-01 3.026578438891571743e-01 2.105527022624515965e-01 1.437764927351367367e-04 5.223278640672484582e-05 -3.162935160162434062e-02
1.263895492323810488e-01 3.183684588180505370e-01 2.106473273833759929e-01 -1.126782041187758852e-04 -1.532319043842441915e-03 -4.375529621162988630e-02
9.917177052317444064e-02 2.941500606857934685e-01 2.095071983940962612e-01 -5.749422048970913171e-04 9.829251692498994133e-04 -2.845217959505015257e-02
7.810216105749807902e-02 3.379029269946885461e-01 2.091426277386666532e-01 3.234733893769498839e-05 -1.054173535945355199e-03 -3.701633407158045896e-01
1.189026260409954128e-01 3.942228378173127101e-01 2.092630246994985344e-01 -1.538662333807779780e-06 -2.381490243435161781e-03 -4.594224559605782909e-01
1.439124905820414191e-01 4.303139232060000929e-01 2.094519623959158472e-01 -4.653516418593312259e-04 -3.266208929417458405e-03 -4.744349812875370276e-01
1.331371144816138052e-01 3.047945303570772091e-01 2.096204103219689308e-01 8.454395073731677522e-05 -4.526432377901459629e-03 -5.797817867027025285e-01
1.196891215812514592e-01 2.749986740899204030e-01 2.099450232181073184e-01 3.097512300842114315e-04 -3.765415954312109625e-03 -3.839888614603745864e-01
4.595696898546006159e-02 2.813491840467009508e-01 2.106150777723892475e-01 1.378282354451237338e-04 -2.035087174969221063e-03 -2.259966880563967495e-01
3.824609447330751255e-02 3.077251728796073227e-01 2.105628810999457534e-01 3.749111284827425818e-04 -3.084833180121162276e-03 -3.610531496504019722e-01
-3.883897763188957908e-02 2.271085507065088993e-01 2.091254962006473539e-01 8.690614582197504117e-04 -4.785351984257751878e-03 -5.289732043666857120e-01
-6.086683236245131468e-02 2.600569203278186303e-01 2.092543622411433546e-01 5.493549477191356440e-04 -4.632160408424563884e-03 -4.044518921055457183e-01
-6.502773062009467586e-02 2.750748409762033275e-01 2.094362372750896428e-01 2.843425595227058191e-04 -3.678902922989345497e-03 -3.567150739361007461e-01
-9.655799529279983362e-02 2.416083288027209564e-01 2.098411615124455287e-01 -5.405848177278800110e-05 -3.776586695333701386e-03 -2.536798591983531748e-01
-2.669752089140256870e-02 2.245279165634962160e-01 2.099059598057401721e-01 7.012011396462279958e-04 -2.897298712608194649e-03 -1.036000622367644515e-02
-3.240013908023246791e-02 2.082891934228000563e-01 2.104898544887787160e-01 7.531840049700662463e-05 -2.501971255568408419e-03 -1.355356164938289198e-01
-7.094422222815799373e-02 2.827098543156578714e-01 2.089301985038280463e-01 -2.493027433337951983e-04 -4.088908264658294885e-03 -9.923780562118628135e-02
-3.814726644633330277e-02 2.440630121299371402e-01 2.091205390157596100e-01 4.712824852117055091e-04 -3.598710133593462437e-03 1.124445159307274206e-01
-5.680316376937213918e-02 2.248839584813685510e-01 2.094224940751730490e-01 7.081721239313062662e-05 -3.599182717244177061e-03 -1.221916065539951496e-01
8.770172737515753020e-03 2.734069819482403685e-01 2.096670746904567006e-01 3.303638839277708980e-04 -2.809935604777474578e-03 -9.432953861642308369e-02
3.352838359016281633e-02 2.745723262068250348e-01 2.088793521685604060e-01 6.380398070255678677e-05 -2.616006369260340768e-03 -1.158118184019074149e-03
5.518880893122067588e-02 2.109769329266410198e-01 2.094750398530342839e-01 5.063548037084907483e-05 -2.311246564569384172e-03 1.043582984283957099e-01
9.249260614484827725e-02 2.318997143107831838e-01 2.096889250774848223e-01 1.474739299550453591e-04 -1.110385983410221936e-03 -5.472864694758486359e-02
7.590515747256032508e-02 2.177176231269590534e-01 2.099339105253257842e-01 4.469234608327943048e-05 -4.422204588934093876e-04 4.025043782301673811e-02
1.479633930095052285e-01 2.888750541624389712e-01 2.093331439449432896e-01 -9.170744441539190831e-04 -1.821641828848314510e-04 2.299453044777483024e-01
1.441553908552686003e-01 2.925591199355411787e-01 2.096831563811979993e-01 2.503253334185367844e-04 -3.421262350890843184e-04 -8.965365548355938574e-02
1.073081620086420856e-01 3.093464794370040516e-01 2.100520724543404327e-01 3.038762450233895604e-04 -7.192452073641949096e-04 -2.162996741825539970e-01
1.347201918473651394e-01 3.518075682623913458e-01 2.103314917899177794e-01 3.011076772945853273e-04 -6.387372421406281933e-04 -4.764828466113896210e-02
4.696733319572803794e-02 3.519424301992433168e-01 2.089046495863230990e-01 -1.465181835054282420e-04 -1.684334180962670418e-03 -3.313900922431074481e-01
-2.271616523220694461e-02 3.579357886078111117e-01 2.092891691270305499e-01 -4.372463419453105756e-04 -1.234532913764841994e-03 -3.057881612328606225e-01
5.362040787549158388e-02 3.364719748388151910e-01 2.093079075413990520e-01 6.174990686708307181e-04 3.695852270854025040e-05 -1.588389772038022174e-01
1.225044002701636825e-01 3.418532622676315191e-01 2.098278736169349457e-01 8.605714011965074099e-04 -3.068295330529643305e-05 -1.121213365582595795e-01
1.198074841247133981e-01 3.335761101540786200e-01 2.102072542053446957e-01 2.675361711146289983e-04 6.899517973709657043e-05 -1.133581187160595249e-01
1.552391116305707475e-01 3.525908930008778142e-01 2.105538011105214657e-01 1.959581785749373163e-06 1.080347829668050355e-03 -6.790724558675499678e-02
8.378070958516473099e-02 3.101188147654890259e-01 2.087779622294943516e-01 8.599807239652066749e-04 2.085715632852325804e-03 -7.898315480003978428e-02
1.644180037878295586e-01 3.390552707011240674e-01 2.090271392598356259e-01 -2.434465701238596076e-04 2.199882822118566159e-03 1.320554411930225649e-03
1.270834885450181362e-01 3.148451868838401668e-01 2.093666869562896826e-01 -4.913611357254418993e-04 1.975003749569677076e-03 -7.557722728259189116e-02
1.612406222614854723e-01 2.763593025390342905e-01 2.096297430642888315e-01 -3.287265431607862558e-04 4.662177621371330245e-03 -6.086694036811429037e-02
1.459566935668472343e-01 2.620283064782774063e-01 2.100088997104979649e-01 5.630070810676658438e-04 2.081456719040848755e-03 -1.177954107267744077e-01
1.108774719658612296e-01 1.841523561320660973e-01 2.100093118933760161e-01 2.428805239729784553e-04 2.236570309243891570e-03 3.921281130817316080e-02
2.037433457516851509e-01 1.170085222312319262e-01 2.100040328092587782e-01 6.260515067958423528e-04 3.891585951015088217e-03 6.847110092549396100e-03
2.168809691514576865e-01 3.060963953816317473e-02 2.102650949368957134e-01 3.139139884431622006e-04 2.858003357814145086e-03 1.609810330585966232e-01
1.885705451492917795e-01 6.678142504648905409e-02 2.104405529933598973e-01 -3.279837041621525852e-05 1.880037464807798571e-03 -1.003508628900984800e-01
1.732248814785258273e-01 1.284131925504802263e-01 2.103723092046353993e-01 1.989700295254473819e-04 1.037582760207116442e-03 -1.258530484341670030e-01
1.603865946623400096e-01 1.039472316837105614e-01 2.103802101710729455e-01 -8.856433385772240685e-05 1.403970575847435101e-03 -2.103879604892307242e-01
1.071361984410305473e-01 1.536665261963916507e-01 2.104482193594720552e-01 3.271589485275685832e-04 8.500400757018301530e-04 -3.917706127632585855e-01
2.774591428572179344e-02 1.672725070971234074e-01 2.093719606080142737e-01 6.715101933741276369e-04 4.028581260495207698e-03 -6.106632829649827343e-01
-3.201671109945346261e-02 1.462667832154173619e-01 2.095965879707349933e-01 7.940526173712298557e-05 5.250846630608247897e-03 -2.710664437400270854e-01
3.857222663003830043e-02 1.990193871599112707e-01 2.098246685286477287e-01 -2.659633347806068023e-04 3.906734286003419113e-03 -4.277954480249809843e-01
7.624278233858014509e-02 2.051283598289237453e-01 2.100260694712010046e-01 3.946691199122906533e-04 4.133203961465940941e-03 -6.357453697377761781e-01
1.517751105850287940e-01 2.205090841967399518e-01 2.101609169969237967e-01 -1.441559783854130556e-04 2.315883806713016618e-03 -6.547057815369429212e-01
1.088683658560077733e-01 2.805195699913148322e-01 2.102921213871302708e-01 -4.918089289291391678e-04 1.067554486603910233e-03 -6.464506208637018636e-01
1.283251814013785796e-01 2.748750037812673352e-01 2.103851982319204783e-01 -1.478293902488443993e-04 2.803529026827735696e-04 -4.904472350327662711e-01
1.366524404640507007e-01 3.454044847641369320e-01 2.105755033239649632e-01 4.092991655694853671e-05 -5.992505504548165584e-04 -6.650355736691435649e-01
7.423583719179202567e-02 3.589917160502304472e-01 2.093228601000775013e-01 1.233964092004551918e-03 4.719270096888936346e-03 -3.534020829751894355e-01
1.636837203004022981e-02 3.415012517343704035e-01 2.095395899742792944e-01 3.155143524063543981e-04 2.921117647986195068e-03 -4.879612661192451739e-01
1.726417797108840274e-02 3.277309480271561326e-01 2.097853147033873489e-01 8.623372827962203814e-04 1.669582912131567292e-03 -3.720583173354404249e-01
7.473911225940756131e-02 3.516966519663734525e-01 2.099876726015032502e-01 7.473796550299900482e-04 2.163866543923044592e-03 -3.181093307384209590e-01
3.268960219833680347e-02 3.491836487353844887e-01 2.103048601598129230e-01 1.693734329913375606e-03 1.620016695681453364e-03 -4.359442091041312861e-01
4.738096184574960845e-02 3.214446034185596823e-01 2.102715153463830533e-01 2.494970742628542211e-04 2.217240359501206678e-03 -6.495602967438756092e-01
3.394510746042694871e-02 3.020651196156310392e-01 2.105814087449591754e-01 -1.016910183738284725e-04 2.525448984824640690e-03 -4.144208314015764283e-01
-6.072522618825029056e-02 3.436429349632229013e-01 2.088431382735569386e-01 2.275961534931901574e-04 2.972175139628767393e-03 -5.298652498121053656e-01
-8.575640425899956620e-02 3.847929107549237782e-01 2.090250357531541203e-01 5.828559775937462587e-04 3.452262127182065439e-03 -2.222868188445521476e-01
-2.221495084561621661e-02 3.218205185927195400e-01 2.094072510025656864e-01 -1.554285969147500130e-04 9.042784560597658030e-04 -2.632304641311377646e-01
-1.211137086355046077e-01 3.483460213719227205e-01 2.094464541099863575e-01 -4.881297292390922906e-05 -5.477065381858819450e-04 -4.069606189811495467e-01
-1.111528211312450970e-01 2.623767476189518555e-01 2.095130566228967650e-01 1.188521524966140979e-03 8.234672264236226171e-04 -5.004065336192039526e-01
-8.633168032797500224e-02 2.656593665975874874e-01 2.096068657822981463e-01 1.598218634279148509e-03 1.311653524539889036e-03 -4.342861730566431877e-01
-8.153660150964506248e-02 2.734801663605566091e-01 2.101477002611031319e-01 -2.982249412339243880e-04 2.765838433207515944e-05 -3.479375841966849126e-01
-7.990056031053853480e-02 2.161855767208711032e-01 2.102216998200574505e-01 1.029345908378944199e-03 -3.677048610240836847e-04 -3.387995724818057552e-01
-5.842256324735269762e-02 2.738697346419067258e-01 2.091949659628755120e-01 -1.017699987850927796e-04 -1.380402538749804942e-03 -2.753653634801936367e-01
-1.310155711062136463e-01 2.668039768395332190e-01 2.098455038757975344e-01 3.354465799672828982e-04 -2.320404020954810673e-03 -3.437311152788513069e-01
-1.128337088907943181e-01 2.469232242648954079e-01 2.097383933518248145e-01 -1.272086021127328203e-04 -2.600042509587741253e-03 -5.227114435985554808e-01
-4.511377711127191603e-02 2.941252318991082748e-01 2.096337511087474903e-01 2.277283310559852637e-04 -1.630257808054882311e-03 -4.083312469920593046e-01
-3.613485720020649661e-02 3.079887422309455225e-01 2.099511741116134589e-01 2.360545591013985878e-04 -2.174713656765616277e-03 -4.298827392919544188e-01
-2.736881838242147258e-02 3.702347307840340718e-01 2.101922276649142995e-01 -6.519275773575496351e-04 -1.486906519854426295e-03 -3.204848433760391635e-01
-3.067293253887912532e-02 3.980373069409802178e-01 2.092290413074668898e-01 -2.265571857929273003e-04 -1.467026080056747653e-03 -5.439797696985619879e-01
2.107341468857456407e-02 3.429961394707130018e-01 2.094837001633717555e-01 2.311679842837116691e-04 -1.935721013739126863e-03 -3.487765607226470665e-01
9.488923203864693678e-02 3.497406253220853856e-01 2.099616485390288778e-01 9.544315153622517179e-06 -2.390402209793685701e-03 -2.744113937800642944e-01
8.366012863336461103e-02 4.608876908373510384e-01 2.090904027194956938e-01 4.860445027009661781e-04 -9.265855606915161715e-04 -4.612162907142360324e-01
1.639889815500822356e-01 3.706284830647309514e-01 2.094097556354432288e-01 2.006138620418910015e-03 -1.550788432295923227e-03 -3.552763726009751655e-01
5.822503498058051452e-02 3.628140526643205410e-01 2.096488558699251548e-01 -5.831783793009838565e-05 -1.004151809979445063e-03 -6.356277059219105352e-01
6.347732699018600322e-02 2.505385363312749858e-01 2.099945325091282511e-01 1.350327798300210349e-03 -1.185096321773863263e-03 -2.242950193160683781e-01
1.627348479242148316e-01 2.501185494288445943e-01 2.100637593856833352e-01 -4.161636352346512234e-04 -7.973602088046098831e-04 -1.713882458758718141e-01
5.200862541117436122e-02 3.153386055046315528e-01 2.094631307324233971e-01 -1.778116713540440488e-05 -8.684157799876928005e-04 -3.913892224883211424e-01
7.550566929741882316e-02 3.010060860774675384e-01 2.095373358294964072e-01 -3.114030981450529299e-04 -8.906746295225657396e-05 -2.379760721780838917e-01
1.439255129279414513e-01 3.355308062644760669e-01 2.098590896153770813e-01 -9.339336444750034926e-04 4.845460318824882729e-04 -5.258644138817882840e-01
1.621249677953914281e-01 3.374374546583154277e-01 2.098021901166118308e-01 2.934468826247029209e-04 -2.478444362094967403e-04 -3.290080443186889081e-01
9.846315971454075444e-02 3.252934969356538475e-01 2.105353050233413348e-01 -1.270512892510672689e-03 2.704524930148661469e-04 -2.227863283515043036e-01
1.124945749617019125e-01 3.574835141554289497e-01 2.093482073976132285e-01 -2.432022459058044066e-04 1.190133866106095166e-03 -3.147214311385606589e-01
1.947809333380460528e-01 3.411500066286867194e-01 2.098184282359367159e-01 -4.373283155167713313e-05 7.646420200445448560e-04 -2.939291676964622679e-01
1.841200001080997850e-01 3.778783480307543741e-01 2.090847541958262279e-01 -6.892530520309830605e-04 1.749654775324530065e-03 -4.837373545285841847e-01
1.353379862550169177e-01 4.358775486739182581e-01 2.091577270557466450e-01 -1.059247201642034698e-04 1.854156000217415529e-03 -6.988895649984621095e-01
1.359718674957995088e-01 4.449059343871116790e-01 2.093827651166144110e-01 -1.960574557470921885e-04 1.686631552867603329e-03 -3.606934431913614847e-01
1.567029238005291647e-01 3.963389027878624904e-01 2.095589329612680407e-01 6.831198155978996994e-04 7.459476845781840221e-04 -5.173842193695907810e-01
2.060452260762370702e-01 3.498840210757314662e-01 2.100462382967309138e-01 -1.804965449609232991e-04 8.738906365165969138e-04 -2.966316655771434885e-01
2.642747811121053392e-01 3.435401254228639956e-01 2.101261528652264565e-01 6.343318829085504377e-04 -5.250715781658671800e-04 -3.247111641426815298e-01
1.465083319284774532e-01 3.322521098297491760e-01 2.089716198335274111e-01 -1.212526383862796948e-04 -6.725652061122031197e-04 -5.561049169917334778e-01
1.624667949819256496e-01 3.329653332221276241e-01 2.093500437395490743e-01 -4.398337488568064687e-04 2.215491112989276777e-04 -3.254458416520688013e-01
1.877797651543053337e-01 2.680253539740204416e-01 2.093331154408784589e-01 5.075046907993945597e-04 2.732104477636047531e-04 -3.960779125067092621e-01
2.699603204677675228e-01 2.901299581744838374e-01 2.097528936284370205e-01 3.958720951059221276e-04 -3.016986964405955524e-04 -4.696029904952339074e-01
2.512729483459157920e-01 2.607177071574379723e-01 2.098716375062630313e-01 6.162883675835966911e-04 -1.841517271371603121e-03 -4.436425717877604535e-01
2.094054435912421352e-01 2.710381609544508241e-01 2.102864032798122396e-01 -3.367323507977791858e-04 -4.345493361900516034e-04 -2.097830483347725705e-01
1.786901000333086242e-01 2.178460243320790302e-01 2.090024089627766646e-01 1.275186310581805355e-05 -9.853135920425222429e-04 -5.487050577503655990e-01
1.321659598591071461e-01 2.069108728730527369e-01 2.091837090126248966e-01 2.928763440765880560e-08 -8.193586871999652651e-05 -4.017254693967476364e-01
8.740620441400151486e-02 2.169569917641716028e-01 2.093532401371118179e-01 -1.189186746012531299e-04 1.970000352037806909e-04 -3.502260954575178720e-01
6.752690673226383056e-02 2.092047770028188647e-01 2.097572048832158087e-01 -8.478360054045005556e-06 -3.268128295513756332e-06 -3.231025155689115635e-01
2.802291396363502593e-02 2.310791245566788665e-01 2.098289858642568007e-01 -1.021045632977951649e-04 5.598268286963251333e-04 -3.945667771769935106e-01
-2.282944929349903229e-02 1.507774808418642642e-01 2.099482754594719225e-01 2.863075367767647147e-04 3.827984750216251739e-04 -3.976266225751703409e-01
-8.049283257247574763e-02 1.231955876056116256e-01 2.101192671143396473e-01 -1.934983108104086972e-04 1.041626875805342018e-03 -2.997352046102799150e-01
5.153362928648552027e-03 1.065193642586207690e-01 2.100570231890195316e-01 6.730540497168659023e-04 2.828626296235635298e-03 -3.381739755039078754e-01
2.180858867090533157e-02 5.321099664769788490e-02 2.100490352518714077e-01 3.578836279748577988e-04 2.662176354902855407e-03 -3.265965456844843740e-01
-1.322127515514631528e-02 1.686055711973617754e-02 2.100507429666157444e-01 8.877616786143601943e-05 2.370754219383978088e-03 -3.513954564462208330e-01
2.142382265004821526e-02 1.937543743201042279e-02 2.095761570794215656e-01 1.143863437275231143e-04 1.559661206041244343e-03 -2.712687059913630461e-01
3.370054145006380619e-02 3.813912269553762502e-02 2.090702891946296105e-01 9.265139039791914265e-05 4.377995301471205398e-04 -3.572984813646949420e-01
4.164253560779154761e-02 9.143253525567332507e-02 2.099939730464065457e-01 -2.785642862681954259e-04 2.691533290064895573e-03 -4.780736649754973033e-01
-9.650523001752663380e-03 3.077428492424068296e-02 2.093220401599574787e-01 2.182359407242268968e-04 5.918564777525262130e-04 -4.200637637441548833e-01
8.486575452314393947e-03 1.391995120438326017e-02 2.100291774242973308e-01 4.134329796563533351e-05 2.091833347081907025e-03 -4.010301973287019317e-01
4.594439159457539695e-02 4.346150254757855450e-03 2.095912257912586618e-01 1.365779015516298224e-04 1.466783959641391457e-03 -3.672554937629285421e-01
-3.495944235402153460e-03 -1.395185912451843771e-02 2.101576820679953439e-01 1.113172851894574089e-04 2.681426869520783709e-03 -4.282321170339433714e-01
-7.418981424755990983e-02 -2.120254409189930786e-02 2.094109067669921442e-01 -3.569200491900356215e-05 1.117387930889261142e-03 -4.908467841486643390e-01
-3.676469473676427513e-02 -5.137549173394728719e-02 2.097775246344850686e-01 -3.159491933553399247e-05 1.939645052653067060e-03 -3.199212900541735238e-01
-3.901353641183989696e-02 -8.584287886090674613e-02 2.102958394444862100e-01 1.027997633389911134e-04 2.700036665709700315e-03 -3.127864598421492559e-01
-7.150187260160584257e-02 -7.430112447363769468e-02 2.094335836206809298e-01 1.934195304586146076e-05 1.190308203468469017e-03 -3.358893990677359609e-01
-8.479874710771218016e-03 -1.071461914249444286e-01 2.096973688024115212e-01 5.316469262902607336e-04 2.037615695542248362e-03 -3.836806969608154705e-01
-3.244007522625124568e-02 -1.051631890426179550e-01 2.099191392346162477e-01 1.400155306539011988e-05 2.011830147019818670e-03 -3.315918777164804654e-01
-6.929206057429840304e-02 -1.541154788986474899e-01 2.100623532310594288e-01 -1.448812454683241042e-04 2.097716764094980334e-03 -3.521556235061671924e-01
-6.480943104159146706e-02 -1.144163181121941736e-01 2.102958723170017530e-01 -6.210378589871065527e-04 2.531232597465849377e-03 -3.511290337734664369e-01
-9.653495263746295074e-02 -1.647937519588753841e-01 2.103517105345777960e-01 3.637274232435676303e-04 3.060334774484232013e-03 -4.148962294910137905e-01
-7.131013221772597444e-02 -1.257359746049718785e-01 2.104106065978169071e-01 -5.693509945011332885e-04 2.994514541743443711e-03 -4.088316114703882120e-01
-8.475878014909016267e-02 -1.042435073705347132e-01 2.092738745702072967e-01 -3.041576494553593869e-04 2.875046425818914009e-04 -3.373053410309754807e-01
-4.560970202991068700e-02 -5.527550473632532324e-02 2.093303566734535659e-01 -4.558050116499688491e-04 1.770603196961330534e-04 -2.982004937360052121e-01
-3.912082120050154599e-02 -5.363202066314397970e-02 2.093143611848281571e-01 -1.231711578012254188e-04 1.995932337397726794e-04 -2.706843350815740790e-01
-2.261519168071386351e-02 -5.867857929721126409e-02 2.093284123161413546e-01 -2.854251684864351568e-04 -4.441545763508251282e-05 -2.345686399265684008e-01
-1.194910538287180697e-02 -7.812495696590797400e-02 2.093283503004148560e-01 -3.392655727756885850e-05 2.311816635679107509e-04 -1.915476897899959507e-01
-3.196349962622774266e-02 -6.921851465060052666e-02 2.093245792685023421e-01 -1.184435880612839308e-04 1.233318511907494108e-04 -1.419691724054415738e-01
-5.821951380128463638e-02 -1.005896586876443982e-01 2.093237435555979631e-01 6.556483887771116272e-04 5.666306329343000648e-04 -2.039907488413545411e-01
-8.209779571971156931e-02 -7.428127392310228394e-02 2.093345326863039202e-01 -1.540255544153769872e-04 1.409774912282465043e-04 -2.480095932474868925e-01
-3.950184107389971555e-02 -5.568423310934386000e-02 2.093287810084279998e-01 -2.290242741625606905e-04 4.659729420072278544e-04 -1.645513525120038956e-01
-4.282920688554869848e-02 -7.596255729176029647e-02 2.093174932429915369e-01 2.909833061067329269e-04 3.876552708660571103e-04 -1.603928359039343832e-01
-7.783486847937719222e-03 -8.459594250898253009e-02 2.093203872600306048e-01 6.851951380026687153e-05 1.800985369276684870e-04 -1.842451900009444143e-01
-3.924611524461626283e-02 -6.836361365161192083e-02 2.093136607305904340e-01 7.994409173026916535e-05 3.194503444804414451e-04 -2.234823159749493582e-01
-6.569981300097629817e-02 -7.071110911363542861e-02 2.093211139953949917e-01 -5.201168298828443888e-05 3.034595761901561438e-04 -2.177006930534602092e-01
-6.755641924814126398e-02 -8.108986889263691822e-02 2.092897123826263361e-01 6.669687696307916751e-05 2.908555246053042584e-04 -1.834320212085822077e-01
-4.239798666152001794e-02 -7.022441770090490087e-02 2.093113527009021757e-01 8.834768353260086769e-05 2.797023123580806439e-04 -2.459695154514802695e-01
-4.168278150536310067e-02 -6.269803092116511822e-02 2.093072768386551319e-01 -2.365266548455354683e-04 1.106335536644073537e-04 -2.321374355052868155e-01
-3.750785441604035514e-02 -8.132959950878787536e-02 2.093227098725160551e-01 1.643658827063725709e-04 3.537267279863062818e-04 -2.311464616057625487e-01
-3.835238050349680516e-02 -1.029129580384073456e-01 2.093016874672840588e-01 3.488869897292704025e-04 3.787032826044282310e-04 -2.447758697903350822e-01
-3.599224769426360299e-02 -1.217078272963006691e-01 2.093178224732257231e-01 1.258334912848059103e-05 2.575369778386569922e-04 -1.745368310465843509e-01
-7.137742296285225219e-02 -6.330192271169048090e-02 2.093122368827033397e-01 -1.693163416456967081e-04 2.353119111208757785e-04 -2.439733744373632773e-01
-3.442970463128572356e-02 -1.049556838094278105e-01 2.093221454969400042e-01 3.232616651066741838e-05 3.035122516440186963e-04 -1.690860844539506802e-01
-5.706932598587480948e-02 -1.187746393972288900e-01 2.092985101554682981e-01 1.460132363416557046e-04 3.396976102554738908e-04 -1.414462178046606566e-01
-6.926728326728007201e-02 -8.244198377513980991e-02 2.093179086623974672e-01 -1.793239978102725623e-04 2.786352630464268760e-04 -2.755242752293065034e-01
-5.275143249096355541e-02 -9.062703624049359141e-02 2.093272804694074618e-01 8.144957489667045605e-05 5.182103356371166921e-04 -2.475411504161524889e-01
-2.274182250597956562e-02 -6.877398762130418342e-02 2.093401892555430965e-01 -1.229328958626175366e-04 2.278281627005359202e-04 -1.866955191399643776e-01
-8.868397898681164293e-03 -8.479177633686439675e-02 2.093127433474691879e-01 -4.327210914323955965e-05 8.035379271609850054e-05 -2.041211640885750023e-01
-4.205595418366633864e-02 -1.084864253402679779e-01 2.093104774055083439e-01 3.931510639768754099e-05 2.983817588628133151e-04 -1.472357016335676116e-01
-5.823344094743626576e-02 -4.800852826802681772e-02 2.093085200450572891e-01 -2.087205044335451668e-04 1.403469120290820724e-04 -2.753017197067192945e-01
-2.127843442264423790e-02 -4.773071126088161698e-02 2.093185520387565446e-01 8.967252251089340338e-05 7.500420146052687352e-04 -1.932896030514369701e-01
-6.041843020219412469e-02 -5.624548986658851890e-02 2.093277102158919156e-01 2.020040977269389401e-04 2.590100418463356976e-04 -2.314761419435735490e-01
-1.807990676061503946e-02 -4.953095912348134261e-02 2.093410837481352593e-01 -6.103661919800905877e-05 2.419854240549390394e-04 -2.992722498833971234e-01
-4.724357637361387141e-02 -4.710214620694439663e-02 2.093302228420512723e-01 -1.363167195713275320e-04 1.035255405447000335e-04 -1.903171902425993267e-01
-3.581462391448463761e-02 -4.360091388311605060e-02 2.093467386953613563e-01 -9.009821150965830220e-05 1.587222806065729196e-04 -1.815615740496368535e-01
-7.264065331440963669e-02 -7.246764299826538580e-02 2.093264344238636165e-01 -6.603800477552163289e-05 7.173501159524168385e-05 -2.310403742708775909e-01
-6.141388819965271084e-02 -7.963616400663481310e-02 2.093384879308361479e-01 3.893637020173096596e-06 2.166055270702872129e-04 -1.947087191967052933e-01
-6.547858381994256516e-02 -6.114032840564034843e-02 2.093256540337916083e-01 -4.336641785611276628e-05 4.974816235852086736e-04 -2.115504238684073057e-01
-4.887691064922285167e-02 -8.321753725787185696e-02 2.093364567933987397e-01 7.088526799392888414e-05 2.662322892552804215e-05 -1.727276993448324527e-01
-3.586774742993585618e-02 -1.000870715260682997e-01 2.092957931334454291e-01 8.129452772457172185e-05 4.350557073913130079e-04 -1.860898547425268168e-01
-5.095060271009330122e-02 -6.527360076451572957e-02 2.093263828116272429e-01 -7.181257809162763729e-05 3.185451351377800830e-04 -2.550829596194924553e-01
-3.959446017763629255e-02 -7.322138726807578268e-02 2.093441399024306704e-01 1.065991938849947159e-04 1.896733858714601490e-04 -2.400795231736911339e-01
2.136939155758316861e-03 -9.142688606208525248e-02 2.093426410277899885e-01 -3.691305235120825862e-05 3.137545393538760871e-04 -1.845984518126753959e-01
-1.554388237680835380e-02 -7.442939207880727714e-02 2.093408487291034126e-01 6.171078823856360337e-05 5.096128055220466337e-04 -2.008565997960347072e-01
-3.457811251998548635e-02 -6.113907894947456789e-02 2.093124188017470577e-01 -2.965592468377882237e-04 9.442255128359198959e-05 -2.807441592892148674e-01
-3.909617479042523658e-02 -7.470590782926794793e-02 2.093335401622260505e-01 6.606684922041322942e-05 3.387970633980746612e-04 -2.004662189099742919e-01
-2.399122597360105191e-02 -5.658835326144742717e-02 2.093466698750314769e-01 1.784225757656988920e-04 5.763385300421144984e-04 -2.248173513826622616e-01
-2.044557070695789125e-02 -4.303605192752386205e-02 2.093167041761116454e-01 -3.909885299557433968e-04 -6.750582993357458065e-05 -2.366169216443893275e-01
-8.902360058549520921e-03 -3.970529142178085003e-02 2.093368422139120222e-01 5.521810288427734972e-05 2.765567194601722782e-04 -1.587739205736777848e-01
-2.580622966930955567e-02 -5.745130696225354827e-02 2.093174838107536573e-01 5.371735564323967154e-05 3.529969682595329424e-04 -1.528469524619082143e-01
-3.447430704998995232e-02 -6.080272897704452895e-02 2.093383521359290511e-01 1.323484517313883396e-04 6.337598892255789278e-05 -2.276339376392407521e-01
-3.786942166095265405e-02 -6.352642509381434266e-02 2.093284976673059350e-01 -1.975687733599343766e-05 4.568113056783719927e-04 -1.598320745017613453e-01
-3.593570999012805911e-02 -7.389328484864801649e-02 2.093252652128975155e-01 2.752741331749748396e-04 4.020898167050891421e-04 -2.286008979687922660e-01
-4.995368668299385306e-02 -6.981712886806679119e-02 2.093342887710766265e-01 1.012598605065630599e-04 5.662258859899120316e-04 -2.244789795024787205e-01
-7.671397340797747599e-03 -8.180672810240154080e-02 2.092987688681634539e-01 -3.850822633311996163e-05 2.607669926903701755e-04 -2.518947571896436033e-01
-1.360137865031302642e-02 -8.802667441247180591e-02 2.093360001925366753e-01 1.664596397176682288e-04 2.480213628179587441e-04 -1.714271146428327786e-01
-2.281847417041399720e-02 -5.108676082067288571e-02 2.093078187087892839e-01 -4.582240559378613536e-04 4.118060832019894408e-05 -2.775081527286207828e-01
-3.304682391128220542e-02 -4.435764912313760328e-02 2.093175283247218355e-01 -1.435348419666605205e-04 3.368810354215641487e-04 -2.177853534366019361e-01
-5.340732972735524886e-02 -6.169071249471359819e-02 2.093412892736682407e-01 2.442692941528670780e-04 2.978626778617342753e-04 -2.041224984542958365e-01
-5.554787934902553903e-02 -5.579238317519314566e-02 2.093515968353633072e-01 -1.834023589034208617e-04 1.919580057101033640e-04 -1.441388434726493806e-01
