8.381653697637143907e-02 4.163792999789444060e-01 2.080917417787832568e-01 -2.182473524516584992e-03 -1.535196361774681870e-02 -3.174446899964661339e-01
1.178451875941882165e-01 4.057851288832872161e-01 2.091887538691296067e-01 -2.827418603153469931e-04 -9.778668517803701735e-03 -2.516665394626206309e-01
1.780025464073778929e-01 3.446640635993870050e-01 2.105864924468250909e-01 -1.549512093974284748e-04 -3.799903553425991974e-03 -3.307212164864810067e-01
7.764780606571504429e-02 4.436317745958012204e-01 2.119091199235799694e-01 -3.564011897567331182e-04 1.938323431117448857e-03 -4.210969042975394871e-01
1.399671106165803480e-01 4.417658568006029851e-01 2.131704878951664051e-01 -3.313240421553994793e-04 7.830754055047111500e-03 -6.155031489262617894e-01
2.252726849518105756e-01 4.990128107701895521e-01 2.144965706838828923e-01 -1.437519386470062282e-03 1.245517363110124759e-02 -6.049318999382543582e-01
1.293138500187252793e-01 5.698050641367274904e-01 2.159276011469615231e-01 -2.505234506485286283e-03 1.549433662425859018e-02 -9.380349172735081842e-01
3.760276865063168494e-01 5.030977465781544256e-01 2.173891092924792878e-01 -2.563755209658239581e-03 1.692553906320728996e-02 -3.673570221777187617e-01
4.111644747981970105e-01 5.485072203943203162e-01 2.189291821919828185e-01 -2.764631573661370176e-03 1.694494222859074806e-02 -9.796972473910123824e-01
-5.168326206660206479e-01 3.871058941063080239e-01 2.001307322613057327e-01 -4.275264500298437201e-03 1.300740428935935437e-02 -1.154574469235814860e+00
-5.794720301569739052e-01 3.565370246117401387e-01 2.018203391916568723e-01 -1.551214074879788112e-03 1.435516865435684103e-02 -7.009872063745110626e-01
-5.317597427683090627e-01 5.567503570461156404e-01 2.032068546318148705e-01 -1.475532699143627209e-03 1.328116291178930639e-02 -4.752060068068424403e-01
-3.764357943881577184e-01 5.458574528585691255e-01 2.048505818384466215e-01 -8.501762294130396852e-04 1.103497626961348101e-02 -1.047960469260699745e-01
-3.108452168120827697e-01 4.916183953889461944e-01 2.063126128583380181e-01 -5.121069296817839416e-04 8.330002735596774011e-03 -1.207987885273846124e-01
-2.863560740293034090e-01 5.059029528468990122e-01 2.081551693643088341e-01 4.420876553351784074e-06 4.932812484758547500e-03 -2.675721763180242685e-01
-1.188318537315953549e-01 5.770656711244162018e-01 2.095614671537778251e-01 -1.426290370377498941e-04 1.441964687412241068e-03 -1.978818204414170834e-01
1.145468629875635302e-01 5.802891058443857553e-01 2.112044725798762901e-01 3.769330291503203184e-04 -1.306087098112557188e-03 -2.413328018650910956e-01
1.858698261533032470e-01 5.288314711232074972e-01 2.131643319595830088e-01 1.759130918484881601e-04 -4.644709241596391668e-03 -2.569644901205158094e-01
3.207134270020382538e-01 5.212276102502217956e-01 2.149279199131996498e-01 -9.914746572532273216e-04 -7.200458917374117501e-03 -5.154326128136773599e-01
4.676096418382448827e-01 3.907911000369933552e-01 2.167545480720815543e-01 -8.269765311832305305e-04 -9.020769597287875072e-03 -4.380489693215358638e-01
4.676433890846173336e-01 3.878015169542027296e-01 2.188025640757281787e-01 -1.040141761428764076e-03 -1.130538993387455310e-02 -7.316747500341694854e-01
-2.538078260404233455e-01 4.983602994592128410e-01 2.001408159490852268e-01 4.364548837572727587e-05 3.100443584453551563e-03 -5.910530707059096223e-01
-8.676987060531975160e-02 5.651107764269751588e-01 2.018269109902188219e-01 8.647817607310471794e-04 3.571451447855033233e-03 -6.341025042482786311e-01
-8.070180876113421109e-03 4.268441171539135159e-01 2.043904066718615908e-01 5.291256674352141660e-04 2.718096514694628204e-03 -4.974398305295947287e-01
-2.488392923592981990e-02 3.175251568938580182e-01 2.063309529165451295e-01 6.002396252842759870e-04 2.152237731292955866e-03 -4.820020787666046136e-01
1.613339007190599250e-01 3.503010114259577645e-01 2.082452283737377119e-01 7.189199457841716212e-04 2.204347856101690570e-03 -5.367333697742925347e-01
1.442621605645327543e-01 3.140030351090243310e-01 2.106501100360785861e-01 -2.180165140642309019e-04 1.095893894527960079e-03 -6.432139408661972091e-01
2.593309269250377858e-01 2.848782600103132445e-01 2.124508825140670742e-01 3.699007841501873750e-04 1.216908778301545009e-03 -6.287553619611024880e-01
2.795258178738118104e-01 3.060882104277136140e-01 2.149433715092370356e-01 -2.732798666370372768e-04 2.531349931495318175e-04 -8.354308294234148446e-01
3.474135006525927438e-01 1.524109217206011391e-01 2.170961334958906863e-01 1.056332579504714935e-03 7.441912399306271821e-04 -8.629697312498358919e-01
4.239327124395248503e-01 2.527730842575572345e-01 2.192693256765291254e-01 -2.602777322311399270e-04 -7.132210608511554886e-04 -1.015383162415210538e+00
-1.694188846688133576e-01 2.606686514000643440e-01 2.012261016491634358e-01 1.090389000055059891e-03 -1.618809550769027307e-03 -6.499560639856905020e-01
-1.810622176619258450e-01 2.713644187394014806e-01 2.031095264009101786e-01 -5.195328216544516835e-04 -5.363330232526391291e-04 -4.891040923893346104e-01
-1.389274896092821399e-01 3.855388691487112718e-01 2.056648372575055617e-01 -4.314171812794405212e-05 -1.153325749304598370e-03 -5.314834928470495434e-01
-6.397390360444069057e-02 3.591143524386266050e-01 2.080101200605546374e-01 -6.223513848088435541e-05 -5.980627170898501809e-04 -8.476569029592335713e-01
3.973116391166762323e-02 3.879074725841381022e-01 2.103400451141481109e-01 4.189932808965098738e-05 -1.043295466893624313e-03 -6.551112853851092099e-01
1.444995246861715543e-01 4.177533822874615610e-01 2.125593192291456157e-01 -5.336099704088616584e-04 -6.866657814137781249e-04 -5.227019349298409612e-01
2.573959440888338168e-01 5.129715170860439377e-01 2.157795298158444175e-01 -3.116379042449902818e-03 -3.246570288386437398e-03 -5.635464818323253633e-01
3.565386703633305343e-01 4.357490212018858000e-01 2.177566656211083473e-01 3.481836278119462120e-04 -1.645164664806151493e-03 -6.966260866706923682e-01
-1.423591878922296772e-01 5.027820720668254584e-01 1.996615740804029704e-01 3.551720109871991135e-04 -9.348393944450956983e-05 -4.588976474316270315e-01
-8.433603949283999257e-02 5.339814475372326452e-01 2.021151285060534541e-01 -7.318915952242273045e-05 6.297681253181862263e-04 -2.965847376274505787e-01
2.296372998917105973e-02 4.048786042933419371e-01 2.043944275797104360e-01 -3.510109573428939395e-05 3.327330101823764135e-04 -3.589078313523905717e-01
1.135099040516427127e-01 4.210988120017140623e-01 2.067396087430232732e-01 3.222949152895492725e-05 3.884618372357450267e-04 -4.230126101781225278e-01
9.755790888932479310e-02 3.400129298088461205e-01 2.089372054698546699e-01 -1.461507876271681591e-05 2.916022411385451305e-04 -1.714415269653566387e-01
1.386021205622548491e-01 3.005329914227853894e-01 2.111378510785399398e-01 2.951346446257127913e-04 5.747815464815038324e-04 -1.547693511711187020e-01
2.704233853909053242e-01 3.830568462136078045e-01 2.134380599557144098e-01 6.894135581011336339e-05 7.533738659605901259e-04 -3.805904109187122075e-01
1.708820636739801224e-01 4.297796892867315477e-01 2.157995937024781430e-01 -1.834003570038660031e-06 8.179647766177860482e-04 -1.956423944314991115e-01
1.022016030107086582e-01 3.391274070439020960e-01 2.180447606509874348e-01 -1.840369858062020211e-04 7.377124034118393752e-04 -2.338284841998581332e-01
9.055136410154759896e-02 4.512117205701667855e-01 2.201214372305516087e-01 -7.480396022520779996e-05 2.916563355399730316e-04 1.565446449113564939e-02
-4.114764993909129087e-01 5.453061962223290093e-01 2.018600277896052120e-01 -4.877238520821927464e-04 6.302609948323987729e-03 -4.655293537473707000e-01
-2.398390572771890994e-01 6.513943252164102748e-01 2.039510590184883676e-01 -2.180479146530847926e-04 5.215833293787775805e-03 -5.819609186668573964e-01
-1.239007264767608280e-01 6.242822468277905434e-01 2.060875660652362606e-01 -1.785713084840330857e-05 3.971682180159458349e-03 -5.882424264004726400e-01
-1.164968731445344963e-01 6.473141274755520591e-01 2.081390456464364824e-01 6.054978432379655440e-04 1.814275595763511616e-03 -6.534033814175834731e-01
8.120340331380154764e-02 5.039186947615853507e-01 2.106429350084880192e-01 -3.087217933551304251e-04 -2.748339457162567957e-06 -4.591935955412302928e-01
2.201823616288037522e-01 6.179375263864230750e-01 2.121001084508753465e-01 -1.953385888481816332e-05 -1.142164702522017539e-03 -4.534040821748194228e-01
2.646547142886322979e-01 6.099332013284077814e-01 2.147744145776577240e-01 -5.443199342448966616e-06 -3.804458335663913043e-03 -3.034279480771638893e-01
3.000609923688574154e-01 5.756557766578819235e-01 2.165143533615698224e-01 1.842058906696017408e-04 -5.423421242981381861e-03 -1.714716938160570914e-01
4.035683360214907256e-01 5.082755484391389134e-01 2.187828401923090360e-01 1.819040244948833744e-04 -8.153640365741168447e-03 -3.485357371340233601e-01
-1.846685705179195447e-01 5.760500839294667719e-01 2.004229316082125623e-01 -2.102873422411814948e-04 1.549843036176424887e-03 -5.003524663093300573e-01
-2.791824396600600666e-01 5.393758896085055765e-01 2.027629574524104639e-01 5.452321853026356356e-04 -1.055253922043101729e-03 -4.599364726025961803e-01
-2.350836562451139866e-01 5.175958459177250059e-01 2.046801381906057093e-01 -8.753271922284267426e-05 -2.993597471397780371e-03 -6.855052997745616494e-01
-3.209243824859412397e-01 4.639669045477946008e-01 2.068843496645295654e-01 2.892286376137708534e-04 -5.323425096832674376e-03 -5.578742584866979159e-01
-2.301047534100343905e-01 6.020292856627527112e-01 2.090124093998874111e-01 7.807962755774554373e-04 -7.433897655969843622e-03 -4.067778850581875716e-01
-2.716969009430521970e-03 5.726295756261980952e-01 2.110451358829820712e-01 -5.566381958694314926e-04 -9.758302666797355127e-03 -6.155547927875903991e-01
1.342346748724639605e-01 3.791038264527126223e-01 2.132628492027991429e-01 -1.044432228478863085e-03 -1.195857213091768012e-02 -4.408884831223416345e-01
8.019609907343049071e-02 3.580269020607444452e-01 2.154872027404857171e-01 -1.668367756361835170e-03 -1.407932709527655833e-02 -3.239680106124113168e-01
1.746127235369283603e-01 4.298681106684954512e-01 2.176056338379118160e-01 -2.360733503858240129e-03 -1.555143484281686257e-02 -4.042199718832098498e-01
-3.002933295531138858e-01 3.945432294938996942e-01 1.993732286038400470e-01 3.844322850949524555e-04 1.258120748905078952e-03 -3.382541392745347375e-01
-1.910183228611005146e-01 3.038020175081547203e-01 2.014823748806555126e-01 -9.243302514666514654e-05 -2.292836443339233679e-04 -5.306725438204351608e-01
-1.343130710146737961e-01 2.385455703239706404e-01 2.037579171640553355e-01 -8.718413982377098883e-04 -8.631126481490939382e-04 -6.019623255252705141e-01
-5.225641264434610633e-02 2.853313634013894262e-01 2.061616584605570068e-01 4.612070084782557942e-04 -1.051776028504048440e-03 -6.922258481830965149e-01
7.060361745688156776e-02 3.427216353459824338e-01 2.084351594766710725e-01 4.412966857561134997e-04 -1.255592950970566219e-03 -4.370610654252524707e-01
1.231609218805815031e-01 3.785269104691046382e-01 2.103967527413803107e-01 1.399453186696855993e-04 -1.558467665371247044e-03 -3.128754241224455113e-01
1.234421388319027341e-01 4.097832211732536090e-01 2.126823084184389367e-01 -9.928113674597407144e-04 -1.638469132363183601e-03 -7.808629885208708821e-01
1.074995049706106848e-01 3.126475865801559006e-01 2.150387911322244605e-01 5.110987658559678140e-04 -1.267848050108104753e-03 -7.525601585567799345e-01
2.060744490689256636e-01 3.548235913585046086e-01 2.171104783205257682e-01 1.005205790466338987e-03 -1.082281370397736179e-03 -6.801086208867113125e-01
2.723668591721483678e-01 2.339170806305733707e-01 2.192800080343123015e-01 4.414935391965619615e-04 -7.215008864453497685e-04 -5.993120958917692587e-01
-3.415506876838300676e-01 3.343039114526167310e-01 2.008130901621312803e-01 6.425977871129266630e-04 -3.841805705019968407e-03 -6.826569128796080577e-01
-1.574995753644503338e-01 2.598596006583396845e-01 2.029046489929949848e-01 -5.260187489656929495e-05 -2.343234534383649773e-03 -3.559930019318070515e-01
-7.174137818400216915e-02 2.633153779079366874e-01 2.048640421825041469e-01 2.232143330820807913e-05 -8.208084415014286431e-04 -2.226613217107422937e-01
-3.899197281504664103e-02 2.655392060641756369e-01 2.069476897414922467e-01 -1.785191747109146024e-04 1.033734720623992898e-03 -4.478714511812459387e-01
5.482665918246756170e-02 3.105410120515679218e-01 2.088459969781798486e-01 -3.888854498696318906e-05 4.033023801418082234e-03 -3.715316330690567742e-02
7.537035896654008249e-02 1.845373364482911505e-01 2.107684761714827548e-01 -2.579285868850759523e-04 6.714351679597586019e-03 2.005364307491648568e-01
1.679624336328927880e-01 2.972444275937835556e-01 2.125535253159052118e-01 -9.236866484410634912e-04 1.007890929619588774e-02 3.497459085885215035e-01
1.455816279807559399e-01 2.570302382775689343e-01 2.141850526076442551e-01 -1.264335828686300248e-03 1.404403118863980192e-02 2.735049715252857450e-01
1.160517376820940083e-01 2.460151720453925550e-01 2.160763840192405638e-01 -2.794316613778567715e-03 1.734426807136237036e-02 -3.384688776131373755e-01
8.000285067084306201e-03 1.078611763528020961e-01 2.031919347260144892e-01 -5.881450548172104369e-04 -8.697541534807989166e-03 9.151177917567272779e-02
3.519588336183443467e-02 -3.507496385931053312e-03 2.050816450484073683e-01 7.868782513362719685e-05 -6.855875597172502410e-03 -1.476727280378376493e-02
5.865149231812767650e-02 -4.022337821055543827e-02 2.068907789167854228e-01 -6.142783061347400651e-04 -2.242332352765807110e-03 2.312633470980550998e-01
5.710377381687547355e-02 7.360361312830358826e-02 2.087104773144105030e-01 1.188834061415722302e-04 1.285197613549421197e-03 -1.164676028719289352e-01
1.325324890735425365e-01 5.863627587047991196e-02 2.106028395179836421e-01 -2.723923542850004696e-04 6.275337439431836160e-03 -3.468441200559175264e-01
2.035841639222224220e-01 1.607661693378891199e-01 2.124092551655973327e-01 -1.114396526583130535e-03 1.117037772678149132e-02 -1.977517115288803529e-01
1.243919869512742082e-01 2.335177651310064439e-01 2.144131559326914460e-01 -1.958715340338844108e-03 1.379733326345719026e-02 -1.057994252331329044e-01
1.715942700193770487e-01 1.661186255423732772e-01 2.163963222470035030e-01 -2.683329071596658646e-03 1.777053523214151484e-02 -3.183034555100686114e-01
-2.492264362764793351e-01 2.021911310207405721e-01 2.014789283636025385e-01 -1.244419441602406850e-03 -9.287150215485050903e-03 -2.316017039854291470e-01
-1.932141137617968962e-01 2.501942600903241942e-01 2.034511737445995894e-01 -1.541022869629755812e-04 -6.204108236176338748e-03 -3.769256309721993881e-01
-1.541454217880277311e-01 1.904752086161889957e-01 2.055800191430515178e-01 -1.945785522096137217e-04 -3.735738740837771070e-03 -5.456248098588915019e-01
-4.863866094115860961e-02 2.446430000864497911e-01 2.077625452315617349e-01 -8.722824058147459511e-05 -1.799750464988557341e-03 -5.744430787661047866e-01
-3.913307489783639931e-02 3.526816235379508502e-01 2.097419657671719673e-01 1.205208746719085828e-04 -5.291427618364753305e-04 -6.183385983429093846e-01
6.698514830375675022e-02 3.770363812197683462e-01 2.117326721498974940e-01 -2.326428579408510117e-04 9.580121785722426611e-04 -5.374475221694730021e-01
6.623828797189391937e-02 2.775416663216739299e-01 2.141647015588678538e-01 -1.270688616751831479e-04 8.255394996061112814e-04 -5.842414519412882923e-01
7.348304479348367890e-02 2.459926542861688159e-01 2.162536457275514024e-01 1.524792900121396439e-04 1.604269487812138737e-03 -4.628456767056675081e-01
1.368752551789092220e-01 1.887739494616445801e-01 2.184081423226886254e-01 3.323455308822153079e-05 2.047798537274614101e-03 -4.818310881156014358e-01
-3.906985452980722417e-01 2.804199769903489292e-01 2.005843207235286640e-01 -1.496548033640047667e-03 -1.323152716521043418e-03 -3.660869617076121241e-01
-3.560010316765790939e-01 2.745656289925790805e-01 2.027829616654747702e-01 2.054995278790615267e-04 -6.279261760005444386e-04 -3.486419085759003278e-01
-4.251870705014108576e-01 2.781758044443424782e-01 2.047826170244411159e-01 3.567132058051670552e-04 -1.103613148722423949e-03 -4.355286339562404740e-01
-4.029874617387435576e-01 2.966140772113523005e-01 2.069726120858373375e-01 3.646899767417903851e-04 -3.985047937705045581e-04 -1.202658882183340189e-01
-2.657883325194736468e-01 2.622410892981414943e-01 2.092985816925387321e-01 -4.694342336655828868e-04 -5.267760314183989555e-05 -1.722058009335147299e-01
-1.678112798936489958e-01 2.825242449368642328e-01 2.112192402779367040e-01 4.101635586362023566e-04 -7.303109707187592731e-05 -1.593042810835176015e-01
-5.441983606373244908e-02 2.922724587489323178e-01 2.134407384396589391e-01 5.362869688435648041e-04 -3.847929971963392950e-04 -2.126367764057875698e-01
-2.738802279254751865e-02 3.406793194938564917e-01 2.158030739358717254e-01 -1.259464985459267860e-03 -4.606974682119862555e-04 -1.476431561356524730e-02
1.125474926641918325e-02 2.003773299140430286e-01 2.177546750212989157e-01 5.497705211439115431e-04 -1.592524561651523902e-04 9.463804592425709150e-02
1.636149528056073943e-01 1.572594906057360742e-01 2.197267389196795317e-01 2.591098594082459454e-03 -1.780086635301430826e-04 -1.553482013636895975e-01
-2.112388533125808543e-01 1.522949556214551470e-01 2.014029224553048336e-01 -1.373375494864976067e-04 1.257931889856726609e-03 -1.051440366399301191e-02
-1.098502389923295408e-01 2.157875638486002612e-01 2.035631601027405035e-01 -5.555152763239820570e-04 1.398297287574624004e-03 -4.555383946701938025e-01
-4.199438945563750691e-02 1.865920225174299285e-01 2.055336874263213320e-01 -5.483743369298350705e-04 9.073516153061750777e-04 -3.594105257860044089e-01
-1.792749430573647301e-02 1.938331823894755002e-01 2.074039026609957870e-01 -1.054902286444886485e-05 4.004337976296289104e-04 -4.722128452306341706e-01
2.309352238105162602e-02 1.641611204848272554e-01 2.091337812021629161e-01 2.745767335197168922e-05 6.072575537107384371e-04 -2.825059113842816605e-01
1.015138756960446420e-01 1.334324420394321642e-01 2.111328363633632743e-01 1.671560599452092614e-04 -1.426124020820811135e-04 -2.148798012078781960e-01
1.504782620933701465e-01 1.438422122158400374e-01 2.128719322183426077e-01 3.984667640593166191e-04 -1.044083411360344563e-03 -1.582657187475733085e-01
2.227010619694294313e-01 1.770403003508570772e-01 2.148392044309623272e-01 -1.141943418430280957e-03 -1.985893858869566039e-03 -2.306045509095653034e-01
2.446568694106588948e-01 2.082377899801134968e-01 2.163521458126174690e-01 -6.912793486399341353e-04 -3.541036151693838924e-03 -3.658801630975867525e-01
2.776840010642656065e-01 2.080171955929525640e-01 2.177890414571684863e-01 -1.776016412365285797e-04 -5.585899704590431211e-03 -2.877602776100087190e-01
3.306601404072222472e-01 6.694899345072273522e-02 2.194001131439109464e-01 -1.891223926564081302e-04 -8.322903086621183735e-03 -2.146779117120478642e-02
-1.547762287132915526e-01 1.450437577920163923e-01 2.008475993547140792e-01 -6.977819736433380111e-05 -1.252216732810050278e-03 -2.916936864814382302e-01
-5.724083537344204498e-02 1.999391613380314958e-01 2.022856321254128953e-01 -9.014895093697191210e-05 -2.331989589748246355e-03 -2.805082100898456665e-01
-6.034078707329601499e-02 1.136366817112731131e-01 2.037276217971055736e-01 -2.587666519589182845e-04 -3.548419783383281994e-03 -2.399546620091613236e-01
1.800914655557204341e-02 5.196180908171640911e-02 2.051364102009792245e-01 -5.537341230730622203e-04 -3.262345091742576472e-03 -8.834997471829215965e-02
1.284528544658876392e-01 2.421317519075835006e-02 2.061434229095617798e-01 -1.061544858981389042e-04 -2.555340258028497569e-03 -1.836514087694348651e-01
2.596613066301865086e-02 1.018148524319348186e-01 2.072136955913810308e-01 -3.650578880128079384e-05 -2.293925588705853641e-03 -2.973997819905544460e-01
1.299644456687261973e-01 8.876566523171485965e-03 2.083270921942820819e-01 5.605855561021239313e-04 -1.777653696823009149e-03 -2.016054978585227475e-01
1.735132182413905710e-01 -6.592521186562380620e-02 2.092129085126764321e-01 1.841154275998948858e-04 -1.627091610606803615e-03 -1.450520548698369938e-01
1.036593142576003740e-01 -8.842684855380011921e-02 2.101976156646685467e-01 -1.536548342119591168e-04 -1.329973705637659117e-03 -1.224654361513738132e-01
1.426911666749444418e-01 -3.493734745470625236e-02 2.109841135501696607e-01 -2.204110348318760726e-04 -4.656081556311302753e-04 -2.087650872022903115e-01
1.202901770225263400e-01 4.410277244431180799e-02 2.117834597161898369e-01 -1.582289113798470825e-04 -7.494415510667783598e-04 -2.108630912574233074e-01
1.803488898625877357e-01 -7.639008305268771282e-02 2.126994132626982004e-01 3.049911393515675651e-04 -5.335424927173553281e-04 -1.457041242162301631e-01
1.330058163095577117e-01 -8.490942714845077510e-02 2.133113567468746807e-01 -1.938545125234812064e-04 -7.098703830025171035e-04 -1.493015949183744695e-01
1.586005186628925423e-01 -5.122803621687160858e-02 2.135862646243773533e-01 -2.155297352315899140e-04 -2.464038815067869635e-04 -1.258890010514632785e-01
1.951174369606867853e-01 -6.701585567266703236e-02 2.141190286874457560e-01 4.046663458953366697e-05 -6.713979968094388202e-04 -2.840738417778136959e-01
1.708349696886228564e-01 -5.519933379365212639e-02 2.142263924255476404e-01 2.501091547033862101e-04 -2.788542517726753911e-04 -3.286780703064254294e-01
1.848141566039848138e-01 -1.858744476694847853e-02 2.145869701674452679e-01 6.171613022686506158e-05 -7.883601441815441934e-04 -1.309946446593347191e-01
1.836327581525192820e-01 -6.363502279759907995e-03 2.150142276602536318e-01 8.167642842736242954e-05 -7.166148972359870795e-04 -1.441108753411062815e-01
1.887265188354697865e-01 -1.977460552018388620e-02 2.149655205232611221e-01 1.749806907797894979e-04 -3.159123076570653581e-04 -9.889895266772109894e-02
1.209871818174116653e-01 -6.134278766288330659e-02 2.154233591058684061e-01 9.316190377657956032e-05 -9.296795022076989167e-04 -4.730869206085384915e-02
1.693570557825169742e-01 -9.201865708567961988e-02 2.154910129138686292e-01 -2.114976860727093026e-04 -4.892599498282317180e-04 1.453061177266113113e-01
1.970764388768704023e-01 -1.486515729281504827e-01 2.156823296210141905e-01 1.962760990919191074e-04 -4.839878752180626961e-04 4.672791654747603281e-03
1.328444864466427067e-01 -1.673945776996502988e-01 2.156529999579528400e-01 -1.194432844729952510e-04 -7.375846022586659027e-04 -1.230825709560910697e-02
1.207160778909603382e-01 -1.294699328493552626e-01 2.155470987120959303e-01 -2.295746967805322196e-04 -4.025051956490353802e-04 -1.599381316935095387e-01
1.393617057766464995e-01 -9.863639592616418872e-02 2.154720657453139121e-01 -9.007308151148266594e-05 -3.599572270557535353e-04 -5.424900692601161006e-02
1.196848663829777198e-01 -7.068767258944338994e-02 2.155767165198665958e-01 8.047293421607658656e-06 -4.017009656603465597e-04 -8.568638456306090778e-02
1.487367433692114715e-01 -7.791106118846356787e-02 2.154756234955763072e-01 1.847976869529038759e-04 -3.251227286294496445e-04 -5.044053182618436770e-02
1.853248896634781817e-01 -7.840651332894850445e-02 2.154309312077005711e-01 -6.913001542979283008e-05 -5.190102550353446016e-04 3.069004607792399919e-02
2.009882612721121953e-01 -1.059068182942520531e-01 2.155952341591522714e-01 2.240008430335712727e-05 -5.559308589077985611e-04 1.066815786991047628e-02
1.292990769831109110e-01 -1.419815567533809220e-01 2.157162910499951236e-01 -2.400864886404841458e-04 -7.956694810281922554e-04 2.897132293662014677e-02
1.571371425003056932e-01 -1.093857344407293819e-01 2.156748582020404092e-01 5.198572596894937521e-05 -3.638932719617558572e-04 -8.423823398586870181e-02
1.433173534122946513e-01 -1.030990550423440399e-01 2.156325716982714913e-01 -8.198382949012870177e-05 -6.862227103543870783e-04 -1.932892779792270699e-01
1.763858305811193128e-01 -1.389742694523010691e-01 2.156402545443393270e-01 1.584460985575471202e-05 -4.163859956944583260e-04 -1.230253009401861414e-01
1.366019794903484685e-01 -8.131344743966759103e-02 2.155980003693238056e-01 -3.761979966487577617e-04 -5.251728475766284220e-04 -1.236647768806338615e-01
1.262390883435137723e-01 -5.552068256887913306e-02 2.155281571299905718e-01 6.548220926959920561e-06 -5.007280529632786000e-04 -2.177131513945681773e-01
1.277633970723669743e-01 -4.282403395493930565e-02 2.155629361713558012e-01 -1.758757639611936555e-04 -2.439952634504619371e-04 -1.684513824294985584e-01
2.292680059295062744e-01 -3.870114842265006544e-02 2.155008254573250737e-01 1.121480501404797378e-04 -2.816729511822954266e-04 -1.036486213381647703e-01
2.595472147523428252e-01 -4.014754691672403619e-02 2.154371062884797849e-01 -2.372763836448108960e-05 -3.870238884421422403e-04 -6.950432431517686305e-02
2.200527249883953707e-01 -5.651241024655732914e-02 2.157154822419199980e-01 -1.076288198307305180e-04 -6.247172507806190381e-04 -1.246991628571317290e-01
1.913793448190435897e-01 -7.817838899294185517e-02 2.156648048425010566e-01 5.679538352657288714e-05 -6.288076493554883243e-04 -2.106538135368986320e-01
2.192021900604061990e-01 -1.423621984822065756e-01 2.155625298355213770e-01 1.728425925635971314e-04 -6.341259028073850884e-04 -2.237281123444996578e-01
1.560621483162866474e-01 -1.170399647831962819e-01 2.155311164391188750e-01 -3.709321281502407653e-06 -4.980274810941704225e-04 -1.583576446202329957e-01
1.879306735596865119e-01 -9.584320066930740456e-02 2.155451827451685398e-01 -4.767135870743629233e-06 -4.472196463270670095e-04 7.586809532457149119e-02
2.173001208292848208e-01 -8.255470457893024361e-02 2.155474186983259433e-01 -1.148530671655862096e-04 -2.811196838418092187e-04 3.345463972449376142e-03
2.152299256849089792e-01 -9.339781518276754624e-02 2.155503918057504187e-01 -7.667066685738893942e-05 -4.444889705859752962e-04 7.359757939399814985e-02
2.522604069292835871e-01 -6.003741122178557488e-02 2.154470070160062756e-01 -2.378285129305115553e-04 -4.192617169781950588e-04 1.031485982261762663e-01
2.118755286695859774e-01 -6.920069017889926566e-02 2.157219681335239558e-01 2.423108463625544249e-04 -6.382859552871484763e-04 2.097436570325600380e-02
1.911322828283549824e-01 -8.660797331501947360e-02 2.155919854149872528e-01 6.397277083094484026e-05 -5.584439789393355657e-04 -2.172661916852325001e-02
2.142303057427367152e-01 -9.152399827009252697e-02 2.155732826092615628e-01 4.605200515151228581e-05 -5.551906214644715745e-04 1.196686985203138098e-02
1.894937870782317790e-01 -6.985690743821121318e-02 2.157259962310225099e-01 -2.585989804429941730e-04 -4.523432567853678875e-04 -1.280631545557490425e-01
1.880382764983918598e-01 -9.910093871821140654e-02 2.157688531150517841e-01 2.707106121060125388e-04 -7.235148735506171215e-04 -9.505448526725970848e-02
1.376631649254002610e-01 -1.300406447449334868e-01 2.156518358257186740e-01 2.414729729035174142e-04 -6.918205362931213482e-04 -1.793245858433446527e-01
1.358747393340224152e-01 -1.766505005146486174e-01 2.157601796860683652e-01 -8.543537098522121912e-05 -5.505412093473291716e-04 -3.585919550044133763e-02
1.233047740775397999e-01 -6.702973703950383666e-02 2.158491648913857253e-01 -2.782812236530505211e-04 -2.170903505683163977e-04 -3.821920693139907454e-01
1.388532359771123548e-01 -3.151124334406307098e-02 2.161051143195172330e-01 1.821925685222347080e-04 -5.979689641280700688e-04 -3.461921076286394450e-01
1.477985463577912995e-01 -2.900264265429410709e-02 2.167444801263479492e-01 -7.266669909236603991e-05 -1.300413039669503189e-03 -1.741512367859138211e-01
2.124515442710037394e-01 1.437809440817954670e-02 2.166867499842175526e-01 -1.000744499574324561e-04 -1.309597879850842158e-03 -1.432603537832489171e-01
2.723333379891553219e-01 1.329517165514186028e-01 2.172875682574409995e-01 -3.418825059364913278e-04 -1.954072088305755343e-03 -8.358722796891812634e-02
2.573162796773655336e-01 7.272720230598372915e-02 2.180375699354660246e-01 4.134040935715713638e-04 -3.859112567637277939e-03 -1.118247588470529762e-02
9.804277392272861547e-02 1.126747289547866404e-01 2.049008265985170496e-01 -5.850208619368337838e-03 2.590534163418498417e-02 1.003530528304855673e-01
1.170547506695692741e-01 1.184840207180073990e-01 2.054043759378300082e-01 -5.127780469506249168e-03 2.264166450746525616e-02 9.255490491873327730e-02
3.891668698400407855e-03 1.361487970686942606e-01 2.061616959240780145e-01 -3.859549715614715368e-03 1.998998842503593373e-02 -4.771833607057295035e-02
-1.939293736945996854e-02 1.827380152470147734e-01 2.068592306699850170e-01 -2.824292207909534589e-03 1.762686265414849240e-02 -1.271035064729409692e-01
-3.614829488946272318e-03 2.926466494789066175e-01 2.076237880949969306e-01 -2.075644472933785636e-03 1.532554626705903700e-02 -1.118260024382939366e-01
9.611248110999750377e-03 3.041085990379315818e-01 2.085490597965838910e-01 -1.473540160476636933e-03 1.152450831526061203e-02 -2.281060834687738681e-01
5.327360325622521736e-02 2.920873142587182558e-01 2.093868304389762125e-01 -6.302667428430994102e-04 9.592047858997445470e-03 -2.303431427729955572e-01
1.005925476256062656e-01 3.011385515993332818e-01 2.103271321881579059e-01 -3.280748065901844851e-04 5.151120924367276650e-03 -3.519380644798384417e-01
2.373528479931487079e-01 2.930292036941244960e-01 2.113754991788793225e-01 -4.226436168242640685e-05 8.976370719385294182e-04 -2.692543491507758402e-01
2.035905104351989903e-01 3.091650676943493714e-01 2.123788606469246276e-01 -2.999957526014860720e-04 -4.259390995574871726e-03 -1.834726923352218986e-01
2.303217888347186271e-01 3.105413948444457062e-01 2.132601051300799244e-01 -8.872889191640424790e-04 -8.076352747769946841e-03 -9.791096259786954970e-02
2.614281371623681238e-01 3.107969960866605041e-01 2.142312827902396188e-01 -9.503234438716789837e-04 -1.161839223104877902e-02 -1.631508485893426452e-01
-1.333928686564328503e-01 2.819879704772435547e-01 2.068942658907312326e-01 -3.629362118443534620e-03 1.491618194327935451e-02 -4.739703268766480293e-01
-1.112639916757592329e-01 2.103118549966879192e-01 2.079736188809217512e-01 -2.315366178538283621e-04 8.833145110208166090e-03 -4.415126617189923386e-01
-4.866454006668394228e-02 3.457336599369512098e-01 2.086565587869786964e-01 -8.273616178679426636e-04 3.715422345372698665e-03 -5.240367616171325293e-01
-5.783294713134625592e-03 4.230777305649706110e-01 2.103786882151099658e-01 1.521606546419583788e-04 -1.380022825316335952e-03 -3.759347726352548769e-01
1.648489805683869824e-01 4.250873418016784533e-01 2.119869436683939345e-01 -2.599135230272869705e-04 -5.045101364329222793e-03 -6.583155244657777905e-01
1.607645622456041479e-01 3.348052884973205523e-01 2.133799484168843463e-01 -2.389285984887138422e-04 -8.013760700144693938e-03 -4.423419032323670508e-01
1.847338474992938906e-01 4.171420437700678607e-01 2.151168112339744143e-01 -1.051146219009759745e-03 -1.044679552733016395e-02 -3.615673774188237211e-01
4.053685153313095757e-01 4.080500954720168716e-01 2.171508000215942036e-01 -4.639865678213557975e-04 -1.140753076117908757e-02 -5.938212958728978919e-01
5.347985612517506260e-01 4.991043000002586827e-01 2.188708590254636044e-01 -1.667202564127021796e-03 -1.291484062556772817e-02 -6.342801449588940654e-01
-2.734889551541699326e-01 5.904104723821276268e-01 1.998652969059329654e-01 -3.800274023572508823e-04 -1.662285326028228015e-04 -4.653350920967960214e-01
-1.908983072800684022e-01 6.298567331949881387e-01 2.022872945457856453e-01 3.095728283192407631e-04 1.004385920092360591e-03 -3.887131555195901811e-01
-2.432229691877121902e-01 6.711057270014445519e-01 2.044527428321166185e-01 -7.305967835596995422e-05 -4.217139230913004386e-04 -3.895929606760691888e-01
-2.702444834280637309e-01 6.369786217227015879e-01 2.065762156212881395e-01 -4.706525326548307306e-04 -8.589271585934822031e-04 -4.506162447400959836e-01
-2.073800344368918747e-01 5.687527803436338569e-01 2.091354198245730656e-01 4.093139900367794216e-05 -1.117023665159430331e-03 -3.414240956901763435e-01
-1.307480489560761683e-01 4.492788852768320740e-01 2.114850751812598628e-01 1.672631709582614778e-04 -1.047685425131305399e-03 -1.691769204967345508e-01
2.070033707351951260e-02 6.124909339465540725e-01 2.137624889966993624e-01 -1.176922739167166011e-03 -2.024642307462356898e-03 -2.716600199677180472e-01
6.716194105376507850e-02 5.897521979840540940e-01 2.165847525650149707e-01 -1.748877598442176917e-04 -2.438985396051780198e-03 -2.915799479148680207e-01
1.478602152258285396e-01 6.043069223277308666e-01 2.190513281456018535e-01 6.029098549535875234e-04 -1.009131723444217860e-03 -4.635436265536241884e-01
-3.431672843996160793e-01 4.185123618226526121e-01 2.014254734663213919e-01 1.871559481468388015e-03 1.485175916173503852e-03 -4.546958107650856395e-01
-2.524439012244484859e-01 3.985600991347808542e-01 2.040854214121212151e-01 5.022082892756940834e-04 7.195833791628303494e-04 -7.761423338617300383e-01
-1.877726282792331336e-01 3.633369596530292012e-01 2.067966004679352987e-01 7.660568210139546150e-04 -2.627355028312087972e-04 -7.592036630203601311e-01
-1.028556309290364068e-03 3.695588105973385273e-01 2.093837732110184757e-01 3.863372627478895240e-04 4.256444727879276019e-04 -6.264486839587120048e-01
-1.102437422194995319e-02 3.705509247319335175e-01 2.122995173297650973e-01 -1.040870621412008385e-03 -1.918054955067367623e-03 -4.469932905780019117e-01
8.346745127026983235e-02 3.734522883500534518e-01 2.151440846160357911e-01 2.146506325983219921e-04 6.183378692666195134e-05 -5.229364775112333996e-01
1.961427144978298009e-01 3.683039011581852873e-01 2.179021939864647650e-01 3.894644833234622633e-04 -7.438011658963402739e-04 -4.573590489206768583e-01
-2.859930191803365940e-01 4.665414935070783531e-01 2.005230325193322893e-01 -8.484832784278307323e-04 -1.019186072497669593e-03 -2.133463372901507615e-01
-3.215355748730895913e-01 4.834506359160331557e-01 2.035106204932881080e-01 -2.242172052655833645e-04 -5.407398733814446816e-04 -2.476345176393852099e-01
-1.514282175415898601e-01 5.420077327404536627e-01 2.064950887533830715e-01 5.011406520866634913e-04 4.937092276588496160e-04 -1.466876525238234585e-01
-1.567347812812825703e-01 5.454745284918609549e-01 2.095239385778868146e-01 -2.544535391619688735e-05 2.656732110246845860e-05 -3.017978661815277075e-01
-5.433569020478976747e-02 3.829528326016253259e-01 2.126473800416558979e-01 4.516470611556896780e-04 4.900014168158848670e-04 -1.427043894960232928e-01
8.179512810867506367e-02 4.519704743349275411e-01 2.157229384007445239e-01 2.434871251720220614e-05 2.176458785814574311e-04 -1.589349548685347890e-01
7.637765033515345192e-02 5.259491464566586894e-01 2.189958843275362499e-01 -1.433217250659936468e-03 -9.751488136583981534e-04 -2.274369852172193063e-01
-2.737905863062691236e-01 4.559418160639552853e-01 2.016660116343059195e-01 8.293094961278312796e-04 4.397146943384404338e-04 -5.248859278716448973e-01
-1.909930031954999163e-01 4.597208747398349726e-01 2.047091090744668773e-01 -3.769054089589927796e-04 4.581813034079188483e-04 -7.214309871624871029e-01
-5.701344069069711612e-02 5.412524571828551956e-01 2.080350460740518770e-01 -6.801620494294735868e-05 9.806222075831718202e-05 -4.838840904417162081e-01
6.594180795893202218e-02 5.543233744135931396e-01 2.112961281802073210e-01 -6.298694757296442596e-05 -1.285900365811047467e-05 -5.151202352416027752e-01
1.239415902385253287e-01 4.835383815777037908e-01 2.146212216691953945e-01 1.476394426941367473e-04 -3.457905291836904735e-04 -7.276625730854630048e-01
2.562589460288991483e-01 5.163304997729152301e-01 2.178956402560627836e-01 1.260927364879608459e-05 -3.681149829862856914e-04 -4.715423295327954012e-01
-2.061405993004277459e-01 5.005679514960155174e-01 2.001091093444718472e-01 6.043999291584108136e-05 4.650308774882278159e-04 -3.609114584253306779e-01
-3.807496244714456135e-02 4.114601423507500688e-01 2.033532890194624798e-01 1.958373468149869688e-04 -2.463683554827272490e-04 -2.708564110651801582e-01
1.925662295017456505e-03 3.879584062509653375e-01 2.066521196669821592e-01 1.467717347888447001e-04 -4.845134671628829231e-04 -1.550225670188892513e-01
8.115057015866454504e-02 4.729896672106406741e-01 2.097650434452079105e-01 6.746702216708477542e-06 2.363607681623492612e-04 -4.113896374364882091e-01
1.913908286828290006e-01 5.184300360531993723e-01 2.130333879935780161e-01 -6.748964771393197240e-05 5.988192197756771499e-05 -5.399678233289252338e-01
2.766247192515748354e-01 5.042301288823681782e-01 2.164256588956393057e-01 1.869271193319084644e-05 -2.627443313051594444e-04 -5.092352385499818723e-01
3.793904644589631836e-01 4.835212227090204262e-01 2.195818218280303769e-01 -5.100202166582627544e-05 2.320493208235759172e-04 -5.517273468974700501e-01
-1.792281579861653706e-01 5.336615834303688466e-01 2.015879908383694241e-01 1.504117336391597377e-04 -4.085245515069140242e-05 -7.181621811069686112e-01
-5.873162616105381817e-02 5.071709876747279022e-01 2.048234661206666529e-01 8.135591157822450869e-05 1.409994719071486896e-04 -5.665145810880339861e-01
-1.031083516561407711e-02 4.645971650902436245e-01 2.081338716726592319e-01 1.919419112510016014e-04 1.158863009726253569e-04 -5.392665503464386667e-01
-1.201318774082122884e-02 4.656538152346708093e-01 2.113873000346789821e-01 -3.531654377935527773e-04 5.115777597173413755e-04 -5.306287880129976209e-01
1.808598135231400117e-01 5.745771642409569502e-01 2.147218429546259855e-01 -1.246735097818741885e-04 5.359395066302435418e-04 -6.255967560243010928e-01
2.915638555930208375e-01 6.054408820414114434e-01 2.180907214680194439e-01 -8.490026524072410920e-05 5.115702353593531374e-04 -7.416786424226216035e-01
-3.417076449379453096e-01 7.254507554298676997e-01 2.004521440422279421e-01 1.793661536080109852e-05 2.359531568297806707e-04 -7.485841357366798121e-01
-2.550782020520311333e-01 8.444363736326208070e-01 2.037122600771454350e-01 5.461597414074480759e-04 3.071852118698519788e-04 -7.315144291702750934e-01
-1.870128675163795495e-01 9.422394074244593298e-01 2.070234228537312093e-01 1.116197079051820407e-04 6.323468999541041790e-04 -8.544890974579458787e-01
-9.398694580959075784e-02 9.393427137979304398e-01 2.104639676496965484e-01 1.454245221281092848e-04 3.974995164011119728e-04 -8.990043524518771534e-01
7.286224207111355322e-02 9.531370609793996529e-01 2.138081357229310586e-01 1.258667753676374500e-04 5.478401754446152834e-04 -8.292677482570931513e-01
9.492065913820423029e-02 9.684239504493126205e-01 2.174810809369756570e-01 -7.088076045524748046e-04 -2.646988695722986133e-04 -6.700265454484222172e-01
-4.067069883356518867e-01 9.040515840466031294e-01 2.005045292509547439e-01 -3.205034521662828257e-06 2.579230532407185460e-04 -3.935667117983923657e-01
-3.254458310023177758e-01 8.168339738903320768e-01 2.040209569383257815e-01 1.995742695462168054e-04 -4.324582830081522716e-04 -3.156367738004644541e-01
-1.566291143309582190e-01 6.694715214036524031e-01 2.072633216696221914e-01 7.084074967450292883e-05 2.665151337927805573e-04 -5.980838089852640316e-01
-1.063788910975308477e-01 6.560352001847924441e-01 2.109937960677591984e-01 -3.524806349316700793e-05 -1.737176077206777807e-04 -3.009675999800107693e-01
-1.818132577715448617e-01 7.130135372006597416e-01 2.147872370798089015e-01 -2.407899726028888126e-04 -7.012410069985944294e-04 -3.864842212793997422e-01
-2.669150968612082550e-02 6.173745358465199118e-01 2.181037361791988149e-01 1.127343907746672992e-04 -3.994436556472495767e-04 -4.257276804670633852e-01
-5.080758059222891809e-01 5.571547060257309170e-01 2.008273646227118348e-01 3.828586694200146728e-04 -5.296857088842571839e-04 -2.841351650345105284e-01
-3.012445765154212474e-01 5.593540830507168771e-01 2.042803716080147103e-01 5.541634099326071599e-04 -4.429454742750155096e-04 -1.646496008297813063e-01
-3.497685694955485203e-01 7.118703697275646780e-01 2.079018915323226357e-01 3.199868075064571772e-04 -6.584175263567053002e-04 -7.275291538416317483e-02
-1.914899967405514214e-01 8.275911915584051037e-01 2.115205491473362009e-01 3.218825217130286327e-04 -2.660486481616377089e-04 -1.908753474360943836e-01
-8.968828897582245552e-02 7.028255361851637462e-01 2.150106843228324349e-01 4.112899543061466503e-04 -2.134873496418347694e-04 9.914260459885693155e-02
-6.315269860246476574e-04 6.868502598692870498e-01 2.185576436772093678e-01 1.481760090801921093e-04 -3.525947751032531934e-04 2.302908414406674154e-01
-3.687456444522015930e-01 5.935462180320680847e-01 2.019618817090163554e-01 2.139842456742037889e-04 -2.009666335621784067e-03 4.186335837180686983e-03
-2.861396422658809557e-01 5.273621029407747907e-01 2.058342612731539067e-01 1.306762420014248474e-04 -1.943842107424099443e-03 -2.189401338590200516e-02
-2.913682051796742112e-01 4.555287301717635406e-01 2.088651369970740967e-01 2.605866005142113166e-04 -8.387679637862318401e-04 5.186396911983956470e-02
-1.620366391227657799e-01 3.270303298503230982e-01 2.122832911440440951e-01 -1.272095838100109491e-04 -1.397527585206849747e-03 -1.545454887006725286e-01
-4.056958597720480841e-02 4.418462140868142374e-01 2.160430591341743756e-01 -2.879625087683009856e-04 -1.980376176941744081e-03 -4.043232147461476855e-01
-1.570867628560444068e-02 3.766424052280918366e-01 2.192223830993182965e-01 4.717360770499160329e-04 -8.869031881683648710e-04 -2.302628471451027281e-01
-3.388475996643160459e-01 3.734290349555455801e-01 2.018683051512046855e-01 -1.643112301355325038e-04 6.046305022320867459e-04 -3.645865499299174584e-01
-2.352358532775416233e-01 4.462815935414262136e-01 2.052959989882145453e-01 8.046340281307548948e-05 2.363532135304853587e-04 -4.667766065090853123e-01
-1.625344419905576099e-01 4.345349558767197529e-01 2.086345065709394042e-01 6.849805777667653027e-05 2.118922464418272419e-04 -5.344143920930154446e-01
-8.480068800493975600e-02 2.746554828523438130e-01 2.117837830506170693e-01 1.397987934471861874e-04 3.681141698657094496e-04 -2.220578711309161568e-01
1.700842158693544742e-02 1.698080328249438609e-01 2.150549592754015249e-01 4.061214550563567422e-05 2.554878302908847537e-04 -8.547036916286709918e-02
1.096398137665222650e-01 2.732757778738116872e-01 2.181077043266132498e-01 -4.284923643999959396e-05 2.098890401689842099e-04 -2.678090514761326535e-01
-3.177928747225896022e-01 2.346158218366631021e-01 2.010641642828703279e-01 2.916861695787844851e-04 4.381872191379926074e-05 -4.035830533081530835e-01
-2.115578723414292539e-01 2.565448409445741373e-01 2.039722685251513234e-01 -4.053018792209399780e-04 4.199511525528413765e-05 -3.744307963209655976e-01
-1.239954702334127717e-01 4.940317383849023303e-01 2.067985969940138169e-01 -5.150383352461329351e-04 2.258077413981951303e-05 -5.210011719857916557e-01
-1.485661371531145636e-01 3.027552215065087426e-01 2.096623709263752966e-01 -3.824714623151587081e-04 -5.496734779212910505e-05 -5.756495351161868834e-01
-1.025770048495963475e-02 3.729324956572920846e-01 2.122054698658337735e-01 2.519170598002428221e-04 2.977533211931519298e-04 -4.747256263885634153e-01
-4.350276816090806881e-02 4.629110924181374376e-01 2.148413873719196010e-01 -1.116366433842870223e-04 2.088376773011111850e-04 -4.695194223032741476e-01
-2.550664619663592370e-04 3.987741422894079957e-01 2.172865193194090105e-01 5.004606615209631054e-04 4.201633427014028819e-04 -3.852017288305593090e-01
-4.226993879228402307e-01 3.122752089162637024e-01 1.994595573619431517e-01 2.527209987569276994e-04 -7.793011413290554040e-05 -2.272081726141305935e-01
-3.787525679733962369e-01 3.023961796103632471e-01 2.018603744603975625e-01 5.662042402954181548e-05 -1.645904739675593823e-06 -2.085218706664097033e-01
-2.941453489416398503e-01 2.702488649222619110e-01 2.042119512369441336e-01 -8.186318421222897644e-04 1.808866427202606418e-05 -2.151935185908689097e-01
-3.393222455383603786e-01 2.611708936283165250e-01 2.063214963255351475e-01 2.945327799328936914e-06 2.116010211966387730e-04 -3.855777178271159733e-01
-2.329048731643431902e-01 3.039769292027037495e-01 2.084580692514744760e-01 -5.781903627478977110e-04 7.062294273894610111e-04 -5.184218808840423964e-01
-1.411873666744622724e-01 2.603053320419271288e-01 2.105934592649328363e-01 -1.030307782639605521e-03 1.297654433114436758e-03 -4.819099278690801014e-01
-9.341677228224269658e-02 2.904120209979161871e-01 2.125844400528377198e-01 -6.744149487436990791e-04 8.899275200375752776e-04 -4.661878602726258203e-01
1.695923379807347253e-02 3.963101798896433436e-01 2.144866215308415258e-01 -6.467153474447950119e-04 6.849452316942131408e-04 -5.292364051810015679e-01
2.797622311885747393e-02 3.511030347197505730e-01 2.162493143102095505e-01 1.792376795720679219e-04 5.048632767497078207e-04 -5.976511990697699339e-01
6.987992636781359401e-02 3.411499809895771063e-01 2.180089922867191610e-01 -5.761298989349907754e-04 5.169161287186969109e-04 -6.536423948415853724e-01
1.715088367072034048e-01 3.968971730582919744e-01 2.196396663762987811e-01 -3.785659681656712550e-04 1.718414421373230881e-04 -5.604784689560744493e-01
-3.232509007981399507e-01 2.700682402745908095e-01 2.004148972120519123e-01 3.528479694652274885e-04 1.342021630079591039e-05 -3.492239435893297883e-01
-3.178674575246734912e-01 2.166403197352303467e-01 2.016812657915453832e-01 2.244804024110044944e-04 -9.412654171376723394e-06 -4.012960523717336025e-01
-2.346797802679704004e-01 5.076595710106926451e-02 2.031335429512307056e-01 3.508758445038144308e-04 6.986235685664190934e-05 -1.862549609289460284e-01
-2.093951576468114639e-01 8.302238017897707600e-02 2.042554563128411993e-01 -3.106465515337498436e-05 -1.216137542806405944e-04 -1.994350920905922087e-01
-2.272181540416611245e-01 -5.312166934468131457e-03 2.053529876215269279e-01 1.068719985703613416e-04 1.295387475439391297e-05 -3.869434034354539698e-01
-1.494376876501199713e-01 2.935180170516439938e-02 2.062088484067000071e-01 7.314700510301497120e-06 2.132148978678438038e-04 -2.838895651074063720e-01
-1.631907665347400727e-01 5.803160495907781768e-03 2.071927940298618487e-01 4.141343725933415993e-05 -5.768932253584594131e-05 -2.528915922523048421e-01
-9.359774337105689068e-02 6.933198092572426079e-03 2.079675808681308302e-01 -1.016369394643005570e-04 4.621599811915650812e-04 -4.230861333573120442e-01
-6.688597182035391220e-02 -5.224518016307619361e-02 2.086651625745828409e-01 2.463231678831130167e-04 -1.548287113529499628e-04 -5.269106651656856322e-01
-7.615545944020941926e-02 -8.352080290832358811e-02 2.092119154852249974e-01 -4.354005386779486814e-05 1.225453220217005105e-04 -3.120959581961313400e-01
-6.004376150984390426e-02 -8.578045367598562121e-02 2.097230980691301983e-01 6.872552977974253968e-05 1.479903544611927899e-04 -3.073460871088787294e-01
-1.640193072955461739e-01 -8.133109349414525957e-02 2.099475568524002966e-01 -1.855864924691469592e-04 5.766597930451840834e-04 -3.315117683967808149e-01
-1.271320050769692012e-01 3.341137884365286831e-02 2.102511377391900749e-01 -4.675181219038092501e-04 6.844486962446474834e-04 -2.339781438601539199e-01
-1.685500104666468046e-01 2.361496021777029219e-02 2.107127534190784690e-01 1.599546830419305724e-05 4.173896941218634463e-04 -1.456093338772191936e-01
-1.279574809432024729e-01 2.205034798519218964e-02 2.110521141871669060e-01 -2.101114310071656145e-05 4.805578158133303021e-04 -3.679925613290024322e-01
-6.235774136528834249e-02 6.414197946649298487e-02 2.110762030304378922e-01 8.878808859401716373e-05 9.307172362568789286e-04 -4.049873314793535628e-01
-8.576335400818686783e-02 -6.761787107581845868e-02 2.112069287764654080e-01 3.311445054252603053e-04 1.704470997706524090e-04 -3.603635679355802757e-01
-6.342040348970633123e-02 -1.377186336795252208e-01 2.112426667565235894e-01 -1.573134705492630636e-04 9.222954834428627327e-04 -5.882779451765177692e-01
-7.428226636863255461e-02 -1.474354233242938239e-01 2.113641341650218108e-01 1.291890357397529668e-04 4.111903590858147109e-04 -4.543109021340426268e-01
-1.009721854842259292e-01 -1.360535186932980700e-01 2.113338562804424337e-01 1.433161309930144987e-04 6.979489103779547635e-04 -5.233234266040175386e-01
