-1.376791241964194119e-02 4.080570317372107514e-01 2.090900469020888774e-01 9.978898060009702437e-04 1.429301598975947192e-03 -1.381730137329772179e-01
4.250260577193759604e-02 3.932831544333041940e-01 2.093823828319065772e-01 9.070490577317475735e-05 1.512423851950396234e-03 -1.672722429755887918e-01
3.086480432647042971e-02 3.672802364986153534e-01 2.098176119400187445e-01 -5.086859103091319334e-04 1.424927551567948961e-03 -1.369981541871228281e-01
5.778206885254309755e-02 3.495007086713081690e-01 2.098779126208645263e-01 5.677421895592828617e-04 1.830753804255790288e-03 -2.017909241656832275e-01
6.506302068370599379e-02 3.476541006473946593e-01 2.094800421154887071e-01 -1.605255771988780503e-03 -1.603081525431023467e-04 -1.172072708984039369e-01
3.877772297636720988e-02 3.178740090006951791e-01 2.095663704251889969e-01 5.696833948851985152e-04 1.428647116597268852e-03 -2.082641039629023749e-01
3.361702189959839271e-02 3.565733215594773520e-01 2.099047127521815881e-01 -1.723990583359977626e-03 8.015939916556980623e-04 -8.017440730814942573e-02
1.162754357411456552e-03 3.891787287705379406e-01 2.092371964187976774e-01 -9.530053040418857849e-04 -1.373576733540319032e-03 -1.516241663789901495e-01
5.968073288114925101e-03 3.938478698490917584e-01 2.095595077407976792e-01 6.035536658169611893e-04 -1.970669277345257851e-03 -4.006897718694380495e-01
2.756631267939218394e-03 3.729725004388971810e-01 2.097477918312806167e-01 -7.475609708228060212e-04 -1.761119710785470638e-03 -3.123301573570018697e-01
4.498582182128257889e-02 3.339781864370830466e-01 2.098531446995860472e-01 8.738050083375351572e-04 -1.469977438091686541e-03 -3.649586662713370511e-01
1.018613738126207535e-03 2.950917169892370295e-01 2.090208155437833226e-01 6.126544449898672397e-04 -7.854219965205886094e-04 -2.672657892613347630e-01
3.796096675301285917e-03 2.736289964667661390e-01 2.091890816698468991e-01 1.188717932613627759e-03 -1.091713800941279894e-03 -5.507921384263532172e-01
4.864939559899103538e-02 3.113955411752271640e-01 2.095435595476814461e-01 2.326994992091204416e-04 -1.400804739668418597e-03 -4.833823002920873968e-01
3.126334704419412441e-02 3.471637529737350847e-01 2.098712949089115432e-01 -6.826033649421760306e-04 -1.140004557507567689e-03 -4.044209656721239332e-01
-1.061652705763139679e-02 3.632439815547960915e-01 2.099610315634813928e-01 -5.395101981313575558e-04 -9.891957318194550836e-04 -4.246893869710007263e-01
-5.737007760280245922e-02 3.716458198427182724e-01 2.094269753609189211e-01 -4.921961802446349473e-04 4.440414399774314405e-04 -1.289178436649180415e-01
2.541434045419824900e-02 4.203602928141565442e-01 2.092946254195948708e-01 -4.795066862676653619e-05 2.779476187336202340e-04 -2.863891204628691289e-01
5.334031404092560991e-02 3.753929808519405609e-01 2.095334655562645088e-01 4.500302537286672805e-04 -4.844207639686781415e-04 -1.463959234226755168e-01
4.181113018044850527e-02 4.218883969482390417e-01 2.098649098717230155e-01 -1.418436022987605658e-03 -6.210154605459992753e-04 -2.029158943510766255e-01
-9.354814537579475564e-02 3.760393455551879205e-01 2.104040883661871253e-01 6.255272874912512536e-04 -1.503360054992266192e-03 -1.009371859058716681e-01
-9.820307486771651106e-02 3.959943001886389036e-01 2.092957607150515709e-01 8.122862870980890717e-04 -8.286345316101360881e-04 -1.365382503675516557e-01
-1.509039445241529553e-01 3.702650575515885611e-01 2.093669839356356310e-01 -7.299859579826879124e-04 1.368088478037385173e-04 -1.814388747553852266e-01
-1.009844693337087346e-01 4.234975862138996017e-01 2.093380831978365886e-01 -2.174092935731557642e-03 1.997308013653399314e-03 -2.781602430192357533e-01
-5.692006338068068827e-02 3.396144448938955285e-01 2.095793245556802908e-01 2.562509189496946921e-03 6.595047428736670880e-04 -1.584459791621176117e-01
-2.214138188775745253e-02 3.771091250788630167e-01 2.092953311288793250e-01 2.556094744525762730e-03 7.707249276266893044e-04 -1.728761788386999065e-01
6.242982399467954246e-02 3.285315808548374128e-01 2.097442946516334672e-01 -3.579919288943836072e-04 2.087740222853920469e-03 -1.458945770095572587e-02
1.490524919347579330e-02 3.290169652736232853e-01 2.095646142163469783e-01 3.125713431478552122e-03 -2.276192803775265111e-04 2.259567101468926142e-01
-4.942651057902095607e-03 2.472983223022696408e-01 2.098763823621561664e-01 9.910317097107921615e-04 5.859408646726163485e-04 1.427126748901730302e-02
2.476919845930585645e-02 3.067131395333476118e-01 2.099143779735184734e-01 -1.527821055155422500e-03 1.569384464465664120e-03 -1.627232631565203036e-01
5.967075926278895409e-02 3.686150766853413807e-01 2.101773798967649376e-01 -1.175482207544246809e-03 2.226210961610840602e-03 -1.710529076974117157e-01
-6.437051044110093240e-03 3.427487114202445451e-01 2.087756337579851351e-01 2.291432108450852396e-03 1.814913870986373983e-03 -2.552749684081841441e-01
2.964400931794342400e-02 3.581953575137318269e-01 2.094013543519641085e-01 -1.178212333861162120e-03 1.572581302336388109e-03 -3.304271102873152510e-01
-1.846431067717353713e-02 3.635054985215919188e-01 2.091925437510828156e-01 -1.396258604556496221e-04 1.308060825059936599e-03 -1.500427568361897002e-01
2.773430364247773255e-02 4.100659294040936986e-01 2.095191160766787797e-01 7.382783263086580266e-04 1.569583767506012133e-03 -2.126431721341629499e-01
1.284088930869597689e-01 3.814520440825591718e-01 2.097727084988340041e-01 7.697567985196983016e-04 6.397105586034515122e-04 -1.289584286182187123e-01
1.268512963101996183e-01 3.595546116193624187e-01 2.099365440116510717e-01 3.434523365304578560e-04 2.340676724901464081e-04 -2.145193242491678365e-01
1.062505073741984718e-01 3.099533685579582976e-01 2.102955667887060343e-01 -1.596793326781388621e-04 3.853654295328963193e-04 -1.598829207762902105e-01
6.049538718662798853e-02 3.319607856323676387e-01 2.091203434844165487e-01 -1.243344243324074607e-03 2.973645147608217445e-04 -1.963315081550186525e-01
8.546290789243471409e-02 3.904221568166827971e-01 2.092679529323093202e-01 1.491533578680308281e-03 -5.051566429387469330e-04 -1.523347746340971698e-01
4.800938302822181647e-02 3.949226003842061794e-01 2.096954443102547749e-01 -9.262413018147865732e-06 -3.421379621964227517e-04 5.837111179250577958e-02
5.382624587507668645e-02 4.954286901681537181e-01 2.098821616697306158e-01 2.342977272569449698e-04 -1.302820882001303913e-03 4.441849609030232293e-02
4.647341432358689794e-02 3.900754895443557246e-01 2.099101674132647921e-01 1.572815474443172660e-03 -5.860872725387538274e-04 1.156725388634781415e-01
4.398626471418669998e-02 3.752965783964631319e-01 2.094418665595841889e-01 -9.166500832836756108e-04 -5.419093694911989540e-04 -7.760110119575880372e-02
-2.527971659322510167e-03 4.033090919898649762e-01 2.092485500896343331e-01 7.903584804333209585e-04 -3.120176302494195386e-04 -4.469742188410693456e-02
9.934543935467821107e-02 4.693794903978624755e-01 2.093224952540039263e-01 -4.772318375738714776e-04 -6.808289257062097874e-04 1.007014524771339820e-01
6.811404134044728165e-02 4.860310861306617047e-01 2.096958199300271164e-01 -3.305182546806329966e-04 -4.830490349500047393e-04 9.120948663693359548e-02
-1.909001455758286073e-02 5.338912989828377142e-01 2.101295294326568919e-01 -3.538107184150173379e-04 -7.916883327406386717e-04 1.455770599447775981e-01
-1.804384267898970565e-02 5.191249512663727028e-01 2.104442324032697043e-01 9.371730653951976329e-04 -2.148927000085625646e-03 -1.763186929425351532e-02
-4.095239210411127928e-02 4.501974933048073502e-01 2.100565616566827387e-01 -6.131492826005565701e-04 8.678688861627810057e-04 -3.659902859405944064e-01
-1.252711371625485626e-01 4.801336893719507781e-01 2.093516052856317922e-01 -2.871186709031849473e-04 -1.811706506841571484e-03 -3.693810762518397461e-01
-1.947639508385105855e-01 5.364274229136668515e-01 2.093532881049945393e-01 1.202204707988808351e-04 -2.112646823387534078e-03 -4.591028943385731531e-01
-1.233281692517575745e-01 5.156772759399470552e-01 2.092848167693561745e-01 1.742123427882589972e-03 -1.613482627371605254e-03 -3.291957413079726891e-01
-8.944403996935038070e-02 5.668717632810649221e-01 2.097863619083488729e-01 -7.454831281107493490e-04 -1.863426674883791271e-03 -3.415424753116630963e-01
-9.958309949010497875e-02 5.645463312619611873e-01 2.098208800171356692e-01 -9.304739175739973269e-05 -1.780292430515326456e-03 -6.041509158190895290e-01
-7.945760228224546529e-02 4.819613648217717650e-01 2.097469316608814305e-01 8.385171564641613921e-04 -2.908518125276221816e-03 -6.865244041319913393e-01
-1.694829673947061965e-01 5.542670237004621026e-01 2.100234261156700977e-01 7.448883277055469985e-05 -9.913725403378212744e-04 -5.466816950343690307e-01
-1.973945860628300575e-01 5.010772989363253549e-01 2.087212740475813955e-01 3.504443564269911059e-04 -1.573148991926137490e-03 -6.118018588028925064e-01
-1.794756845817669089e-01 5.137657016251505615e-01 2.089689168595186275e-01 -1.649032417669627491e-04 -7.973333757868095520e-04 -4.174344620652189475e-01
-1.764652865314985108e-01 5.140094018188545721e-01 2.090876041242700212e-01 -2.752055065860570574e-04 -6.034353286705421019e-04 -3.847935885792905797e-01
-1.403702126795816074e-01 4.770937230961254105e-01 2.092652503673003150e-01 3.556946674262756914e-04 -9.319225260959533271e-04 -2.312154030963421425e-01
-2.323863875349237718e-01 4.644015983396148073e-01 2.096654085031576242e-01 -5.391587103726631965e-06 -5.097432284351233580e-04 -2.198442830174515972e-01
-2.086169204967206481e-01 4.467534073383327975e-01 2.098628879617252529e-01 -1.495863498149905602e-04 -2.139850761552536580e-04 -1.828863125405457701e-01
-2.089455344382321611e-01 4.873177406660713640e-01 2.099454102414386458e-01 -2.538622029855651407e-04 1.062594097908553482e-03 -2.265170967601207175e-01
-1.734825914680240277e-01 4.743637096966429878e-01 2.089057504223253425e-01 -3.863887968627389627e-05 3.487120889105224360e-04 -2.937767213573415082e-01
-9.880455362426807109e-02 4.958234575755306461e-01 2.091558052493073250e-01 -2.152028285486527596e-04 9.291688612508964109e-04 -3.712017362873872295e-01
-1.204899587245419623e-01 5.073295777597607303e-01 2.091536918702834869e-01 8.216089012750784791e-04 -3.031403130264574306e-04 -3.728718568298181602e-01
-1.680534884933377326e-01 4.087574296420365960e-01 2.094072804503003260e-01 2.040870994479002370e-03 7.617387157131502891e-04 -2.707526674530507660e-01
-9.988804301337633751e-02 5.086567762579630170e-01 2.098811727712153741e-01 -1.050731325825986912e-03 9.926079385415220117e-04 -2.079572611946861327e-01
-5.530952611224834031e-02 5.970285706388627212e-01 2.098792660603401861e-01 3.685277279129975684e-04 1.114060665996830001e-03 -2.452147322167130550e-01
-2.679583656403822581e-02 5.946439226168787062e-01 2.085227047840271242e-01 1.471399024607960605e-03 -3.066276021021431173e-04 -3.870809525245015870e-01
-3.539668996503049503e-02 4.670918255543874964e-01 2.089575227656632617e-01 3.335308044559889135e-03 -1.064593346844841006e-03 -1.783559123649484657e-01
4.311101009735690548e-02 3.740869583774988905e-01 2.089573055719249339e-01 2.305326336224295704e-03 -4.184299318701600857e-04 -7.534385088564844735e-02
1.130774422149784242e-01 4.132904135636343845e-01 2.091764329656530252e-01 2.955828945642219232e-04 -6.837740443716013939e-04 -1.405017236510984480e-02
1.611402182802532668e-01 4.225944129754057865e-01 2.091339312504026937e-01 -9.562714170084298144e-04 9.600273499473782743e-04 1.633041220340641086e-01
1.788829747810389836e-01 4.395779604896678516e-01 2.092934120178296942e-01 1.579278018133958676e-03 -2.074522802070704426e-04 -4.319591130677193080e-02
2.348419357777489225e-01 3.286230930075196843e-01 2.097693097689784514e-01 3.881447664887980936e-04 -7.303484127548250235e-04 6.431141803730440476e-02
2.259574701773904293e-01 3.831738572818309541e-01 2.100521254552539241e-01 -8.987015578831966840e-04 -7.803041074796402072e-04 -7.346404503719719536e-03
2.274667573651659724e-01 4.224096871842957790e-01 2.101750797937966819e-01 -1.848380655514736404e-03 -5.955450564355190771e-04 -1.824119354374106189e-02
2.283458942539048631e-01 3.623554999332053161e-01 2.102343073512070171e-01 6.318434868897758808e-04 -4.331781296446193049e-04 -5.852224202717487556e-02
1.780871793253262225e-01 4.271858444137589528e-01 2.100932379246877590e-01 8.728455859410549217e-04 -1.310729706401627791e-03 -2.213645629430628370e-01
4.977501122319813454e-02 3.705234533594616297e-01 2.087679970706701194e-01 -7.558474777304676276e-04 -2.135571578350031231e-03 -2.581104268357846121e-01
1.726615021770499386e-03 3.099502254040793492e-01 2.094141460445594349e-01 1.629768129982525800e-03 1.795218267074145252e-04 -2.788558326106667096e-01
2.268934714186214910e-02 2.660486827863048354e-01 2.097124342643958417e-01 7.708274762975879293e-04 7.731458868242167479e-04 -2.241955579126094222e-01
-4.125749792403430455e-02 3.309879572803340886e-01 2.097227579217019189e-01 -1.838634472049165694e-05 3.370917989800155867e-04 -2.881127456564632205e-01
-2.478568390121367940e-02 3.033762582993648205e-01 2.100495958295784948e-01 3.961669884894777590e-04 6.883377516452070331e-04 -5.073109023904169845e-01
-1.150001760554452412e-01 2.172958729851156012e-01 2.102283047571133490e-01 3.277982970179035664e-04 8.942086437160720516e-04 -4.726712604237763848e-01
-9.590612988499361280e-02 2.414894929122980427e-01 2.092322389986338016e-01 -7.792925588347549525e-04 1.845675225793951587e-04 -5.390797027960226862e-01
-1.006267246670412979e-01 2.414180896645343188e-01 2.094862125532018782e-01 -8.302036007116527904e-04 4.003073159333426123e-05 -4.702545775773769310e-01
-9.321082628169362339e-02 3.219495088915778624e-01 2.097679385115297501e-01 -3.947896877908390841e-04 1.021383452400380235e-03 -3.299862577738851277e-01
-2.539809814820032444e-02 3.404012141689392035e-01 2.102513382478949922e-01 -4.270817843636544840e-04 1.098882302360702692e-03 -5.632178263712788180e-01
2.730063297127802505e-02 3.415285447706103983e-01 2.091796327825564683e-01 3.459601427600159681e-04 6.468592856887021413e-04 -4.312576503527711935e-01
2.909659415834111792e-02 3.641329472770688525e-01 2.096064094446283832e-01 -3.393316099190789677e-05 6.526127575826765016e-04 -5.652265782151492113e-01
2.491887519415080660e-02 2.885341317175658116e-01 2.098940779666144674e-01 9.098399011179170073e-05 -2.425236437100058398e-04 -5.532890794467749673e-01
5.255453745588012371e-02 3.280876621354987810e-01 2.089628430929304503e-01 1.651738861502854549e-03 8.715116952299348718e-04 -6.646921819750979399e-01
1.867293380563215741e-02 3.150724915558635320e-01 2.093597551032512771e-01 1.745081286149398553e-04 3.733223644184214792e-04 -5.840714183317233799e-01
1.017507686042593423e-01 3.115955353011191087e-01 2.098202684743292190e-01 2.738701183908789742e-04 4.790238309302404375e-04 -6.152891259331001450e-01
9.083205048143491722e-02 2.854842887599932655e-01 2.098420801704815042e-01 -1.846073686434538872e-04 2.140706739319951646e-03 -4.528437948057157936e-01
7.071702183346761927e-02 3.244411095844383919e-01 2.096218279449034161e-01 -1.213040852517676841e-04 5.885368065112991150e-04 -2.566871883137570309e-01
1.364275895551984863e-01 3.355905680953980008e-01 2.101077289667074854e-01 2.662501242779422603e-04 9.094403770001914479e-04 -4.478478685935129988e-01
6.142045105675499050e-02 3.843321196714321042e-01 2.094263695948668791e-01 2.714665036951403312e-04 3.751365895014839038e-04 -6.238234630197491137e-01
8.014813276465278247e-02 3.934701072111035924e-01 2.100105267639962303e-01 -1.189373020877496954e-05 3.551195380570379835e-04 -4.789034004451059312e-01
-3.152467867709929372e-02 3.454147549079488178e-01 2.092451311324475816e-01 3.719754884336330322e-04 -4.871532434335315684e-04 -4.971791738282614892e-01
1.157678407932256348e-01 3.609732231609323327e-01 2.099087376800911064e-01 5.805950202121881314e-05 1.518690566150751283e-04 -3.512530956745443800e-01
-5.209660151689647634e-02 3.365969458786658985e-01 2.092323306357940504e-01 5.339428129272229652e-04 -1.388052978369864587e-03 -2.406049468623684962e-01
5.524153936559168809e-02 3.572043606916482927e-01 2.100296305198268709e-01 1.796482137544165906e-04 -5.075817963930090524e-04 -1.903139639907722724e-01
1.796923468112910857e-02 3.008745508901057852e-01 2.095267403308557763e-01 1.342643904701937415e-03 -1.169403652608220134e-03 -1.175137055377784151e-01
-1.716961802202218723e-02 3.805150492583820321e-01 2.090468721582763867e-01 -3.311350910288433512e-04 -1.327003941958718267e-04 -1.977587248985008261e-01
6.217399385204071260e-02 4.237061269201357616e-01 2.098451815362775141e-01 -6.879461369974862071e-04 -1.291929043383650496e-04 -2.965338047358589968e-01
8.975474841053900088e-02 4.293506740140858313e-01 2.092236816349242745e-01 -8.406645468735107502e-05 -7.201259275595132004e-04 -9.263557022919650941e-02
1.362295099803507437e-01 4.138757605795937988e-01 2.098622723149305425e-01 1.112354106547411596e-03 -1.672833747146368951e-03 -2.852624262688738255e-01
1.944465222227918233e-01 4.836257687462943711e-01 2.095563950760305216e-01 -9.545446164553614624e-04 -7.317255337972028558e-04 -1.298315705051094893e-01
1.780446736388390794e-01 4.579294342840972143e-01 2.089435355035280106e-01 3.213688414161254580e-04 -1.913704676173697125e-03 -1.014348901310044848e-01
1.307518770350907245e-01 4.599564278272165185e-01 2.095560669808602672e-01 5.214264888736416196e-04 -1.715361591182950349e-03 -1.329593444110322709e-01
1.054211729626893662e-01 4.526505374385825786e-01 2.092577423660691438e-01 -2.330701473375859959e-04 9.524173761462449554e-05 -3.116949314368008123e-02
4.795093710580131119e-02 4.194223768087362858e-01 2.100691169754189125e-01 1.063025900470489183e-03 1.139336276502434138e-03 -1.629851787410447894e-01
8.042873001690288570e-02 4.933669370477269944e-01 2.095559779052191818e-01 -1.096301426969128068e-03 7.003643244720645375e-05 -2.048091490638777323e-01
5.026910049236704703e-02 5.080299124734803939e-01 2.090552804443130408e-01 -3.179399158315573395e-04 7.657076376493742939e-04 -3.290730391108486752e-01
6.047042642033363669e-02 5.155727122615009206e-01 2.097228030632133366e-01 2.162981982614438494e-06 2.194755167060378554e-04 -1.803175549600365690e-01
-1.414908695222886516e-02 5.518628652225663345e-01 2.096449088455870635e-01 1.564089814141443125e-04 -5.934053870257726239e-04 -4.574432877786636653e-01
-2.828873320202752312e-03 4.645603507184484227e-01 2.099973195237662682e-01 3.876076405901694418e-04 -1.400703041899865734e-04 -2.262651850243429241e-01
-2.844207301130629792e-02 4.856624412049225792e-01 2.084887595196423526e-01 7.461537218212761953e-04 1.337506787685725264e-03 -2.110448631844902834e-01
3.130293012932462704e-02 5.715262665029899880e-01 2.093502819969724205e-01 -6.997422369933159730e-04 6.030520479553394325e-04 -4.420758454361144452e-01
-4.909544314514593943e-02 6.377454173299185181e-01 2.089389738065622892e-01 -5.235915488956131066e-04 8.050579473369091953e-04 -3.371226842406852553e-01
-2.057707668167174306e-02 5.899638676964318318e-01 2.094205733912968825e-01 -5.550554669321919581e-05 8.530458840898401569e-04 -1.983164106906413204e-01
7.445805907762340775e-03 5.705744690849814393e-01 2.097866707127630237e-01 1.604475643518920181e-04 7.224893789197424669e-04 -2.972091161078491139e-01
-2.405427354083302868e-02 5.559323630373614877e-01 2.091113121344090331e-01 -6.574705837285038526e-04 1.345874305625675534e-03 2.749403890275402274e-02
-6.423471936674203520e-04 5.739784349648822115e-01 2.094448418500429177e-01 6.175686841957823191e-06 2.806060897674270832e-04 3.255193559375865048e-02
-5.610954294843003426e-02 5.034353120844725638e-01 2.089963645060903819e-01 8.018485679439879251e-04 9.599731014616237493e-04 1.119821554566944738e-01
-4.431076053925638719e-02 5.121171371746272571e-01 2.098491185477084908e-01 -6.777541648814547330e-07 1.767441162179666852e-03 -8.150157051490386495e-02
-3.678165886632445147e-02 5.561494226634128291e-01 2.087079280236321943e-01 -6.100685044750146736e-04 2.104820302957879138e-03 6.250215084684818123e-02
-5.060579980223618712e-02 5.853352688724779984e-01 2.100722235410981131e-01 2.533815560024574049e-04 -4.567983808442702500e-04 -2.527281941698222290e-01
1.384046353701666801e-02 5.697297135997203554e-01 2.104970251830988182e-01 -1.884271359989788872e-04 -2.099513354430902930e-03 1.845902983849774873e-02
4.953048608704883893e-02 5.193452429130688275e-01 2.097331274562087011e-01 -5.704969810008017313e-04 -1.597832205626720280e-03 -2.221102820100304687e-01
2.725310352025278604e-03 5.486984420667058160e-01 2.097606413148558335e-01 -7.760615151739997416e-05 -3.421726420883289743e-04 -8.286308014405392719e-02
5.009190145748528000e-03 5.201943196805459690e-01 2.082781091555044872e-01 1.433376051320931974e-03 1.603710253095736154e-03 -1.987189660476910424e-01
2.251306311860237080e-02 4.929077514074480248e-01 2.093705273463048466e-01 4.068902235829473246e-04 -6.924043277569163135e-04 -5.287795736741880692e-02
8.756969980418574662e-02 5.052605498474860291e-01 2.098421283831785611e-01 -7.946067040077231048e-04 2.158991358217352344e-04 3.943668516792891987e-02
1.313777274495766811e-01 5.564834245782084299e-01 2.100328265498869196e-01 -3.257243472613393677e-04 -1.287537927490467297e-03 6.058687018836443616e-02
1.868753731756169767e-01 5.610232595636923669e-01 2.096428291715612402e-01 -8.949289180754944461e-04 -2.273873902365911200e-03 -1.979191560664213256e-02
1.497261914346610656e-01 5.282342471224411584e-01 2.095274938192623337e-01 -4.367419582104601272e-04 -1.777919012908288571e-03 -6.516798123871044013e-02
2.143944714426935794e-01 5.605900257337319559e-01 2.102805702909121832e-01 6.540376490967546438e-04 -1.165938238782598339e-03 -1.321734829002916001e-01
1.882706195347443046e-01 5.736819901444536463e-01 2.090504631082360509e-01 2.268805687912291732e-04 -2.388486597351235745e-04 -1.370174679990530942e-01
1.265713300196777136e-01 5.515004460187520330e-01 2.098038089268480233e-01 -6.146878181935921340e-04 -1.434789528722682072e-03 -2.153026987160193972e-01
1.142618406035717238e-01 5.876703241371816766e-01 2.097012782242291817e-01 -7.902118500946987635e-05 7.702455677196140722e-04 -5.071184531804646678e-01
5.722396974917936391e-02 5.631914231423976736e-01 2.090321905516605017e-01 3.606067226990407716e-04 1.316872148151267043e-03 -5.403509745632754102e-01
-1.771924805368789088e-02 5.527257937519485242e-01 2.095476452445448334e-01 3.864597509297883703e-04 1.625678071332347339e-03 -4.967420614244532628e-01
-1.900894472122730688e-02 5.770190528736440783e-01 2.101735402683043152e-01 -1.012476455952729316e-05 1.537869274179463723e-03 -2.779337365470558874e-01
-3.194741148461922864e-02 5.368234331970066497e-01 2.090811855806343766e-01 9.266924463723225786e-04 1.528205247933311179e-03 -3.211787506663585368e-01
-4.017172180939868054e-02 5.468361954442121364e-01 2.089151675026728605e-01 9.103048306014490472e-05 7.838699277562441968e-04 -4.418911191988850740e-01
-1.229063960440713449e-02 5.224267794101662421e-01 2.095673116641951772e-01 1.754534040855284681e-04 8.359540800555128638e-04 -4.037067250676191210e-01
-1.592096477448131861e-02 4.904864055883980112e-01 2.100243016024361808e-01 4.792689701356700189e-04 1.216483330771982695e-03 -2.588915134503617099e-01
-4.466859218111384616e-02 3.609124314889683438e-01 2.089767103335993803e-01 1.918866679023408005e-03 1.440911793692711395e-03 -2.874837370159116223e-01
-3.685299273552297694e-02 2.909366612928948603e-01 2.094658857441462074e-01 2.460316089301127301e-04 9.311966922534546665e-04 -1.708412594095753967e-01
-1.349446692566185109e-02 3.483786507329166837e-01 2.101415281270803126e-01 -4.492969279416425006e-05 9.623087659550528996e-04 -2.877954182356551871e-01
-4.710617749010747451e-02 3.337027404901285466e-01 2.091945176991371613e-01 4.733020311805814892e-05 5.983758553886976478e-04 -2.281991645139520852e-01
-7.533848028176380607e-03 3.251571520089758804e-01 2.097211819118952603e-01 2.422522109196566088e-05 7.405835297064397972e-04 -1.598549107433470395e-01
6.904893829651863324e-03 2.705897299441183401e-01 2.083211138003970286e-01 2.161337119102167085e-03 1.473059191081894318e-03 -2.216566431164454787e-01
3.435136771359850044e-02 2.141359809457786256e-01 2.097590397801127327e-01 -2.874214853852136283e-04 8.678450232738130080e-04 -3.035706658245043710e-01
-2.436193707317817897e-02 2.545086687456732943e-01 2.091499356753579453e-01 1.282024333298553459e-04 9.506024129886492908e-04 -3.822989115687910333e-01
-1.521993047852315296e-02 2.351113143979737252e-01 2.099053117293569470e-01 6.013773526144725046e-05 9.512591302764377300e-04 -2.725248621853525455e-01
-7.075567940610583834e-03 2.265195116434365885e-01 2.094266270122970841e-01 -4.546277910505970251e-05 1.326192561236301483e-03 -2.547962710565435107e-01
-1.776475647481469064e-02 2.066144224451967326e-01 2.104002457038315343e-01 -2.917785580083517892e-04 1.003829286665090456e-03 -2.982915408761965814e-01
-5.156965814599843295e-02 2.223380953892743206e-01 2.106702334774107621e-01 8.073684672222263068e-05 6.259635154196658202e-04 -2.833060720247935760e-01
-4.355829921803040794e-02 2.223328789607313394e-01 2.093492454185431062e-01 -7.214162755581241763e-04 1.618059950688171883e-03 -2.473463640746404735e-01
-4.591949410462745074e-02 3.079697371912849535e-01 2.095926952775363228e-01 -5.262411101254839190e-04 1.015794351752768825e-03 -2.711073298872487269e-01
-3.359635850759534054e-02 3.055139218078767316e-01 2.093702453578620837e-01 -8.731010792141501197e-05 7.543222743179493024e-04 -5.345908157262846405e-02
-3.331989882373460193e-02 3.309025914931394419e-01 2.092925026636414665e-01 -2.016520475928501252e-04 5.799730158949869445e-04 -1.551414995731280333e-01
-3.359922173844559490e-02 2.721481499950191840e-01 2.101597556346606610e-01 1.124164395781572696e-04 2.132270082367339640e-04 -2.456493307889600630e-01
-2.071269830532460748e-02 2.628168648703171906e-01 2.096141603780304896e-01 -5.739901240211221870e-05 3.335571964143218236e-04 -1.263661659754926336e-01
1.112741031511534778e-02 2.303828679866514462e-01 2.100350613104725594e-01 -2.509795811471423553e-05 7.219909603947610504e-04 -2.878536332130393061e-01
1.766930507353741894e-02 2.259329606626815923e-01 2.093886704099787721e-01 -6.719048677561306195e-05 8.079503380417460585e-04 -3.258038730342471823e-01
7.330884738933465816e-03 1.846631554185087509e-01 2.096260280526587305e-01 2.230057378441229279e-04 3.722945496383433671e-04 -3.611010151767153897e-01
4.623036778919335094e-02 1.045731252836577252e-01 2.097147488568958384e-01 1.765420792178876120e-04 5.000534345490041796e-04 -2.945181010895962515e-01
6.637468685906766641e-02 1.049207172910762986e-01 2.097213247326405461e-01 -1.060896527516387046e-04 3.905150256896977893e-04 -3.645516651623630366e-01
4.166617875992589815e-02 1.354077992042391765e-01 2.097394497820811443e-01 -1.136163415923740271e-05 2.306130002901795109e-04 -3.590925157302368720e-01
2.526925678262522193e-02 1.365049996413292832e-01 2.097926408134116461e-01 -3.353080879988940016e-05 2.735541375296165643e-04 -4.526031832773114161e-01
1.339814189885990894e-02 1.365029137091906819e-01 2.098617471982968663e-01 2.421504091438063226e-05 2.903045819125161836e-04 -3.946606571475766434e-01
8.015459584202969112e-02 1.213922249303753809e-01 2.099771043581281083e-01 1.086520240451308250e-04 5.976059387206063148e-04 -3.591826761997274353e-01
6.392384326867039945e-02 1.463381759575186347e-01 2.104410985937183454e-01 -3.145867192328435837e-04 -4.392990103440790376e-04 -3.201647037496982984e-01
1.187659344411375745e-02 2.195437514098222131e-01 2.095313450262553112e-01 -3.929794965159261991e-05 3.826685103192295988e-04 -2.983354122314132995e-01
6.768321541411434494e-02 2.134657890812290959e-01 2.100275491105534353e-01 -3.135810915762854732e-05 4.752822995168841619e-04 -2.891510373214025709e-01
4.194302887114954859e-03 2.186858343111117153e-01 2.094354413004850257e-01 -1.781175004541751803e-05 4.687357612121322990e-04 -2.689120776079895192e-01
5.618611253357816415e-02 2.465993447504966629e-01 2.101016500821233368e-01 1.709915506689708748e-04 5.661916756781728774e-04 -3.007703617723196943e-01
-2.352075581601136348e-02 2.505234964612769732e-01 2.097376094990131556e-01 -2.381514510694685577e-05 3.621641509447251408e-04 -4.964161588467504438e-01
-4.369449163156678695e-02 2.769456528884526314e-01 2.093728408203657798e-01 -9.029639904327494944e-05 5.855039052027532706e-04 -4.519111831307704441e-01
4.674377312591834754e-03 3.705245074461586685e-01 2.090134482054568643e-01 -2.073979625215624598e-04 4.486454398537965179e-04 -4.717446283281105934e-01
-8.579836687533645007e-03 3.352156821838638279e-01 2.092067835511795537e-01 2.123288901807413660e-04 -3.311878590889102926e-04 -4.759944224402769541e-01
-6.838681754454369044e-02 4.582721261747713659e-01 2.092972308621478539e-01 2.871496321680844119e-05 -2.342719316688181644e-04 -4.782096487350277481e-01
5.013218659697601942e-04 3.896183710449331317e-01 2.095527778432776378e-01 -3.778708440041286701e-04 -2.240543894044796154e-04 -3.110336601383878463e-01
3.953502697727631632e-02 4.385675564462733766e-01 2.096991524262263873e-01 9.332382904346801832e-05 -1.027804601555866318e-03 -2.974464702917955505e-01
9.981760712160953064e-02 4.669713584177351828e-01 2.099431397103811991e-01 4.047166004394191652e-04 -1.241801079848857403e-03 -2.423060529156850773e-01
1.006764629653382759e-01 4.598249347384203434e-01 2.101994416276566913e-01 -2.041914103288570710e-04 -4.743112966109661142e-05 7.096776244528341104e-03
4.084594488467765960e-02 4.562242229753484257e-01 2.091970519344895085e-01 1.763021543113759131e-04 -1.137200411850115096e-03 -2.012238502269796114e-01
7.261381940398656254e-02 4.354435979294562498e-01 2.095728179206725050e-01 -6.467390586441162177e-05 -5.513871860326873811e-04 -5.454621835046376266e-02
4.344464441067494298e-02 4.385966393033313149e-01 2.098096174215122733e-01 1.800780042326268285e-04 3.592468721294599814e-04 -1.975829399923637875e-01
1.497179128405462870e-02 4.556818370592751188e-01 2.101057438295821367e-01 -2.416487962724058554e-04 9.517012805970174105e-04 -1.623153878939385397e-01
-7.174404374168281973e-02 5.164910242896721959e-01 2.089083217096119327e-01 -4.222250012418951809e-04 -1.734641432833405601e-04 -4.320203678524179858e-01
-3.746478252316581131e-02 5.192500431383952897e-01 2.088779947397818582e-01 8.149248584196743114e-05 -2.256106320958049002e-05 -4.440237484344859431e-01
-5.045874852377003894e-02 5.267850909126171599e-01 2.092033892559533315e-01 3.409142451785335585e-04 -9.192465853861195703e-05 -4.186275552953252488e-01
-1.305037916739794530e-02 5.200131640485075035e-01 2.095772926973676897e-01 2.523268927498232750e-05 -2.161493395810789209e-04 -4.651460388132546142e-01
-2.356297130492167671e-02 5.844162194189336246e-01 2.097479196886157249e-01 -3.782428089503231654e-04 -4.767553562664587018e-04 -3.573938718884608901e-01
-1.910649308488177600e-01 6.848172162599993618e-01 2.088241261732043941e-01 6.729010195158437483e-04 -1.090776049847011183e-03 -6.288439065369709757e-01
-1.169484932055141341e-01 5.811403390412779313e-01 2.091118080724964079e-01 2.007542237449319502e-03 -1.333343033861453426e-03 -4.605613040657574042e-01
-1.320954948924525640e-01 5.434719664608940182e-01 2.092226737523361635e-01 6.691041151307646319e-04 -1.342519097703687506e-03 -3.206673019056535123e-01
-8.825816975223539640e-02 5.850285090365069385e-01 2.096759172258000348e-01 1.461411622036211458e-05 -5.690803306144063146e-04 -4.154489363158062054e-01
-8.844557120000681727e-02 5.746011608094063750e-01 2.089220313127830853e-01 1.633500812682949497e-04 -5.158126080665219803e-04 -3.479675112679401217e-01
-1.318882176596315459e-01 6.213621276008219896e-01 2.093757423117357797e-01 -3.057449159232747572e-05 -2.504748910887179378e-04 -4.702974103477610135e-01
-1.714280669395998324e-01 5.646959143620255972e-01 2.094415915772930847e-01 1.364595945866444761e-04 7.356443338453059252e-04 -2.741017611969222001e-01
-2.267556771968950169e-01 5.681854335746410190e-01 2.095191630494881996e-01 -1.823351511069445788e-04 5.825398002668227262e-04 -2.519029463122055557e-01
-2.123713648214547167e-01 6.680141938950866498e-01 2.095155289677308463e-01 4.703091651845491168e-04 2.549486172144852089e-05 -1.872392837163058821e-01
-2.293805939663993154e-01 6.316567566147277546e-01 2.096166724550203586e-01 3.345864008598627712e-04 -1.636431542145668893e-04 -1.613858610480747025e-01
-1.835696005369496231e-01 6.973945872148925584e-01 2.097011403349986480e-01 4.119646570901162202e-04 -6.525987060793750913e-04 -1.742373760751319833e-01
-1.661543882913162906e-01 6.466844634100002986e-01 2.099774988018578981e-01 -5.567235346636646492e-05 8.391586626284217823e-05 -1.000624259923845738e-01
-1.411560645978518491e-01 6.846628340709055571e-01 2.088164285666599951e-01 5.230735797567874837e-05 2.957948617462786587e-04 -1.242379662084452802e-01
-1.612385807337418653e-01 6.375467002087769064e-01 2.088736589888402495e-01 9.927797261829179193e-05 -4.913052063674082284e-04 -3.934340424781705980e-01
-2.221560631521418694e-01 6.589355125865863361e-01 2.090063912172885341e-01 2.810317093046662174e-04 -8.566034371684360521e-04 -5.516544970530559144e-01
-1.952219608081704472e-01 7.312319073252009360e-01 2.087179045217468776e-01 -4.521298888395178369e-04 -6.497694356492683069e-04 -5.046188146034574773e-01
-2.385449127882429132e-01 7.325457908802650575e-01 2.089580297676326692e-01 4.954851737063421064e-04 -8.521701238039360374e-04 -4.482532856956302769e-01
-2.207962631688910604e-01 7.590956734323967003e-01 2.090721167562456517e-01 -7.947466392409926962e-05 -3.849491952897602103e-04 -5.317879556364299987e-01
-2.410156272829491464e-01 7.817297299842270730e-01 2.086752977237169016e-01 1.432615881711369211e-03 -3.283141608606586839e-04 -3.318911081791585671e-01
-1.774586690784456244e-01 8.101470379936699384e-01 2.087847655236303446e-01 1.641010250460469893e-03 -6.795828488366209737e-04 -2.421547875039762598e-01
-1.096764810685374875e-01 8.068869063826127341e-01 2.086040324265064361e-01 2.265898229678150761e-03 -1.654742502838050557e-03 -3.605414669392476568e-01
-8.991639006546137125e-02 7.432087785148165926e-01 2.090896602788070990e-01 8.411902678225318536e-04 -1.163008695259588280e-03 -4.281521376015686720e-01
-1.074269792072417296e-01 7.002712183157571157e-01 2.093830117999445628e-01 1.148408341067081763e-03 -1.130792852594101477e-03 -3.191451117514540470e-01
-8.920630801612179639e-02 6.076448638692277804e-01 2.097652047466176395e-01 -2.791037509645029856e-04 -2.489945328037704991e-04 -1.267244134619034679e-01
-9.483681463565998837e-02 6.179643489068642470e-01 2.094665735100617043e-01 7.251295940804749476e-04 -1.081433193029703033e-03 -1.963121480642347483e-01
-6.337320255010114867e-02 6.365579620182015841e-01 2.101748503409154867e-01 2.329300259185086664e-04 -1.921337992110627117e-04 -1.780390272619984116e-01
-9.958556533827134238e-02 6.082873018719895386e-01 2.088936686067072723e-01 1.408003781455680070e-04 -4.789443121695862696e-04 -2.705217978243720234e-01
-6.963598889545206949e-02 6.155652340449390136e-01 2.091445912425334841e-01 -1.959516795556162767e-06 6.227543582837300438e-04 -3.411050982366317652e-01
-1.100907427689380297e-01 4.799371927848204988e-01 2.095017497038573762e-01 6.667129373120149732e-04 7.497922505819930826e-04 -2.923467153898516302e-01
-7.927745762878347924e-02 3.763936671533421041e-01 2.106220830291140045e-01 3.652569600964549758e-04 3.513479959949060796e-04 -3.053085139212147747e-01
-8.868205948660554117e-02 2.996525703404245289e-01 2.105310948034733176e-01 8.202560072195869091e-04 4.158339287857145718e-04 -2.952649854603245361e-01
-8.006494046079029592e-02 2.436894949293206269e-01 2.102336939510869307e-01 5.343091963429487997e-04 3.449998317145853543e-04 -2.699295498892699818e-01
-1.283648033317704926e-02 2.604419775675294590e-01 2.096452790461534321e-01 5.928640623963860393e-04 1.102601019779607134e-03 -5.016171268460946076e-01
-2.940438958506539496e-02 2.711517877130359966e-01 2.096794933655190540e-01 7.360209783170096418e-04 8.974051303319909587e-04 -4.341240951628497213e-01
1.136815714280529077e-01 2.274197547578889200e-01 2.095637624517505126e-01 1.183280205671709360e-03 6.819001202705853070e-04 -2.607270943807505348e-01
4.838437758048125259e-02 1.832312268036625780e-01 2.097558418136029612e-01 -4.127986103535386799e-04 3.039608898420960415e-04 -6.054386164528773318e-01
2.976700951195964187e-02 2.062629498160101771e-01 2.094494767895176413e-01 5.468987223510809494e-04 7.415049453231845663e-04 -4.350231889136205177e-01
3.083415267565718654e-02 1.739204019685156866e-01 2.092103120452005194e-01 -1.142702731841983930e-03 8.964270326530587385e-04 -3.249096928579733867e-01
1.272306181800069227e-02 2.191169341009076288e-01 2.092738481686448049e-01 -1.501640009128925042e-04 7.246337322482670389e-04 -3.953304409051898727e-01
1.306394108653346764e-01 1.768829827286029499e-01 2.103424553714458023e-01 -9.992732626598061624e-07 5.833491164083947928e-04 -3.653070554761886357e-01
8.865436401983006753e-02 2.467834644459742377e-01 2.102362297500509070e-01 -2.191250438817522359e-04 3.131046536002868243e-04 -3.720732137325734046e-01
1.474720330462554740e-01 1.849936323704602648e-01 2.100216165579132377e-01 1.245093638846027579e-04 1.368275618496387637e-04 -3.950073504980453065e-01
7.804565657900280895e-02 1.450258059063942173e-01 2.099356692112749334e-01 -1.285594149459430709e-04 -1.774739185312346472e-04 -2.609495032808316073e-01
1.180036530904791242e-01 2.040381842762337694e-01 2.095232988743418456e-01 2.343668055270887833e-04 -1.492056887145873324e-03 -5.448005215202552654e-01
1.011368108055025472e-01 1.554617597400470286e-01 2.093909357854856212e-01 -2.099563900583947297e-04 -2.417584736698467115e-04 -4.772241616484992344e-01
2.343474957291708516e-01 1.946943423451455990e-01 2.095548797877918590e-01 -5.356837065459311509e-04 -1.301399401052069117e-03 -5.393807823922619482e-01
1.586503952995514111e-01 2.344661901449179853e-01 2.094711785664529757e-01 -4.534553835310723807e-05 -1.047479714964234983e-03 -6.022329807010742275e-01
1.139721936974383010e-01 2.427632413187881810e-01 2.092061816781612960e-01 -2.353618258688297158e-04 -4.671364375149002798e-04 -5.919882607610456038e-01
1.373553453107452804e-01 2.990909528052116406e-01 2.089688492875911852e-01 -3.342791795164079668e-04 3.472010585989758762e-04 -5.018142015170778958e-01
1.301374927621765376e-01 3.228078527500062300e-01 2.090820051318192374e-01 3.216786064054426167e-04 -8.676730133154287412e-04 -5.736218345321308920e-01
8.163120535601842143e-02 3.508004757365221216e-01 2.092310570761233834e-01 -5.631416616271496273e-04 -1.305128738987586202e-03 -4.084807818853309347e-01
-4.729068042673874317e-04 2.499420533633095742e-01 2.105764789385655145e-01 -3.714725262580367382e-05 -1.078869916743003437e-03 -3.031215318951608340e-01
-7.436208277125753996e-02 1.888261878021781914e-01 2.102530904122956734e-01 3.439551611814874914e-04 -4.170153065147890999e-04 -4.082373373809559114e-01
-5.285559582130766598e-02 2.783405606451163639e-01 2.102652478265489844e-01 -7.229258050637203540e-04 6.654566605020974940e-04 -2.587489389445463139e-01
-1.682392930723877050e-02 2.251388926349425501e-01 2.100675387757559576e-01 -7.857883637650261771e-04 1.247182136548678506e-03 -2.222416624083711212e-01
4.763986747635207131e-02 2.470717474554696702e-01 2.100292992361263433e-01 -2.923940027212894679e-04 1.500998940396617264e-03 -2.550170775672706558e-01
5.814179725506277152e-02 3.324044943879505554e-01 2.100187519023566374e-01 -9.529324056087804798e-04 2.310414649340890737e-03 -3.528866788704244639e-01
9.796626667188060300e-02 3.059084811402327242e-01 2.102836385330874580e-01 -1.072448931068565280e-03 9.803426296586318072e-04 -2.810138576355548090e-01
5.999130600061122753e-02 3.021327556926480806e-01 2.102656628092713920e-01 -3.694334453008747449e-04 5.666807647665089796e-04 -4.614305172911814523e-01
2.729568331890844940e-02 2.982719022638711248e-01 2.102125025151370119e-01 -1.189966634185011754e-04 -6.561776070474916768e-04 -4.144102547691501659e-01
-9.447988462939404739e-03 3.207567359123174588e-01 2.105898634220396692e-01 -2.463519152403463065e-03 -4.046400297205841499e-05 -3.622544742925942751e-01
-5.036579947589361894e-02 3.901599911006798371e-01 2.101094481863918784e-01 -2.906716783407485371e-07 3.642816240721599881e-04 -2.723196421050909644e-01
1.108846086473144754e-03 3.858388948669990159e-01 2.100024283070010545e-01 -8.629070316134124057e-04 8.331899522620780506e-05 -2.993880654647327333e-01
-4.050618996472958588e-04 3.969843181665690390e-01 2.089365399627250430e-01 -1.590935541283234841e-04 -6.893115933203525529e-04 -5.122326118487903202e-01
5.771871039582243679e-02 4.117394306971325357e-01 2.088130609234071233e-01 2.393514814825814312e-04 -1.184770327695162159e-03 -1.787061185703614774e-01
-7.573872252704335478e-03 4.611025100471632387e-01 2.091390008363542274e-01 -1.294952688726269197e-03 -1.674757962792798854e-03 -1.095080324354092416e-01
6.809584324780106057e-04 5.044303981861462116e-01 2.091647070938574826e-01 1.022849542356189193e-03 -7.932647749652501886e-04 -1.189564113563050252e-01
3.803144771783477374e-02 4.369666311193031172e-01 2.095689097418986235e-01 7.895216091406175637e-04 -1.316440182769143671e-03 1.398086036778611874e-01
2.079285979787202226e-02 3.968302795390293292e-01 2.099283017646130789e-01 2.219067072554422888e-03 -2.667206483923496851e-03 -6.323230339878843642e-02
1.037341916899630831e-02 4.502012039175994351e-01 2.100418635499776143e-01 6.753070055611730676e-05 -1.801627729477765609e-03 8.365168210989738784e-03
1.735339762078213707e-02 4.201286670794446287e-01 2.101906956388269188e-01 9.303641369940750857e-04 -1.264497940021017683e-03 -9.576284741531773670e-02
-2.788314775023972500e-02 4.351912930225518283e-01 2.090675866573963315e-01 1.205400215734279317e-03 -3.640745955295027572e-04 -2.114319685671089133e-01
-4.492690884890873648e-02 4.441497703465233093e-01 2.095908964633251270e-01 -3.999699863538289275e-04 1.506050506104516093e-05 -2.416541255361447094e-01
-5.169180639927067195e-02 5.313080628604440747e-01 2.099881005324343297e-01 -1.307251690848026948e-03 5.141092931991672089e-04 -2.752319709910734935e-01
-5.220660141381342628e-03 5.151222782972344483e-01 2.101726134258867229e-01 -6.199411598451829266e-04 1.665602424674735016e-03 -1.803531858846250668e-01
2.063755028022513927e-02 5.317123916571089293e-01 2.091776852293462663e-01 -6.801140323528187754e-04 1.773260098630073320e-03 -1.748575547230919736e-01
-2.017035745576973779e-02 5.862770363714787658e-01 2.095011626851052133e-01 -5.670462556180577316e-04 2.354187647941445333e-04 -2.425501931734950489e-01
-4.798584716745384060e-02 5.736509419105705332e-01 2.099567648332948955e-01 2.261401821748269272e-04 2.368110080034912276e-04 -3.153574578787390892e-01
-6.178699601565958155e-02 5.330379343320372776e-01 2.101265022537728289e-01 1.242411082068374572e-04 1.399796204327739216e-03 -2.330609598393303949e-01
-2.138346692247219613e-02 5.459487396349066435e-01 2.091226718833240072e-01 3.827950295388372475e-05 9.863461704243683351e-04 -3.845771071495648896e-01
1.711761761758048492e-02 6.301338464802809236e-01 2.092450854220708201e-01 -5.708650509949393268e-04 1.024007930557894585e-03 -2.981076641876893030e-01
-8.011753324973736046e-02 7.121369746941120793e-01 2.099336727290743165e-01 -5.768368466063806535e-04 7.211230679899915128e-04 -3.738258878982936295e-01
-4.502218293615321831e-02 7.641311170309617040e-01 2.088409477596185893e-01 1.728721949938984907e-04 8.662128347426750405e-04 -2.583815791831867714e-01
4.732255078383242053e-02 7.642334369784369308e-01 2.093379631534402208e-01 1.033450154665680864e-03 4.715337812874835477e-04 -2.351698588258224754e-01
1.201685746906573649e-02 6.810911941588213558e-01 2.098760900229022508e-01 -4.520678111304583802e-04 1.701898631657046900e-04 -6.590017291499047358e-01
2.009101078954677114e-02 6.341790459973966065e-01 2.092097285908004478e-01 2.192418972037175808e-04 -6.621806537608832715e-04 -6.556059072049449377e-01
3.452051061728136222e-02 6.461269697808221801e-01 2.092976612557975735e-01 1.769734951119155244e-03 -5.693683033768603773e-05 -4.563847886977143720e-01
3.624891409080116533e-02 6.336332980727383823e-01 2.098579712767555949e-01 2.996078437058192589e-04 -6.301796575490617920e-06 -3.085912449005903668e-01
-9.748779865241519876e-03 6.520267824454769601e-01 2.094689962414567619e-01 -5.729280474035994926e-04 -1.509982264578919094e-03 -6.315453393040121322e-01
-1.537640287341546577e-02 6.755589763255814839e-01 2.095242526233860869e-01 -6.919618526285450759e-04 -1.095707563998070486e-03 -3.915663907880992389e-01
-5.472914713542109677e-03 5.921883603532951401e-01 2.088627701612091880e-01 9.779519022970657467e-04 -1.288974741009939629e-03 -2.663672285902771164e-01
1.946055438088988010e-02 5.885581647399851235e-01 2.095774707350546162e-01 -1.575772386289302272e-04 5.552113978635999291e-04 -1.551509884100127912e-01
-7.893394812603071742e-02 6.163961397693082933e-01 2.097865481581897562e-01 7.842326964877232307e-04 6.442386627341326218e-05 -3.221091243778576030e-02
7.479928324942572426e-02 6.103128971973943440e-01 2.102051141470975271e-01 4.370402734104940367e-04 3.799393365086160932e-04 1.325668083078827553e-01
-1.153530351058335013e-04 5.688939760135524049e-01 2.102448694178048472e-01 -3.513683342237859772e-04 1.375728743197417181e-04 3.725529447061429189e-02
-2.757027800495103625e-02 5.785927371082739690e-01 2.095529916908243639e-01 5.021989148417653091e-04 -6.971010031919368331e-04 -6.193158541664217642e-02
-1.436514172714511428e-01 6.313346803667326812e-01 2.100714684736577631e-01 -2.303213850181140630e-04 -6.442942084681243901e-05 -1.635634397883908298e-01
-2.012036077420059632e-01 6.864823412384406520e-01 2.097015875494723791e-01 3.962100487958785549e-04 -6.413681604216887530e-04 -9.223550075182869457e-02
-2.782883303091782667e-01 6.705490071432709254e-01 2.091964176787404206e-01 2.471809719024312037e-04 1.581376641427549102e-03 -1.739552307777801898e-01
-2.852859128577210357e-01 6.591093460307547724e-01 2.100286316021272581e-01 -5.490503049440524278e-05 4.407624340223389352e-04 -1.363226355152229174e-01
-2.956033801936542860e-01 7.543027126745066591e-01 2.092219742821217476e-01 -3.348872264083043435e-04 -3.540547043353408870e-04 -7.556767337886156378e-03
-3.078449819903175122e-01 6.935977415844893912e-01 2.095732528844364007e-01 4.552155686053315181e-04 1.024029326261257245e-03 -4.578839844194531467e-02
-3.107729287813103536e-01 6.604791700876604388e-01 2.086673755356103221e-01 -2.426829854643737104e-04 4.985067400679415138e-04 1.751892672596956635e-01
-2.318860461741371892e-01 7.585179310689902366e-01 2.098116427775374437e-01 -9.037151144977273020e-04 -1.239318658969020513e-03 -1.336262834434194524e-01
-1.708868767347218598e-01 7.803051540909500261e-01 2.090404554452858776e-01 1.125549312952788434e-04 -3.985396785595836855e-04 -4.476810321400450099e-01
-1.793136177570841816e-01 6.274983223779357910e-01 2.094331513905270392e-01 2.456228558620121918e-03 -5.962498133178892497e-04 -2.618649471003183238e-01
-1.409696337732274651e-01 5.255577848448061973e-01 2.086840631809462887e-01 1.487209319888196631e-03 -2.122717996011987715e-04 -2.788534773739412276e-01
-9.650015190041896784e-02 5.085091836662728459e-01 2.095705835917279769e-01 3.623184011073397079e-04 -4.336685822930418641e-04 -2.005247144844382323e-01
-1.367366827402096141e-01 4.847177295504076500e-01 2.091376201815015046e-01 9.351833495191272036e-04 -5.130718914682397844e-05 -1.229781897690216674e-01
-6.210220537584786038e-02 4.413679640232168744e-01 2.096894351958313862e-01 1.079058989860146034e-03 -7.565639839562522239e-04 -3.184923304248197251e-01
-1.044283864243845533e-01 2.181988659034283240e-01 2.095344986978067703e-01 3.209448007470889954e-03 -1.021504159980949830e-03 -3.034579345840253128e-01
-3.028892883984288589e-02 2.476339606093095891e-01 2.101040006160891371e-01 5.589719757964353112e-04 -1.132272569630534504e-03 -3.362016986791109829e-01
