3.968927193996184266e-02 3.883838510929818466e-01 2.134985246652083002e-01 -4.777469248505301198e-04 -8.462621448679879740e-03 -8.438131446109227163e-01
4.347780327806304718e-02 3.642652142348510313e-01 2.153027852830931566e-01 -1.064928386307715993e-03 -1.216341515463476367e-02 -7.286799847908307370e-01
1.938622623099457015e-02 4.934705649649236414e-01 2.170200374139833466e-01 -2.164726141205008253e-03 -1.595232447690530728e-02 -3.522700171829611926e-01
-6.475283668231224254e-01 4.137686619465821836e-01 2.034979508535562087e-01 -5.175984367595781298e-04 7.511956690843361005e-03 -1.063301928585937306e+00
-4.789892278525832991e-01 3.485796165481432340e-01 2.052235566882164020e-01 7.302897758928115482e-04 5.117069890247883356e-03 -7.069708730458763579e-01
-3.984826392025056507e-01 4.379848544738491056e-01 2.074160514810513556e-01 -2.531062852413974631e-04 2.565711589672060346e-03 -5.369303235400278984e-01
-3.170856939418348341e-01 5.182790697793371315e-01 2.097169602786125298e-01 1.365960004766694357e-04 5.602186421331762983e-04 -4.446845762404995628e-01
-2.851253115211923594e-01 4.698026012393710649e-01 2.109945653020257605e-01 6.396986922575016070e-04 -3.079374854022709496e-03 -1.591686178265675766e-01
-2.200370375066010575e-01 3.462710660193558110e-01 2.133002876625903488e-01 6.601171925222336107e-04 -4.134695873791313474e-03 -3.590013916702868846e-01
-2.045110639101050121e-01 3.792911801592005472e-01 2.157317521079732958e-01 -1.129179777242454111e-03 -1.849306256670478054e-03 -3.695109855318154946e-01
-7.878295086860628849e-02 4.299112447562760120e-01 2.177228403805217538e-01 -4.138230164984119152e-04 -2.212158950628645340e-03 -5.460906332620417691e-01
-5.635947722958295492e-02 4.743215029795316839e-01 2.195611814033029963e-01 -2.655498990006737239e-04 -2.919892341962240095e-03 -5.486452421077216979e-01
-5.359012781647144452e-01 6.471024343612979957e-01 2.015874369858378090e-01 -2.647194630178644712e-05 -4.429633172612305186e-03 -5.763225736577700653e-01
-3.055944824422627826e-01 6.471815351407337324e-01 2.039051557281331140e-01 1.887484091948714575e-04 -3.036845028551495625e-03 -3.092315382128309476e-01
-2.303335754980510575e-01 5.490724099524348922e-01 2.068255601428192203e-01 8.885169080682447321e-04 -1.852714575228318851e-03 -1.003272550929836249e-01
-2.117387743511380815e-01 5.397544603510290306e-01 2.084914930234635921e-01 4.475142913749989831e-04 -1.233780786670271969e-03 -1.423490909317941533e-01
-1.307117895081344738e-01 6.069268321606410277e-01 2.103950469489773156e-01 2.394607582727492114e-04 1.521474867228158516e-04 -5.358020355812713742e-01
-1.081654113224902319e-01 6.134028934342414807e-01 2.115108714020231817e-01 -8.936675522589734768e-04 2.924347788413092075e-04 -3.933961935841679969e-01
-1.682921847520179592e-01 5.210852041142046698e-01 2.145687371077344974e-01 5.683080848947883232e-05 2.279379192353773315e-03 -1.074206159710144326e-01
-4.041221906895510474e-02 5.589169178932485993e-01 2.170878711532545080e-01 3.585605851730302670e-04 4.671774533284610981e-03 -1.738007331884225681e-01
4.654790223298466145e-02 5.131396726099591854e-01 2.189102820086371026e-01 9.460510951425068820e-05 4.965577266830001335e-03 -1.110339211949048638e-01
-1.120867910251600597e-01 3.187560581013128003e-01 2.004109773710784359e-01 9.685963375752530235e-05 -8.239497910774986819e-03 -2.326722001516370042e-01
-7.253889799771187641e-02 2.867351590801381356e-01 2.020585602244271972e-01 4.126027692972961992e-04 -6.876623691332038601e-03 -4.458752842611284350e-01
-2.394436026373246429e-02 2.121605747239855289e-01 2.038941778479337330e-01 -1.986746672428136293e-04 -5.895443728487000101e-03 -3.985814677600635902e-01
-3.505336362882072176e-02 1.751955692650943863e-01 2.061094356559460272e-01 8.912248900535067308e-04 -4.898282150113814938e-03 -4.583850538955042131e-01
7.783347415174021733e-02 2.469466953276734100e-01 2.077670556280518666e-01 -6.905202883100277841e-04 -5.029280336508000840e-03 -5.154274431842357229e-01
1.250292880101516180e-01 2.301877997574918455e-01 2.100291352253571553e-01 1.037767884607298423e-03 -4.825919697657556420e-03 -5.831818732418749818e-01
6.767328201555550260e-02 2.178084907998876218e-01 2.116814171745806106e-01 -6.991178408047012214e-04 -6.054805311657220773e-03 -4.536013631962226289e-01
8.770877432612578239e-02 2.054578412233827034e-01 2.134951564341555641e-01 -7.337747604913718875e-04 -5.877469152731885048e-03 -3.765852006767825277e-01
2.794944952165721863e-02 3.586555425578879519e-01 2.153322157300640027e-01 -8.358648121805579067e-04 -6.748246835360997668e-03 -3.027615016626716282e-01
1.635430622754646679e-02 3.275502900196889944e-01 2.172768299486077526e-01 -6.741278959449162171e-05 -6.583836125054641150e-03 -3.245377028968042810e-01
1.107095395812566774e-01 3.569971891583726964e-01 2.191302741108003271e-01 4.969029745215091916e-04 -5.911292613657360452e-03 -1.277010534312443824e-01
7.128935815556051991e-02 3.060029089772304256e-01 2.207388352242945495e-01 -4.563274913978480007e-04 -5.583510412179871693e-03 -2.576658962496974348e-01
-2.587311046645113244e-01 3.845819590530779597e-01 2.021004280262147512e-01 -3.661643019309079958e-03 -1.753934679939310112e-02 -2.816789038472815032e-01
-2.085742631089244070e-01 3.478570072613005326e-01 2.038669764931057560e-01 -1.423542828400544639e-03 -1.487319345511193408e-02 -2.179849932328407069e-01
-1.994380990539474652e-01 2.395407703019815926e-01 2.052076438617075338e-01 -7.320277662980147378e-04 -1.066359941982962349e-02 -2.137706880248078367e-01
-1.199058592064740081e-01 3.907450587229118755e-01 2.062848109616207126e-01 -8.008741429388167377e-04 -5.967544291649045166e-03 -1.609348335179197342e-01
-1.826522789853224082e-01 4.033977018833971306e-01 2.077397130603892417e-01 -6.513604151525149294e-04 1.826224973112186957e-03 -9.225893419647603066e-02
-1.816065408147891636e-01 3.547905334049930026e-01 2.087851599902921795e-01 -4.305699192634197836e-04 9.125622533696791522e-03 -1.345104769550317103e-01
-2.091495555859596012e-01 3.604551864885358059e-01 2.099099137332721132e-01 -2.682015086151518044e-03 1.820880238777343452e-02 7.257548993301853046e-02
-1.029260614359478188e-01 3.729149497471495045e-01 2.056192245294665155e-01 3.590265451518905092e-04 -2.192968152360178294e-03 -4.534512740194999308e-02
-1.612466704966065700e-01 4.409785642855226784e-01 2.069220592661525915e-01 9.393880783198043489e-05 6.772705018207428145e-03 -2.032349723789875495e-01
-2.946255955316678943e-01 2.976134679222042778e-01 2.081053302457772647e-01 -2.837359759688405300e-03 1.838702388278911151e-02 -2.240419926208357115e-01
-3.822232597015231548e-01 4.657370734692330982e-01 2.064585529894150673e-01 4.294019000225576658e-04 7.261987211990718729e-04 -6.412935599272832077e-01
-4.797827523887616130e-01 4.929206177912012210e-01 2.084548831748548325e-01 -7.844758184254241112e-05 1.215174856035977635e-02 -6.167264236543629208e-01
-3.193011763790192248e-01 5.956235682192787539e-01 2.073955603997730823e-01 -5.605854289701176201e-04 -5.552786712579348485e-03 -6.870255653655735761e-01
-3.357404767491283804e-01 5.144039083760585385e-01 2.087654890305800093e-01 -6.961801037664238582e-04 7.815378460871992908e-03 -6.038267300368326262e-01
-1.492385445116891918e-01 6.375192819193893357e-01 2.083634242445661644e-01 -6.445098177721875644e-04 -1.183521019672744388e-02 -8.241144684413406196e-01
-2.661203578088127131e-01 7.192889147979765196e-01 2.101641933174636101e-01 8.074618558490829958e-04 5.301275951924980722e-05 -7.029282800968191802e-01
4.680879908692504865e-02 6.664950348087573806e-01 2.092857041357897852e-01 -2.985917972043146754e-03 -2.038082372355910776e-02 -5.031640397628643901e-01
6.928053902805547670e-02 6.111012266793731662e-01 2.106771800098986569e-01 1.216326957871134620e-03 -7.752177866265224336e-03 -5.715556224188584888e-01
-4.461003957798942432e-02 5.740583416389549720e-01 2.127936106010861472e-01 -2.269250349748499205e-04 -6.289463842724338791e-05 -6.702720172200434812e-01
1.087774723878697225e-01 5.939581259189857798e-01 2.090891718465148208e-01 -3.303443410941139715e-03 -1.997329863257224156e-02 -7.549690256879723060e-01
6.084575128041407738e-02 5.518258942411818913e-01 2.104517084382458436e-01 -2.739536514954571053e-03 -1.293903611682720514e-02 -8.160572523642100062e-01
8.386690060800301716e-02 5.808523438687497320e-01 2.115106665681144582e-01 -1.003565786947985174e-03 -4.802454767792709023e-03 -7.994010380992094822e-01
1.425959229156027464e-01 3.946041055840241452e-01 2.125881571381410540e-01 -1.515188236046126054e-04 2.024412972781267604e-03 2.948822750954119970e-02
5.666185776506511840e-02 5.406882597092853571e-01 2.135245767156373486e-01 -8.068807500740344044e-04 6.818144083448583054e-03 -2.955741747609827996e-01
1.532655560256209193e-01 4.682801778878458721e-01 2.144882739210137168e-01 -3.249245772416642798e-04 1.021619180137499187e-02 -7.529743676824438570e-01
1.604278687102475009e-01 5.614711866227312109e-01 2.155717506624142410e-01 -1.220300366380933088e-03 1.123742677079211591e-02 -7.400083068552528731e-01
1.838071290368094579e-01 6.070054263629414137e-01 2.166078735375965847e-01 -1.006263737714237867e-03 1.111582798252292760e-02 -9.282016025057556741e-01
2.792724178120983280e-01 4.886054955686655044e-01 2.177235088837463639e-01 -1.348479471183026057e-03 9.210416183255482753e-03 -8.256653891816544411e-01
2.516338584778342047e-01 4.091076218764432837e-01 2.189010250497258059e-01 4.908512636248177699e-04 8.119859669496697768e-03 -6.976182597037432487e-01
2.522014400380928056e-01 4.683624113146536150e-01 2.199793453708238644e-01 -6.913342143589444860e-04 5.286880589524301649e-03 -8.195928574589242954e-01
-3.094813771802108482e-01 2.125723455216408375e-01 2.007297491112471910e-01 -8.789069846674688090e-04 1.401738307452376521e-02 -4.290986250632145005e-01
-1.089188206455921487e-01 2.584384379642774565e-01 2.016857815870583548e-01 6.332512903596914083e-04 1.262187176365626474e-02 -5.077186537334569261e-01
-7.517886755552170841e-02 2.575970023791913088e-01 2.034503473497946691e-01 -7.073446148562761862e-04 8.607237010869295268e-03 -5.177797143252865775e-01
1.673864300506933134e-02 2.726382428327889795e-01 2.049342184399301492e-01 -9.542766883015622262e-04 5.974649508956450181e-03 -3.607143681260950863e-01
1.254832033810364122e-01 3.948020692604359283e-01 2.061978735100239435e-01 -2.781270111974594927e-04 4.262954365734657192e-03 -5.628557999361731845e-01
2.298327608860925853e-01 3.890913437213349146e-01 2.074345358991455668e-01 5.066955781816332533e-04 2.364128969354422315e-03 -3.662743962884046911e-01
3.174117291235655780e-01 3.807457467884552416e-01 2.091650824408682885e-01 -1.641234971397365094e-04 -1.252537935033096487e-03 -4.884586059956288473e-01
3.837674274493008686e-01 3.252249554750205607e-01 2.097844753533207318e-01 2.129017373448282256e-03 -2.798867634004931042e-03 -3.697524588789188327e-01
3.495753227731039359e-01 2.965888588368992829e-01 2.121274720527713264e-01 -2.655751784904902281e-04 -7.745898794462065771e-03 -2.671293630384176110e-01
3.271774260044400529e-01 1.760295783090753130e-01 2.137217219040302707e-01 -8.633786824768966512e-04 -1.024691338907663014e-02 -1.634527995112908527e-01
3.764393094734874712e-01 2.236397907510070948e-01 2.154264389653202105e-01 -1.777371686785320917e-03 -1.311276427515935782e-02 -3.211246051844812710e-01
4.243530695453711088e-01 1.724492572131629542e-01 2.168049832468079141e-01 -1.306535034337486575e-03 -1.445389447333258678e-02 -1.673531858351565704e-01
4.212478132023753097e-01 2.169204431928368759e-01 2.186775117223999088e-01 -2.647657156728654669e-03 -1.670245842640822112e-02 -2.388361512053377711e-01
-1.410889308075846116e-01 3.036826323189961152e-01 2.010695864087423401e-01 -2.433373678188413373e-03 7.474185779967636861e-03 -2.152942913222783139e-01
-1.867096340983160907e-01 2.742877814190960439e-01 2.011349708844220596e-01 7.582110305213696742e-04 9.860672561295623709e-03 -3.794751526482681436e-01
-6.299730785226480279e-02 1.627620279627530475e-01 2.030714854554487858e-01 6.792782227311249497e-04 7.946553492565788801e-03 -4.039088407366136502e-01
5.596988733215774170e-02 1.255109831495694883e-01 2.044002650101919283e-01 1.026972169874258451e-03 7.576968581724072456e-03 -3.010124903435425492e-01
2.248039039081782264e-01 7.823168545197507762e-02 2.061765725334683830e-01 1.347441281221627152e-03 5.665529181207355422e-03 -3.544515807794987317e-01
2.903701996124828377e-01 9.209848033022270675e-02 2.093746705691296173e-01 -1.027114932525378076e-03 2.016677869447095297e-04 -3.262350481855608719e-01
3.272969649302275297e-01 2.284303253582674609e-01 2.112736688769751292e-01 -1.523125804841637737e-03 -2.496086198976575892e-03 -5.265288690562782703e-01
4.331103846643801769e-01 1.630091296742342821e-01 2.133406253316900147e-01 -2.015587296919971790e-03 -4.995386046397538686e-03 -3.855121364422634533e-01
3.194319027003219569e-01 9.288042655453744578e-02 2.149400963374585305e-01 -1.598935260445762346e-04 -4.813916787667547187e-03 -4.381173833170134979e-01
3.206877646863641740e-01 1.018708885046018114e-01 2.169845977408434434e-01 -1.451546707984725923e-03 -6.147608199053566751e-03 -4.247754134203811649e-01
3.788006044412401407e-01 6.487185168605832941e-02 2.175378660581435142e-01 2.398758799006933933e-03 -2.220491402350643906e-03 -4.332472766821116594e-01
4.730973498533182497e-01 2.557438288930510145e-02 2.202396711068679291e-01 -1.499321994184337576e-03 -7.747926433798007530e-03 -3.683236608897026421e-01
-7.476055287990818199e-02 -1.303241618102603944e-03 2.015806292627745355e-01 -2.659390976490042229e-03 -1.575374262253980556e-02 -3.382468764216158830e-01
4.237356092741445535e-02 -2.502144601973350230e-02 2.036464628132166887e-01 -1.104565805416464919e-03 -1.390268957784689119e-02 -6.818476850471149042e-01
4.975326906866482657e-02 5.028908802788110283e-02 2.049627821869838828e-01 -1.019081618512631977e-03 -1.091357624467256988e-02 -5.187205335195811395e-01
1.982869013837928185e-01 2.691930242973465393e-01 2.069258260269806193e-01 -1.136618800562657228e-03 -9.939925265316326697e-03 -8.206383410474212825e-01
1.784481856318229920e-01 1.968678438220911597e-01 2.093344057812886461e-01 3.699019225849359998e-05 -8.582014252747858021e-03 -8.183297492271113249e-01
2.725451418491511291e-01 8.088821053551328855e-02 2.112992193572348354e-01 4.293645226437500058e-04 -6.790894925676274792e-03 -8.172259273444489880e-01
2.781849298009204663e-01 -5.161547202989468647e-02 2.112970123030175063e-01 1.771226461290713837e-03 4.547925008145409231e-03 -3.773100009267341681e-01
4.103583992230483979e-01 1.407106615852558862e-01 2.134631967985419210e-01 8.651289971644939361e-04 7.182658459248676165e-03 -6.309140398124482019e-01
7.046566977523661679e-01 6.438082616250764834e-02 2.154600686473068794e-01 -8.250786123650463971e-05 1.048249898367462421e-02 -8.797091758046432508e-01
3.827104722600710995e-01 8.754364540676863593e-02 2.179436654650704352e-01 -1.844686000446930148e-03 9.922986482579986348e-03 -5.856700324464707563e-01
2.237272289644488474e-02 2.440078349947295833e-02 2.029309898545099133e-01 -2.059596519993636167e-03 -1.550018052687199450e-02 -7.454289347577396363e-01
5.764712610635770729e-02 2.596506870236328091e-01 2.050645677179881443e-01 -8.354576186765889706e-04 -1.182945905880234544e-02 -9.715579460500208819e-01
-6.607292693876512524e-03 1.535640150725515185e-01 2.070343724550053333e-01 1.562854436922831217e-04 -7.315856974820895801e-03 -6.084007799893458301e-01
6.659256613717662310e-02 2.897277911412205614e-02 2.085481131601518712e-01 1.223354151238631275e-04 -1.670073885099667603e-03 -3.620020273605630834e-01
1.041675654574408666e-01 1.319450454983361540e-02 2.106466220045754012e-01 4.029847364012110089e-05 1.287752724274882988e-03 -6.629449320482139196e-01
1.339843558242096236e-02 1.956335306086627868e-01 2.124901476596749439e-01 -1.269001631267955134e-04 4.906183560115446804e-03 -2.931083340011256255e-01
1.776132098745205126e-02 2.055875174623333357e-01 2.143987353521647488e-01 -4.730321843199417086e-04 8.090504163972511015e-03 -1.340381078981143503e-01
8.044891971303580469e-02 2.340900229225867657e-01 2.160944374857663997e-01 -1.151411340397500305e-03 1.196557390080919304e-02 4.919073666724532723e-02
6.093944606149953591e-02 2.835316555833289343e-01 2.183629749595427660e-01 -1.865164406560984416e-03 1.373707093957043067e-02 -6.912292733527883835e-03
-1.388247233108062806e-01 3.488610421597099220e-01 1.994336918384460589e-01 -1.018964454258966404e-03 -1.083362725700264852e-02 3.060357104022301544e-01
-3.704295549177857860e-02 3.395952751989910756e-01 2.013243816550567833e-01 -9.775513408768856435e-04 -6.980082335866768725e-03 1.380635430350793946e-01
-1.276336358469965238e-01 2.498941799035503120e-01 2.031243019444380349e-01 -4.498878626332870651e-04 -4.595813928196802213e-03 -7.831762743331689702e-02
-1.152402990253548615e-01 3.129189146202845384e-01 2.051160064230241886e-01 -5.028471324181234010e-05 -2.999710457335789948e-03 -4.390344246948647139e-02
-1.985285044375818542e-01 3.365664355420708853e-01 2.070561768341198094e-01 1.201838231039395882e-05 -1.362181012489284198e-03 -1.138734689166878977e-01
-1.084156425134202018e-01 3.552851935716659915e-01 2.087686087963016579e-01 -2.292515103982126310e-04 6.029192921103247241e-06 -2.614076752045895735e-01
-7.617448990638314710e-02 4.979370137509177563e-01 2.109619558195018896e-01 1.612606024681807423e-04 9.021100644568774110e-05 -1.505282458129604539e-01
1.402650260915329350e-03 4.924504006850066729e-01 2.132876961094388180e-01 2.893641123202584777e-05 2.438497798114964187e-05 -4.071661946623972295e-01
-6.712268473914674571e-02 4.939821017165617056e-01 2.153035404617952842e-01 -1.556842385746266702e-04 2.980260942776218514e-04 1.287555655054613279e-01
-7.267084796375762601e-02 5.717887522932771915e-01 2.173058141776338936e-01 -2.661569069876916884e-04 1.251864488455448282e-03 3.708403162841116818e-01
-2.483551682516242642e-01 5.332079974189259941e-01 1.995174298922011702e-01 3.936499284324786142e-04 -4.527862285900173013e-03 3.313683460064744124e-01
-3.096316850857676051e-01 3.409566259479817618e-01 2.016534144557615704e-01 -1.236051569727605534e-03 4.784916666357436196e-04 9.607058961348852177e-02
-2.158929798057585281e-01 2.660324026426692523e-01 2.038866993698804642e-01 -5.042229548868014909e-04 -2.872447601973828835e-04 2.082904596662194657e-02
-2.337783697629932655e-01 2.502497508078099786e-01 2.056099366600971923e-01 -1.690719520149484769e-04 1.646382755801493059e-03 -2.023817323402840596e-01
-1.464099131354680283e-01 1.695890990051273639e-01 2.076027048624568550e-01 -4.130464773093674613e-04 1.940107932239533992e-03 -2.451725592098251139e-01
-7.202708218252033834e-02 1.341917601320084807e-01 2.099422511004902514e-01 3.719991951192723294e-04 -1.060821831582868741e-03 -5.633728879843908910e-01
2.202120794448292340e-02 2.280133408465795930e-01 2.113355056256278619e-01 -1.902595410963213974e-05 4.227306593371394673e-03 -5.598322134512957460e-01
-6.672681499148708228e-04 5.842268471065693164e-02 2.137724352467854083e-01 -1.312545591167061678e-04 1.553699087876291062e-03 -4.148100119481327730e-01
1.206046044125867467e-01 1.581247772948843888e-01 2.165051929721059643e-01 -2.425440122580656299e-04 -3.184819959067010896e-03 -6.989189074147433844e-01
5.592774124176774775e-02 2.136482846966859528e-01 2.185608622056883776e-01 -4.189086374206630811e-05 -2.403446136862832754e-03 -5.279194379046096008e-01
-5.010154160339567175e-01 1.967224249914085732e-01 2.003306493042037451e-01 3.020028376383647895e-03 1.460542773308885897e-03 -5.035856206123418000e-01
-3.167345582649217506e-01 1.865169056889037225e-01 2.031076748437231627e-01 5.678915964574548364e-03 -1.488848134205756195e-05 6.918652252770797484e-02
-3.314618446480729896e-01 3.518087242121021307e-01 2.042167169823570494e-01 2.408016635834389716e-04 6.988450445326105853e-04 -1.299197961985009697e-01
-2.603622330587981315e-01 3.750011839403977199e-01 2.061694879891554089e-01 -9.883611848323591541e-04 3.214369969802143988e-04 5.435417821564323543e-02
-1.824507869078880462e-01 3.171646930911662943e-01 2.078591858036167306e-01 -2.806969318969042022e-03 4.325497007667139255e-04 -8.819848747453586102e-02
3.954088291305284802e-02 3.010210144889829964e-01 2.095979686558794297e-01 -5.565389815244135667e-03 -7.726334079804552735e-05 -2.717916022975358503e-01
7.842981545415705913e-02 2.930640481415567877e-01 2.127106983213911118e-01 -1.253366070198567344e-03 -1.020927169747387619e-03 -4.099043492517242537e-01
7.218230110940061783e-02 2.229204105898532073e-01 2.144784044803363932e-01 -2.780207624342540158e-03 -6.557571592859570133e-04 -1.308066849833220135e-01
1.118964592070505609e-01 2.959659062342097080e-01 2.177652194631333193e-01 2.675174452008001556e-03 -1.597807690844861702e-03 -2.940422124889364164e-01
2.600873299687706530e-01 2.612091246797816901e-01 2.186921102093732361e-01 -3.372671912932845902e-03 -7.606841344931543217e-04 -8.499800706830612507e-01
-3.151539665289381786e-01 3.021706467773548344e-01 2.016507244086421791e-01 1.857392325496849770e-03 4.746025638549068726e-03 -5.935087217849337460e-01
-2.248977097052939078e-01 2.029965127413725645e-01 2.037190542663419590e-01 2.630292211745902282e-03 4.435439560027279113e-03 -2.126937123947965011e-02
-2.123745566909660543e-01 1.386002838231620293e-01 2.061804872595964788e-01 2.310435996492180011e-03 2.409643728202950572e-03 -2.701310564583786489e-01
-1.657778222755214026e-01 7.847454092755073995e-02 2.081358379430728878e-01 2.069758980781160815e-04 1.822976369257554245e-03 -9.386471508067316394e-02
-3.591966184176258181e-02 2.311726507276244402e-01 2.105228283457883931e-01 3.248282467861530781e-04 4.007352811346283312e-05 -2.543951425383175202e-01
1.380861054926950729e-02 2.180476877564999916e-01 2.125060744186048622e-01 -5.730195960879424849e-04 1.077805454541519046e-03 -2.729540606839087613e-01
-2.244052200085600718e-02 2.982266499540910387e-01 2.148639459216782899e-01 -2.236988112770492681e-04 -5.667886091887366007e-04 -1.655816804193412095e-01
6.967094969750663169e-02 3.040190627447266203e-01 2.168430184247316372e-01 -7.882525614276345537e-04 9.532442580478260640e-04 -9.892872099119141838e-02
3.425465136660916232e-01 2.993377198556241292e-01 2.189293106837111313e-01 -1.372571027220561039e-03 -2.101842252299281923e-04 -4.210852329165971075e-01
-1.861172182119174845e-01 3.846636440589056294e-01 2.008480560199397136e-01 7.048655828913610952e-04 1.873817566689728190e-03 -4.715036384239082445e-01
-1.251658435242898326e-01 5.025490862527747238e-01 2.034403163612215626e-01 -1.464184631305583649e-03 8.102979470146053770e-04 -9.936237985841978038e-01
-1.820039239965170752e-01 5.873245210678315065e-01 2.049491702642460833e-01 -8.571247007139963904e-04 -1.708438424238865666e-04 -1.003386329535930654e+00
-1.078756504199797905e-01 5.469519837104249715e-01 2.073087317414461506e-01 2.460184033044015141e-05 -1.472568645581958388e-03 -9.392800472353813879e-01
-8.185026880678887562e-02 3.902392343298974331e-01 2.098051889427510197e-01 1.340117429698443104e-03 -1.335028460631136789e-03 -3.028979681549329173e-01
-6.081797505309680107e-02 4.054735321117712288e-01 2.118920793219021825e-01 4.993622956174630654e-04 1.063233048754727052e-04 -6.074178630811157831e-01
-2.546645312009383766e-02 5.037642875650525376e-01 2.140262268360006437e-01 8.787864367173850184e-04 -6.100674009620179810e-04 -6.772062009131334381e-01
-3.513236983264684393e-03 3.481439412442629000e-01 2.159941135515649480e-01 1.355705955860940330e-03 -8.414759213024751222e-04 -4.689322840922208746e-01
7.643559262922722253e-02 3.623381757878274545e-01 2.183563490434984322e-01 -1.302903902601535943e-04 1.709555313043784226e-03 -1.611134608060673101e-01
-4.790905845563339094e-01 2.460998295355296406e-01 2.000175200802410402e-01 -2.241868259133348727e-04 2.052206194079179806e-03 -9.948816004851671058e-02
-2.896124734599588302e-01 2.132357245893655440e-01 2.022784077284438542e-01 6.460551067081575895e-04 2.681177485883593208e-03 -1.809631879061441018e-01
-1.506238775295326848e-01 1.812565412535416809e-01 2.042154140258055084e-01 -2.393559085963346594e-04 2.507463242293816227e-03 -2.629745646512779977e-01
-1.766663245642632607e-01 1.744170434718806950e-01 2.061261282172273113e-01 -3.191737595795913953e-03 3.027201124338541396e-03 3.177798023323402665e-02
-1.952572798007655430e-01 2.404679011746461703e-01 2.083903231299981118e-01 -5.230843723162965486e-04 3.097203017143672094e-03 -2.095795669896766966e-01
-1.304859304094466710e-01 2.605469174982874558e-01 2.101745721873518602e-01 4.590246350624052119e-04 4.377170822980823786e-03 9.782973231343937426e-03
-1.140623130041011901e-01 4.063499022036004549e-01 2.123535759760455388e-01 -7.986223669285990754e-04 3.750794944563858122e-03 -1.166808137817064439e-01
-1.659538071545864635e-01 3.829846906598069478e-01 2.141320684668326924e-01 -6.871139749914735627e-04 4.149221219596826646e-03 -2.180966228337135882e-01
-2.791313071661018219e-02 3.529920792047467892e-01 2.162742242146215577e-01 7.678088237617553468e-04 4.956437737605774371e-03 -1.316967171263248026e-01
-7.053633014140248125e-02 1.958859701304678513e-01 2.185220094223216947e-01 5.393008236860031288e-04 5.024806931858530161e-03 7.005249114930169052e-02
-8.661250556442181558e-01 6.535609528401402635e-01 1.998887612279041104e-01 5.953555691568482734e-04 -7.894677163045779036e-04 -7.046893794271493761e-01
-7.595340453247807488e-01 9.438009249860198624e-01 2.022177062301107608e-01 -6.321687916446257303e-04 -2.762418669909966467e-03 -7.258635893696848695e-01
-7.964251004236161391e-01 1.033862196014871726e+00 2.044561029709150435e-01 -6.464237995780665455e-04 -2.517547915039385596e-03 -1.082403550463708397e+00
-6.714727185871756099e-01 1.069865026167108324e+00 2.063189751547979123e-01 3.029558692755337658e-05 -2.677072927722332508e-03 -1.697935341107524421e+00
-7.473793623590424540e-01 9.415348276463990640e-01 2.084204485053828826e-01 7.588158153197215451e-05 -2.453279584061378738e-03 -1.554951412767307417e+00
-3.795820049635152960e-01 9.661269219366618310e-01 2.103664296585194826e-01 -2.006774883380313182e-05 -1.714197603997777777e-03 -1.047353843305215637e+00
-2.519797157205837523e-01 8.727609937276433749e-01 2.124722943559803623e-01 1.266105558058722830e-04 -1.725621351990582397e-03 -5.880490814350161077e-01
-1.506575725276800559e-01 8.002582945819456395e-01 2.143188203389063684e-01 -1.688183002904024240e-06 -1.402966127424602836e-03 -6.156039798999466406e-01
-4.698144658366855408e-02 7.583986579369523806e-01 2.162145111029490363e-01 -2.638329321404001091e-04 -9.550796899836359356e-04 -3.635015728747487684e-01
4.700065315424600820e-02 7.113553960731104908e-01 2.182923417161879431e-01 1.010052128823142473e-04 -1.264424141389338058e-03 -5.083092386719538780e-01
-6.978161603272803326e-01 5.689978460927208603e-01 1.999037839340110367e-01 -8.307804584886715462e-04 9.069422503402958802e-03 -4.894331692341751805e-01
-5.447709331529233534e-01 6.424327719721510954e-01 2.014969414012330873e-01 -8.419837947206683208e-04 8.966838181278188186e-03 -3.930590896327574857e-01
-7.012958586438143849e-01 5.882177308060047016e-01 2.032387492595443268e-01 -6.683487892873156595e-04 8.135568660347383685e-03 -6.689190862427840667e-01
-5.576523446116813387e-01 5.817938160090360133e-01 2.048335549885388907e-01 -5.383197545707151498e-04 7.373602048603039930e-03 -4.666871293622859018e-01
-4.985521959960922400e-01 5.591335499963342448e-01 2.064588424273364753e-01 -4.023765255434455382e-04 5.754539732960677750e-03 -6.101985883159998236e-01
-5.667249090240410458e-01 5.171800764612631829e-01 2.079173080141953345e-01 -2.173473408926633046e-04 4.341814303445732347e-03 -7.438951899143427804e-01
-5.445984632381706270e-01 5.235881410828093774e-01 2.092804019800478255e-01 -1.007954027654449781e-04 2.219777599324789918e-03 -7.189009546423672514e-01
-4.168851119591392984e-01 5.467065119403736739e-01 2.106343777930733130e-01 4.690340521640691209e-05 -1.960945571688866131e-04 -7.675759890565125865e-01
-4.106836414553672876e-01 4.275854233880694855e-01 2.117894906053537363e-01 -2.181590180729137265e-05 -3.113832658150605167e-03 -7.071018708751066750e-01
-5.179945370204098731e-01 3.848453093253501045e-01 2.131037994947136416e-01 -2.888900297256598478e-04 -6.271282140343790827e-03 -6.467753864792114005e-01
-7.589723276206168379e-01 1.067344725480889184e-01 2.076696628042453696e-01 -4.862774869680040052e-03 2.141599678028387535e-02 -5.170535125409335686e-01
-5.467709764924244542e-01 6.473014201673760182e-02 2.090019328190021453e-01 -1.556124787013728802e-03 1.401057252266008947e-02 -2.085932527773329825e-01
-5.903141991381236631e-01 2.505554534908510100e-01 2.097218512021735148e-01 -9.481944154488226644e-04 8.951702810784792352e-03 -4.343592180485807419e-01
-4.402142328249710745e-01 2.916969201592372607e-01 2.106864176980916548e-01 -4.019517529932339016e-04 2.335898815099257501e-03 -3.879823167659070537e-01
-4.026390863505198148e-01 3.698482901126985412e-01 2.117726342208124390e-01 -3.724746464700983990e-04 -6.087498506399001072e-03 -5.005900223094745805e-01
-4.605287662217488753e-01 1.910054774452418225e-01 2.126029911810463635e-01 -1.869692331717530452e-03 -1.357792803225207554e-02 7.864373534217920791e-02
-4.194662492862765157e-01 1.548067315927305343e-01 2.081822592971930841e-01 -2.025726605386580972e-03 9.473168003976727494e-03 -1.454499477321199441e-01
-3.082000595674273535e-01 1.016382861157882900e-01 2.089570871657846496e-01 -1.968541128312895007e-04 8.640210910242553805e-04 -1.053500399165031853e-01
-2.497271440035711554e-01 2.510602889411550076e-01 2.097767675463971249e-01 -1.598240164050960925e-04 -5.217784273085965784e-03 -2.250690300026526591e-01
-2.762966431257684041e-01 1.606839348751983032e-01 2.110489056556298926e-01 -7.455634122531286379e-04 -9.955996819210449419e-03 -1.821342663807684614e-01
-2.775268323424270878e-01 1.778199507618680730e-01 2.117891466739141304e-01 -1.660847791151092139e-03 -1.422162708115086091e-02 -4.092132558015659227e-01
-3.373631470083721107e-01 1.678055714047897995e-01 2.127456882067335076e-01 -2.514950096987245230e-03 -1.723281407929706105e-02 -2.985142583860500576e-01
-2.259673600033032803e-01 1.487243213827945110e-01 2.131454963100546940e-01 -3.313740124394459492e-03 -1.953755478405502094e-02 -8.596347227055037288e-02
-1.281339801080831065e-01 1.353454354026326356e-01 2.147068498951614779e-01 -3.412413463699106014e-03 -1.944619884189272008e-02 -1.414136035830980964e-01
-1.561460482454764820e-01 1.697912095024457779e-01 2.159607813878016702e-01 -3.524834793430854565e-03 -1.962255847995825545e-02 1.301663702821806157e-01
-1.802425022588133308e-01 1.875221815680362669e-01 2.169534151520876586e-01 -3.405188562240992010e-03 -1.961345613369946603e-02 -3.838263221158706717e-02
-2.357632621210835611e-01 1.626733866567398046e-01 2.176670231090603314e-01 -3.666360528752523121e-03 -1.969349669864488284e-02 3.366435463868583944e-01
-1.990997034322532500e-01 1.578732243940532687e-01 2.189552413988262169e-01 -3.832091085534842373e-03 -1.924411642378236892e-02 3.221134302513904424e-01
-5.858612784347239089e-01 2.343890589703233607e-01 1.996923914562885871e-01 -1.225952965327132345e-04 1.706229081729692320e-03 8.045381715495904251e-02
-5.408996593012751486e-01 2.268239289518841351e-01 2.008842322637456879e-01 1.647102343150302016e-04 2.685331813499840410e-03 5.373459437194384458e-01
-5.354523894986930044e-01 2.769826658230746808e-01 2.019762798541018811e-01 1.503769126873619712e-05 2.125889730121001148e-03 3.118671674150875345e-02
-5.205445156402846996e-01 3.057952621582186725e-01 2.032226629294928699e-01 -7.149930906442577281e-05 2.011575185770748432e-03 2.208954665863285469e-02
-5.178811540436127903e-01 2.590647511332963004e-01 2.045743835144048228e-01 1.811512632815943621e-04 2.075775324104646088e-03 -3.119144137823213342e-02
-5.416100184355682190e-01 2.486204514604920812e-01 2.056517199720506728e-01 -6.814658746282413547e-05 1.251558139497616637e-03 2.072464179846379706e-01
-4.242323430701201437e-01 2.962523131101668650e-01 2.069973158711287398e-01 -6.503320100033230331e-05 9.573583995573134008e-04 1.693358804475107900e-03
-3.645442439512485699e-01 3.261454155024586243e-01 2.081292475173789902e-01 5.161518491509139300e-04 3.303280659418645032e-04 1.432076700118556090e-01
-3.426378898486814872e-01 2.680385301889626759e-01 2.096762071424245200e-01 -6.423370291920972933e-05 -8.050689136458210379e-04 2.105564272577678253e-01
-3.303588724082743289e-01 3.670022448791196434e-01 2.112081540285273284e-01 -3.153417044593596224e-04 -1.577293192550919447e-03 -7.745566807964104905e-02
-2.298773238835192523e-01 3.285317310295632898e-01 2.125520500778377286e-01 -1.875059557934056857e-04 -1.457446400702686789e-03 -1.278755139509775152e-01
-2.280036025441704861e-01 2.187249382652991792e-01 2.142281337495947624e-01 7.719445808127581255e-04 -6.493215815707145590e-04 4.263044481614504388e-02
-2.501189644090869302e-01 2.194825691873991680e-01 2.158528407658925619e-01 -4.469463386828803381e-04 -1.155231683126138826e-03 1.533302896010690641e-01
-1.184293211578286154e-01 3.470860420437411609e-01 2.173358880596709675e-01 -2.877926829617669319e-04 -2.558625551059179760e-03 -3.863003152034000243e-01
-9.486723928455427501e-02 3.336852102358174865e-01 2.187393077048899181e-01 9.728654015685239611e-05 -3.973504945678845227e-03 -7.545070089732135443e-01
-7.509547183451423802e-01 3.495835390039739310e-01 1.994153324637891189e-01 1.393297675364195279e-03 4.340281667685006871e-04 -9.813101844485435654e-01
-5.053863729404142191e-01 3.215595238007929457e-01 2.014462993290773163e-01 5.773795824358731609e-05 8.095933479448814019e-04 -4.720764219858401556e-01
-4.041071233787103534e-01 3.577067998143273475e-01 2.032431159548847011e-01 -9.016380591941290797e-05 9.808875541396781025e-04 -1.499224828966636835e-01
-4.187011415614173560e-01 4.283813611763963025e-01 2.048413836530090792e-01 4.634232518850985922e-05 9.741751294100179422e-04 -3.613283334088430720e-01
-3.449402430740692305e-01 3.944901316068750163e-01 2.067605158110117913e-01 -1.017072634830232994e-05 1.626366072696958662e-03 -3.417324760411343254e-01
-3.056538664792243232e-01 3.116728711859373391e-01 2.086984558486277841e-01 -3.673869912520748028e-05 2.547849390610763820e-03 -1.152300096961631770e-01
-3.341509565069205046e-01 4.027653769459388355e-01 2.100846683596735431e-01 -2.097050089430461722e-04 3.185506150657168873e-03 -7.554303289340125183e-01
-2.372190103625465007e-01 3.991075684304375426e-01 2.117753877168838672e-01 -1.220201855089373950e-04 3.573142778509542494e-03 -5.335851455407250032e-01
-2.049155433333185727e-01 2.483091075280371429e-01 2.133631038754760789e-01 -1.526979091101961727e-04 4.151067352813762185e-03 -7.629116814493616672e-02
-1.318893317289224487e-01 2.687965915593275579e-01 2.150580819236774244e-01 -3.452014570542999016e-04 5.133768228191696800e-03 -1.708377603691037527e-01
-2.768435783929185101e-01 2.679340064225352314e-01 2.166334744319768912e-01 -2.681195494790751272e-04 5.412534482662024159e-03 2.481672817133031769e-02
-1.485839867459659014e-01 3.641709620621739196e-01 2.183869151428022293e-01 -2.215954958930561056e-04 5.874295630157439115e-03 8.005458753427846172e-03
-5.368113727385007694e-01 3.957078037908949852e-01 1.993824735431093398e-01 1.133814968889845928e-04 -8.911637028344136530e-04 5.590985087664944453e-02
-4.690014332844214540e-01 4.234449362213189016e-01 2.010660216741129713e-01 7.836587789353203354e-04 -4.088554229433308718e-04 -3.971553627620826310e-01
-4.251048575028278376e-01 4.751755476276944834e-01 2.026719679758419712e-01 -7.564407145835439362e-05 -1.523610966278717200e-04 -5.327164485020580154e-01
-3.628997193915793340e-01 5.265781434500380609e-01 2.043146736486031734e-01 1.681828333257668815e-04 4.439762771944798323e-04 -7.789947064887478012e-01
-3.304362157323506577e-01 4.495362232479040987e-01 2.058160725336831698e-01 2.152017396955302117e-05 1.079794195396654609e-03 -5.235076993177224525e-01
-2.899133677722713909e-01 4.906161469004353681e-01 2.076149551085296197e-01 -5.733498478113615768e-05 3.545963252663953519e-04 -4.230625015142479572e-01
-2.976499221069180412e-01 4.460161004194384549e-01 2.092083334198890920e-01 -2.674994648109942202e-05 3.429003221076517492e-05 -7.279427238881817086e-01
-2.643014960881769349e-01 4.924328686649325770e-01 2.107841523387765093e-01 9.632377350705227952e-05 3.171963624161724883e-04 -1.139433027356724581e+00
-2.306859266558441146e-01 3.737806911899240747e-01 2.123440082234896997e-01 5.255088485805475156e-05 8.386282527973489258e-04 -9.001840601902761918e-01
-2.246160317397480344e-01 4.536804447693367770e-01 2.140546993989657643e-01 -3.425162403542183516e-05 3.637371802299374100e-04 -1.126405205965240741e+00
-1.596241430521142812e-01 3.990467469311274606e-01 2.157703454361410422e-01 -6.948413855366176290e-05 7.220477509923434742e-04 -7.944849519176953034e-01
-3.520544610548907993e-01 3.459712514950658568e-01 2.174851588023722360e-01 -1.263015214762835102e-04 1.298943664666229059e-03 -4.145100211873862239e-01
-1.600835624522773393e-01 2.966593866465794815e-01 2.191102856054824577e-01 -2.732396945232103635e-04 2.821301215383321438e-03 -7.180233441033114783e-01
-3.556801033080346786e-01 5.959424390715371000e-01 2.007703041786233489e-01 -4.342751242899936005e-03 -2.814975192652256070e-02 -7.166874600231133430e-01
-2.579613118032432206e-01 5.124586947976791373e-01 2.027768077124692536e-01 -5.418447942140236333e-03 -2.487335818821504591e-02 -4.038384882383964092e-01
-1.375305988149680414e-01 4.603237426990723358e-01 2.046232993069004857e-01 -5.000359613786161880e-03 -2.341766057753234820e-02 2.893671393018654170e-02
-4.638311182177326519e-02 4.654706905329871192e-01 2.062227408225775771e-01 -3.916196979086798875e-03 -2.136745664326243285e-02 -2.332458497078502835e-01
-1.940142228795981305e-01 4.314847938515288250e-01 2.078668894735479777e-01 -3.221443123876525406e-03 -1.908129070574044947e-02 -2.524491655842010518e-01
-1.317899150216635118e-01 4.437220134319013187e-01 2.095986742259081659e-01 -2.398047721359071374e-03 -1.613399572620127440e-02 -7.226536487387336116e-02
-1.322938758931327223e-02 5.408735365176502441e-01 2.109285611889088474e-01 -9.957860770647495707e-04 -1.053023168646263948e-02 9.950163752616475368e-04
-1.651307742835912695e-01 5.224107511924234171e-01 2.126315099816104559e-01 -5.954435658284953567e-05 -3.656561904650527679e-03 -4.885035340387570979e-02
-4.351165730030458201e-02 6.052379882947988010e-01 2.141182867339903040e-01 -2.484730778638924486e-04 4.177326135263001623e-03 4.032460347412311630e-01
1.448188068278305485e-01 4.993097528357259840e-01 2.091811456528266389e-01 -3.034811393196648523e-03 -1.892052558534460319e-02 2.742661676499458245e-01
9.580749037267513590e-02 4.983034375338294408e-01 2.104369146357220610e-01 -7.362238185948784481e-04 -1.009959114453687183e-02 3.170443926667178003e-01
1.619175114641543678e-01 5.037262329328051624e-01 2.117297921141832462e-01 1.271762803073907191e-04 -1.947467888686813409e-03 3.373805508398589614e-01
1.155120514955613603e-01 4.370355712386769786e-01 2.129230059066253844e-01 -2.194411778055109171e-04 5.593569046924352049e-03 2.138204933934045870e-03
8.609219384374092177e-02 3.939486777651888261e-01 2.141336853837995657e-01 -1.205061992954014911e-03 1.196310402425129239e-02 -2.018576833657222472e-02
9.413999452938043300e-02 4.850879155884316729e-01 2.152790760315811402e-01 -2.710790590361305662e-03 1.675845588813067860e-02 -1.089827683096564470e-01
-6.636555700434322580e-02 4.466822551539522679e-01 2.165260763137816236e-01 -3.901916663913532288e-03 2.047465578638190190e-02 -5.077707653806644572e-01
5.032605435864469928e-02 3.901207779111641738e-01 2.177826024222588863e-01 -4.659533167856363782e-03 2.274446371716043122e-02 -3.642164861103766027e-01
1.711268951237134572e-01 3.725433807160473676e-01 2.190230502874831453e-01 -5.132307698505734171e-03 2.363644671090237015e-02 -2.721167754952544260e-01
-4.149009511508207071e-01 2.834243783759973212e-01 2.003228605903613069e-01 -5.390120601888604909e-03 2.411634057551211713e-02 -4.293013286828249453e-01
-5.368729795747984035e-01 3.048277707275360293e-01 2.015326187980492345e-01 -5.104324061590189039e-03 2.342226363821656859e-02 -6.646023338461566343e-01
-4.387017347061561434e-01 4.190447850592994294e-01 2.030358945339415522e-01 -3.773618479126474457e-03 2.062516746141218951e-02 -2.830142993852770572e-01
-4.259561623523843710e-01 4.419695154836006945e-01 2.045517665344704916e-01 -2.329660325695522092e-03 1.792949465826996699e-02 -8.348947129565921499e-02
-4.979453840448487822e-01 5.431473971496877384e-01 2.059044427377111908e-01 -1.905790018799318961e-03 1.512106752459491110e-02 -7.787399853324288024e-02
-2.380670389404508924e-01 4.877362286360097388e-01 2.071665955023344607e-01 -1.582844802854540362e-03 1.241771076912106565e-02 -1.721076878540859709e-02
-1.289290571810279007e-01 6.380365896200101972e-01 2.087269382379797755e-01 -6.207622372798660745e-04 7.746240985687295397e-03 -2.502764610600962530e-02
8.934523171285038007e-03 6.694048920896441546e-01 2.105270830442204644e-01 -7.360256817685928486e-05 3.382180062601235215e-03 -2.172941614244044972e-01
7.058981511303158429e-02 6.526041532903642528e-01 2.118614857221304826e-01 -5.617684043828117743e-04 -4.725444958915158192e-04 -1.897215041763788412e-01
1.606459258702159776e-01 6.052318146441941771e-01 2.139514741016751431e-01 2.361763367234506598e-04 -5.895403115610620484e-03 -2.676259994482976246e-01
3.019579594777427878e-01 6.711706903270867608e-01 2.154854802875403319e-01 -8.433955878427641965e-04 -9.469030567602905457e-03 -2.150915496192751519e-01
3.306293876086731087e-01 6.148695447753000920e-01 2.174357139616723278e-01 -1.518121542255915181e-03 -1.225037703478279102e-02 -2.420041398618634765e-01
-4.703402392227250539e-01 6.554440010951205764e-01 1.990319304298100445e-01 7.237035987825243431e-04 -2.982476551394021660e-04 -1.443691110932202315e-01
-3.969412174163827745e-01 5.459308004534763059e-01 2.010666205357481973e-01 3.128612667656424521e-04 2.081933732451695870e-03 -1.704409352884020956e-01
-2.714073322337863803e-01 5.993631937767989193e-01 2.025817431472851649e-01 1.374784951155751155e-03 2.799182615083388188e-03 -4.014455887055848882e-01
-1.277843726564983351e-01 4.360750276378362877e-01 2.052884130544774255e-01 1.110231611210976081e-03 1.929425163247348385e-03 -1.773839242388346726e-01
-3.096108871575055377e-02 2.447438974018968649e-01 2.074202309860793680e-01 3.815612405272590679e-04 1.318179394735994811e-03 -1.323788044688596101e-02
-5.619502454015733867e-02 3.028031121384930358e-01 2.099067961444840424e-01 1.826043165196095694e-04 7.693080441738469949e-04 -3.004899968632760987e-01
1.140644544952427869e-01 3.298818073091681069e-01 2.118581393101693910e-01 3.746863132213869887e-05 6.285029491667858256e-04 -1.292692927074829967e-01
2.222671286179708494e-01 5.178218581480075189e-01 2.148898741972996573e-01 -4.313206877318253294e-04 -2.642039146224064755e-04 -3.817517148104906943e-01
2.035566112598774235e-01 4.087700663269914214e-01 2.169601840555873684e-01 5.472195689928276196e-04 7.580604196326201725e-04 -4.013289465324086369e-01
3.714687897546611883e-01 5.699665746926954046e-01 2.195003903343103469e-01 4.334541932379482672e-04 7.072802174160374485e-04 -4.767883627790921452e-01
-1.146509416516410945e-01 4.127466668206946632e-01 2.015244375095736618e-01 7.929609162457318438e-04 2.983639799976625043e-04 -4.280814934565912444e-01
4.044508357945965360e-02 4.635805325448311698e-01 2.039729123117809961e-01 -8.510058870686224974e-04 1.243145424475959344e-03 -3.545336646581919160e-01
-4.753305420926578345e-02 5.568463237412774047e-01 2.074497771264420809e-01 -3.280614944897674808e-04 -1.380850373473167846e-03 -5.120583730245610310e-01
7.013667566016329458e-02 4.527519265225265488e-01 2.097243334968733608e-01 4.225698309787278575e-04 5.829177124911971881e-04 -5.905081674926317969e-01
1.208818248102571519e-01 4.696771761177330751e-01 2.124036281225868961e-01 -7.218308405346897480e-05 5.665247542032147456e-04 -8.057147451557941098e-01
3.830997478488385455e-01 4.465750469385304511e-01 2.152410928274086088e-01 7.856498887910316840e-04 5.876520805176430398e-04 -7.584069449931438722e-01
4.184490924852118376e-01 4.952921927443427186e-01 2.184153463535682960e-01 -9.018695142580564618e-05 -7.666601239847611058e-04 -7.703900408325369265e-01
-1.428090854142948507e-01 5.059229584474163044e-01 2.009030970066775224e-01 -1.224397420624935497e-04 1.329020632333207698e-03 -5.330397484906038708e-01
-9.785704462997538849e-03 5.722631338668229262e-01 2.038473557655781088e-01 -2.203763509779395476e-05 1.325136027376654308e-03 -5.063862318781352512e-01
5.781089015194679909e-02 5.139909846482431099e-01 2.063698649031661114e-01 2.184693367536049802e-04 1.071684972608509187e-03 -4.760788963403776441e-01
1.599244221248893039e-01 4.709391474525246868e-01 2.096244549684823100e-01 -1.194814890275994787e-04 6.824059664224152617e-04 -4.648219542258933412e-01
1.661281893645799035e-01 4.684683374677333090e-01 2.121808176413639835e-01 2.515761687043683919e-04 6.616233703263113552e-04 -6.272646865539152072e-01
2.425946072472498771e-01 4.450638795524005653e-01 2.152228540161911785e-01 -1.262878538034953172e-04 -4.105912801220446191e-04 -3.817831339549894176e-01
3.778546697025746970e-01 4.781151515713103484e-01 2.178047699582008057e-01 3.406192610843027904e-04 -9.042546931304477377e-04 -5.234170548629438757e-01
-1.660662573900002770e-01 5.257771437785759838e-01 2.006298737946475286e-01 -7.623368333127374043e-05 4.291685625626867097e-03 -5.241222061165832224e-01
-1.304386606868690457e-01 7.567857301257041591e-01 2.032508071728908461e-01 -2.678214898624202769e-04 3.565357119653024803e-03 -8.066466178721883873e-01
-1.940097920682088140e-01 6.878106044136316211e-01 2.063263063380756934e-01 4.405215480930303046e-04 2.262797234420385866e-03 -8.271936724620114756e-01
-1.088309994770353811e-01 5.976407028336122584e-01 2.087307845649181703e-01 -1.849410443182645972e-04 1.533542259386846572e-03 -6.717049682387677967e-01
3.564206219145958643e-02 5.173549441830624929e-01 2.113307797541761901e-01 2.016282032141043182e-04 -3.679895681568794976e-04 -5.379578449537376628e-01
1.138296885200739267e-01 6.018710665026731910e-01 2.138767060303361500e-01 1.252897997358363102e-04 -2.932410403725291357e-03 -1.075815189906825786e+00
2.104752330178862596e-01 4.658937606301440937e-01 2.166548653728565532e-01 2.647772207456722867e-04 -5.636709978647004744e-03 -3.027708888211364524e-01
4.892025414321573007e-01 4.027867923726571875e-01 2.186873645067867744e-01 -1.543257934763295604e-04 -8.428175199546448365e-03 -4.039752669437761678e-01
-4.647517049167576575e-02 4.999386039911535295e-01 2.013051309173339298e-01 -5.635818745730166108e-04 2.990265499608871832e-03 -5.952391239300449666e-01
5.624110548060767129e-02 5.672449561606487389e-01 2.039403767624921593e-01 4.668816588198011677e-04 -1.883700091891434654e-03 -4.896631059217153581e-01
1.528967459681593866e-01 6.313171831182423643e-01 2.061479663909203119e-01 -5.841079561152795561e-04 -3.917142633192935777e-03 -5.301443231229595598e-01
1.876825375437218557e-01 5.710149305908923667e-01 2.085940593069058324e-01 -1.111676817066020121e-03 -6.386403859198143754e-03 -4.802585334696599650e-01
2.821122644005579772e-01 6.748975223360474951e-01 2.114090564192158683e-01 -6.520581927658725564e-04 -1.016755088703589875e-02 -8.016372481660640759e-01
2.094457080097081869e-01 6.408061392405351997e-01 2.141857223040327107e-01 -3.384010352020638671e-04 -1.257945646867279776e-02 -5.196198472494983900e-01
2.970293629657370094e-01 4.779875068607519761e-01 2.163284146887544668e-01 -4.725287731279719070e-04 -1.186832281795877422e-02 -5.823389059490298170e-01
5.511015926497349060e-01 5.399399537173210639e-01 2.186219674826699877e-01 -1.583043241147394928e-03 -1.339269748641370127e-02 -3.093808209256685426e-01
-1.490954875288039161e-01 5.086502836397924776e-01 2.009914410813722352e-01 2.810286560335483472e-04 8.802338874426699281e-04 -3.775917368104179661e-01
