-4.774438490852562361e-02 9.711249459520725213e-02 3.650112591086698832e-01 -8.778122671042901332e-05 -2.726446985863097854e-04 8.074715282498874658e-02
-4.778329896899188856e-02 1.392656287099835744e-01 3.649581834297034311e-01 2.269493219361114753e-04 2.061544133366400666e-04 -7.682087237687285075e-02
-5.643525834336619862e-02 1.381026236753169489e-01 3.650648592783645174e-01 6.277054943155733929e-06 -3.087299729566203728e-04 4.002173535047167524e-02
-6.208856367024738476e-02 1.556141244359842413e-01 3.647797997713213558e-01 -4.395457395952645963e-04 1.197691512096920284e-03 6.879348153995605564e-02
-5.669291632782457596e-02 1.725288844645737896e-01 3.650234813945788526e-01 3.093612247728832164e-04 -8.035792593809064138e-04 2.947120907210683260e-02
-3.894795539431289422e-02 1.972530045634269813e-01 3.650789213200123506e-01 -2.737119811613961573e-04 4.062395887590517906e-04 2.698591876429961775e-02
-4.041533255636030331e-02 1.896429510879707736e-01 3.649640251598558205e-01 5.296220358371784859e-05 -1.398761514120209018e-04 5.033732968302004340e-02
-4.912996001984969163e-02 1.663169434128701496e-01 3.650196802501631255e-01 -3.207336995876848410e-05 1.018085244598177088e-04 5.996546061983068152e-03
-4.031280445338011192e-03 1.962817565122053909e-01 3.650490662883703608e-01 -2.338109526967790638e-04 6.246630771231256136e-04 -6.104858674808567170e-02
-4.758438415251797782e-02 1.482766299879666461e-01 3.649433762284370331e-01 2.916464532591526559e-04 1.254996353434384491e-04 9.551465437011852355e-03
-4.466347124757924503e-02 1.577810385002476057e-01 3.649222631488918123e-01 3.217988786201639675e-04 5.912242594648515169e-04 -5.048746338989880400e-02
-5.078944494802475201e-02 1.740372944182266846e-01 3.649812209938766427e-01 5.507179800065953171e-05 2.963747151313763360e-04 9.601722462278707015e-02
-3.563315915042596094e-02 1.918179702570071699e-01 3.650493409501553432e-01 4.264877986204965037e-06 1.595711404897363342e-04 8.376074723721307902e-02
-2.331063126681673370e-02 1.826838572559784935e-01 3.649837019539622363e-01 1.438329126648774711e-04 -2.059506185398140860e-04 6.367898592138036828e-03
-2.987168203696220076e-02 1.337949539583146719e-01 3.649997766386511300e-01 3.407552654526068217e-04 -1.157111725578788785e-04 -8.221836809381918854e-03
-9.556559623524325114e-03 7.714852296002547294e-02 3.650120209419268624e-01 1.157084463984566354e-04 -7.689328059876295864e-05 5.162427342832804494e-02
-8.839782495138654925e-03 8.377580128594654119e-02 3.649265731463519624e-01 1.872429937557710936e-04 -5.051532671973969595e-04 4.659533249751037637e-02
-3.335006926474932271e-02 4.054456861772336856e-02 3.649520997981102743e-01 2.519246847520132792e-04 -8.040651315071665594e-04 2.706510153175693476e-02
-2.559715189105596367e-02 4.566479902281736503e-02 3.649694862559976771e-01 2.632568916153756218e-04 2.460638064939351982e-04 5.008678324921692765e-02
-2.068023781676431045e-03 4.405377264690694267e-02 3.651226945621841025e-01 -3.566452413355205220e-04 3.126666016412923054e-04 9.792143728458145915e-03
-7.727040063745854205e-03 3.658200934785905967e-02 3.649273046739546222e-01 -8.104357873325488499e-05 -4.873924275654593409e-04 -4.209162855200360154e-02
-2.618778544916569931e-02 2.786182492357420007e-02 3.649422263256550392e-01 -6.637676379859026898e-05 -2.062102716989024369e-04 5.723635920138835272e-03
-2.370170849545994579e-02 1.461191731831583927e-02 3.648824712862089870e-01 -5.464086293507248180e-04 5.133140980122956115e-04 1.180878697982285994e-02
-4.713215740285701255e-02 4.353709384713164154e-02 3.649423670559551747e-01 -2.751068127855131606e-04 7.174144763717886812e-04 -9.214377564470800641e-02
-4.554713433386071986e-02 3.863466738158061187e-02 3.649911727489788538e-01 -7.401373052690015969e-05 4.860953972804433996e-06 5.797220116404179762e-04
-4.311972353512435324e-02 -7.132617499569164198e-04 3.650102472177279012e-01 5.899369859681986036e-05 1.743879406584971628e-04 -3.085298723972546703e-02
-3.590518344767072018e-02 1.116470012108197393e-02 3.650053830680343725e-01 7.902322911485816764e-05 -1.116257721179846163e-05 1.038626301106282679e-01
-1.331071882717476881e-02 7.920547320644732991e-03 3.650002851687750294e-01 9.848178020909671856e-05 4.140238686816872008e-04 3.224625048632450558e-02
-1.716963441168575452e-02 -6.352392881884130933e-03 3.650290908570050785e-01 1.467588272799534512e-04 -8.017142785924502110e-06 6.890693063516377392e-02
-3.167048351549482232e-03 -1.780514126232492222e-02 3.649905792520360404e-01 2.252483481833990732e-04 2.068284341600752337e-04 2.908340821465244322e-02
7.429120248627682672e-03 -7.691046035050850237e-03 3.649479946264771457e-01 -2.481648282603176356e-04 6.191031876070309014e-04 3.789608298174092921e-02
1.122413583956229609e-02 3.600586816246940935e-02 3.649029358959338110e-01 -1.572800304476196437e-04 -1.029343990176879347e-03 5.133518503241683850e-02
9.414793262076233404e-03 1.050527369862085982e-02 3.652305118979955467e-01 -2.275751609559813606e-04 7.967199726948494569e-04 1.347832619640519473e-02
1.814130832314825303e-02 3.028826436642600636e-03 3.650185142435383723e-01 1.920142769087047961e-04 3.996434142675735148e-04 -5.604475821273266663e-03
1.433384220657593459e-02 2.235027880844338982e-03 3.650177090507770172e-01 8.684101626886374251e-05 1.633236309469944883e-04 -4.951898794408750304e-02
3.063272237354206645e-02 -1.366222700993553404e-02 3.650218357380617951e-01 2.285239233810420730e-04 5.213802870084622426e-04 -3.642752802010706947e-02
2.411716638251039033e-02 -2.196175606511760817e-03 3.649975485445222101e-01 1.392560102025225998e-05 -2.989382350215135384e-04 -1.322730566969637089e-01
7.484883368375973289e-03 -9.200432859519614912e-03 3.649986828480464851e-01 1.377847473004508577e-05 -3.378232371535414957e-04 1.487645660174136825e-02
9.002172810740614525e-03 -2.212296876063335471e-02 3.650017343888587451e-01 -2.408825520933341186e-04 8.811397080944356470e-05 1.914656047566207220e-02
9.555493088500418772e-03 1.357711925694120043e-03 3.650141312198080801e-01 3.061031087651786193e-04 1.355073471725442854e-05 1.167418779635207432e-01
-7.735483204483172177e-03 -1.649967100834115463e-02 3.649625045877686880e-01 2.271357796294277477e-04 -2.639646035159113951e-04 6.323536941426370628e-02
-5.020463178303978535e-03 6.270183839738195999e-03 3.649892051912594360e-01 -3.900573844320714587e-05 2.883699321895618868e-04 1.063631166281550217e-01
1.370647760402728295e-02 -2.633753703404874413e-02 3.651535035488359116e-01 4.746324266749139386e-04 1.366578580839821410e-04 1.394466466534076687e-01
3.267618569256920680e-02 -3.464250275337301017e-03 3.650007197763789346e-01 3.406227339092636626e-04 1.728129191426703117e-04 1.032105661986103262e-01
3.293474841786880880e-02 9.002642688719857123e-03 3.650085923720696179e-01 2.930208915732093679e-04 -3.594667292298698133e-06 -3.935060207557059681e-02
3.330305183951255688e-02 -1.733590971788289553e-02 3.650517524766586641e-01 -2.610106964261602806e-05 -4.901722376233098996e-04 3.957359932838876160e-02
3.223996345580185802e-02 -1.375578577795878027e-02 3.649293342738724188e-01 -7.456653637886602307e-05 4.466030347663262718e-04 5.748124154816238243e-03
3.526357176169022528e-02 3.515615286861348970e-02 3.649494255003935539e-01 -2.157030099447361472e-04 1.345847220914730795e-04 -5.587764677478000187e-03
2.828614806988846361e-02 2.133147544342970520e-02 3.649967660060023933e-01 -1.991071984917586635e-04 -5.404662876344950781e-04 3.275341322331642990e-02
3.583072423359155712e-02 8.210469947466689233e-02 3.650130051100246575e-01 -2.304957681873941427e-04 2.592424612912809121e-04 -3.056557722605376254e-02
3.735151343960935177e-02 7.688904817389687063e-02 3.650528947251531764e-01 3.290159450940062492e-04 -3.983351578453631233e-04 -9.885578178165502217e-02
6.235321960110312006e-02 8.545688429301373512e-02 3.649836402887799425e-01 6.829051812322785959e-05 5.962819450573805975e-04 -3.147803029338538949e-02
4.907203074068592491e-02 7.079300962084779381e-02 3.649728647705400286e-01 -6.600482747800922277e-05 -3.853180421932280369e-05 4.088419626792227229e-02
5.655150182379513335e-02 6.560303136896310228e-02 3.650387758682265282e-01 -1.206410593281124496e-04 2.877262645833851789e-04 2.428364357255445583e-02
4.190415692850457674e-02 1.006197167797339281e-01 3.649649326547221850e-01 -9.590744367063807198e-05 -8.081170672573683366e-05 6.507702181271070828e-03
5.987883666781246977e-02 1.368414093139423138e-01 3.650459429990038362e-01 -7.696029887284888205e-05 -2.316461731732771887e-04 5.187739437342150234e-02
6.825933406252833457e-02 1.078909740104609660e-01 3.649397235119896110e-01 -9.424152142780100987e-04 6.782211980231199391e-04 -6.937553285036617001e-02
6.916062880001024038e-02 1.086323058821335313e-01 3.649617817747639048e-01 -1.428502475176008735e-04 2.150500901128146942e-04 -8.570432719678855449e-02
5.920616241839624094e-02 1.271997593817510153e-01 3.650017488327451654e-01 -4.940605358409977084e-04 -2.570670174338079614e-04 -1.260158089605526999e-01
2.639763246479730555e-02 1.501728797774011526e-01 3.649941996667824817e-01 -8.383351668931117732e-05 -1.725694791225043060e-04 -9.371581777947536607e-02
1.105434889935781942e-02 1.148504590003507769e-01 3.649895565405269493e-01 4.802233642609065396e-04 -6.788492777509362423e-05 -2.114132965640976303e-01
1.053461493939326227e-02 9.124236087178315413e-02 3.649625814257361767e-01 -4.242085280103733542e-04 -5.588511533134877119e-05 -1.121028194487138363e-01
-3.522835891820128799e-03 9.797404115213527442e-02 3.649500665546143163e-01 -2.995263168261229456e-04 -1.436478013389804203e-05 -1.253338951874884699e-01
1.909937570262155992e-02 1.014325984780855977e-01 3.650482144558346853e-01 9.559791389403943761e-04 -1.103319612029460313e-05 -1.569964639208636659e-01
-9.630913852955970888e-04 1.011877098019080962e-01 3.649921576461970796e-01 2.440104332665676053e-04 -2.741909810764303298e-04 -6.150239794032327095e-02
-1.986770901559569910e-02 1.317948280794196403e-01 3.650033628659787865e-01 -6.129299277413199508e-05 -9.076302711840033763e-05 3.338484212710843366e-03
-2.583759608163390883e-02 1.683482071830322002e-01 3.649723173145517086e-01 -7.802703938077922658e-04 2.925377759615947239e-04 -9.711409050558566722e-03
-5.079598727423643295e-02 1.900090638483204475e-01 3.650439910315141367e-01 -2.844422449388363423e-04 9.625476284068584625e-04 -4.995628945574215329e-02
-6.759120650524935714e-02 1.826088441165638343e-01 3.649037597250729403e-01 6.331594610277011502e-04 -2.617717663518872749e-04 -8.913708365318834259e-02
-5.842569321841734747e-02 1.769379418114386537e-01 3.650424595490649460e-01 -3.599944043515885444e-04 -5.053643531821297365e-05 -1.577531609060012774e-01
-5.649577998521003452e-02 1.487352507502401888e-01 3.649217382384771780e-01 8.111582167091821493e-04 2.511840660822154368e-04 -7.898674698238676573e-02
-1.031059181671190872e-01 1.679985994610574962e-01 3.650397139231158494e-01 -8.004885977634958443e-04 -1.663086732612588034e-03 -1.201789245383717702e-01
-1.097437174216872730e-01 1.728667214369412064e-01 3.650223207042676554e-01 2.814509458375202681e-04 1.729550138007019495e-03 -6.589089313944683501e-02
-7.759133833220678567e-02 1.915617433168393391e-01 3.650111692641845318e-01 2.225934559861344455e-04 1.209406287579077225e-04 -7.575663879308805471e-02
-8.588992903146686064e-02 1.669587249556216957e-01 3.650204881237200105e-01 -3.061462151833165110e-04 3.626584759925340399e-04 3.342780839749507488e-02
-7.854043505831126426e-02 1.645474542990605915e-01 3.650375181919697232e-01 4.374989645060467849e-04 5.797941140099795295e-05 -1.056087924993517543e-02
-6.105519737332488345e-02 1.529906679462156305e-01 3.649297477940407486e-01 3.124253124056629890e-04 -2.621922212591198443e-05 6.866755299989586725e-02
-4.209936368818419095e-02 1.302199154871991060e-01 3.649469036527631660e-01 8.424514957294053624e-04 -1.936473992000879957e-04 1.499913709704930598e-01
-4.220805796628564893e-02 1.278952389611515417e-01 3.650586382110886374e-01 4.252801372810127776e-04 -1.249946086197138879e-04 4.060845944987558076e-02
-2.698856569496661112e-02 1.143364633138730241e-01 3.650188938096882163e-01 -1.841900379990699449e-05 6.093385533181189294e-04 1.649960461925488175e-01
2.034669438491778712e-02 8.201695197626550360e-02 3.650614446280276981e-01 -1.696405078047770237e-04 -5.083910241487943652e-04 1.144285848411166762e-01
4.411099645625465165e-02 1.369034511999827064e-01 3.649960294557668128e-01 -3.211111007445498103e-04 -1.267217653146629291e-04 1.335232711198400084e-02
4.213839809405932335e-02 1.233172049025646616e-01 3.650018330044366710e-01 2.475534981792766056e-04 -3.989895483401884795e-05 1.080646735751573939e-02
6.280040688551132011e-02 1.173033049894037644e-01 3.650107623845600946e-01 5.830703149925254300e-05 5.185711192173945343e-04 1.266520051472380948e-01
6.548655933190089540e-02 1.291122785704630072e-01 3.649873682913056805e-01 -1.014563758526413809e-04 -1.737851046924450654e-04 3.020306186027632914e-02
7.780233133211741925e-02 1.450685656859979911e-01 3.650118192400189088e-01 -1.347588456488802528e-04 -4.957981338228228171e-04 5.393166466316956509e-02
8.049271191194144748e-02 1.384693832806202229e-01 3.649799112934303258e-01 7.281991059843135514e-06 2.160533360883090789e-04 -9.767457507866426913e-02
6.473517734490442932e-02 1.794903006049398397e-01 3.650621286601944959e-01 -3.264465079417649138e-04 -1.062204480903409295e-03 -1.935774710485345662e-01
5.373485750829624236e-02 2.008529691237488091e-01 3.649427335514540127e-01 3.034369674343570435e-04 9.856250181461130404e-04 -1.236202876641139953e-01
2.989609158193594005e-02 1.721227084953249886e-01 3.650338226053004842e-01 2.657462294809720123e-04 -5.478046069814210056e-04 -7.419543461206062895e-02
3.008117681496052381e-02 1.514231357665446476e-01 3.650220069900201869e-01 -2.594042271917652094e-04 -1.360999342194002570e-04 -4.584975729906839992e-02
7.929544644660857858e-03 1.421672269707640879e-01 3.649892897217759669e-01 3.056609154845091889e-04 -1.696126142983033890e-04 -7.376900268994117382e-02
-5.925956381263854274e-03 1.369041994956402275e-01 3.649895505998814738e-01 -1.306315026340971346e-04 8.142796133530666881e-04 -4.786877289466595631e-02
1.323345765837067797e-02 1.364300168522361023e-01 3.650090371120132682e-01 1.089052359499795812e-04 -3.276778875865594943e-04 -1.074482222357169836e-01
-8.436302029402806268e-03 1.285909249562240675e-01 3.649848648452901911e-01 -5.273733358822258214e-04 -1.402761153670847242e-05 -1.084778675910275103e-01
-4.092761645566384519e-03 1.404664002288262270e-01 3.650417052651589445e-01 3.917781376790501423e-04 -1.643292693053304281e-04 -1.871791901634777544e-01
-1.722726587006411653e-02 1.630498225343672836e-01 3.649883175727411944e-01 -4.491327442731126861e-04 -7.440284483630252950e-04 -1.600749267175472779e-01
-1.402173098631321994e-02 1.907488301677643938e-01 3.650056607175684587e-01 -2.377131770913799979e-05 -5.133590721646924234e-04 -1.098373307189614567e-01
-2.151696473605471671e-02 1.581748001702693307e-01 3.649904828653585120e-01 -1.749961059027405324e-04 3.383184500270708882e-04 4.836060853708026158e-02
-5.963659314337172238e-03 1.325788591179969667e-01 3.650580571701006471e-01 3.181964687425356455e-04 5.719872665260660122e-04 -2.804955861853960630e-03
-1.251394327923942631e-02 1.449555525107453502e-01 3.651054741544113580e-01 -3.332224891935613533e-04 7.733545931747352106e-04 -2.667351735557278378e-02
5.613236471052510113e-03 1.246610182466150601e-01 3.649840894911829947e-01 3.329661118265180670e-04 -7.296097514008728245e-06 1.075809844977069218e-01
3.576827125352065404e-03 1.292273723523932605e-01 3.650055459762380217e-01 -2.214168010260824350e-05 4.183668250009956184e-04 4.704098007837836243e-02
1.800966845256775015e-02 1.297998195166176483e-01 3.650698243431956813e-01 8.930523984607340808e-05 4.186060061209892101e-04 -2.570484647159206396e-02
3.291424669777988365e-02 1.360252018523068762e-01 3.648703980559964144e-01 2.396088969923326924e-04 -1.531988684553153065e-03 -1.367857467683734896e-01
1.036089469253666934e-02 1.179409944075895667e-01 3.650158337261800723e-01 2.495401029492016532e-04 7.190213519570841632e-04 -1.890813617849648742e-01
3.138760091965688698e-02 1.038253080326869554e-01 3.650799046752407073e-01 5.321024247762944022e-05 2.301246026164935517e-04 -6.925020250168220648e-02
2.723087891466796640e-02 9.832388720583601360e-02 3.651067519761503899e-01 2.520714932069687887e-04 1.275424558779024182e-03 -1.139113433290079164e-01
3.909738485011735043e-03 1.036768066763524843e-01 3.649862460065746994e-01 -5.950816749738879969e-04 -7.873568738850942944e-04 -5.392714560646721250e-02
-3.592882186566608016e-02 1.095022394126068388e-01 3.649624905206684256e-01 2.570787144531778740e-04 -3.756462587079233985e-04 -9.818523074004170681e-02
-5.313136626233851134e-02 1.211817881181429662e-01 3.650095370990167898e-01 -4.258431901014828633e-04 4.502033166035452868e-04 -6.408039885145984209e-03
1.175972107211130553e-02 1.642116752756900278e-01 3.651226344901648546e-01 1.342969885306732555e-04 4.306236128927122628e-04 6.328609530645841474e-02
9.322334584400019525e-03 1.531891912179008663e-01 3.650159764922863426e-01 -3.608491155015018637e-04 1.133508495077196256e-04 -6.089144096423518282e-02
1.431872030726695326e-02 1.477124306998077174e-01 3.648626750707425481e-01 8.533329652312489607e-06 -1.183842630909522596e-03 -5.307510820712152411e-02
4.362169861004227059e-03 1.326821331035174523e-01 3.649722101762353788e-01 6.040636194227399407e-05 2.874651241988521438e-04 3.456870757397038918e-02
3.596474782912270282e-03 9.673509329855251027e-02 3.649936837762162156e-01 3.610525306419186419e-04 5.079776774530316523e-05 -2.203407187728755393e-02
-2.551457594485559421e-02 8.701224274370597533e-02 3.649550252788277271e-01 1.111851891677727685e-04 -3.816702186735580852e-05 -1.220991246097462707e-01
-2.448667508166762000e-02 9.613135852857949970e-02 3.649267424626692069e-01 -3.479068277443337818e-04 -3.821912229468042341e-04 -7.122813031677044382e-02
-3.094859385432367771e-02 1.079572867116891655e-01 3.649576314289854073e-01 -1.089928420208199607e-04 -4.265700977496381129e-04 -3.072620707238786150e-02
-4.444787618435788040e-02 8.437750115316396127e-02 3.650225989313724551e-01 1.415142046362860529e-04 3.777640253738755237e-04 -2.000656165078121621e-02
-6.922136614737081639e-02 1.122260829958649786e-01 3.650168200322710943e-01 2.151270927564614629e-04 -1.040977319219254686e-04 -8.411891622571041061e-02
-5.314949654790003530e-02 1.147189816666851353e-01 3.649514030090958983e-01 8.180038255150670384e-05 2.357211347833258730e-04 -5.092739030383479359e-03
-9.117074329649138553e-02 1.317460082248330666e-01 3.649805054561713891e-01 -1.118906613094648045e-04 3.289287558276554331e-04 -7.770657516919095287e-02
-6.762285467574342956e-02 1.123403607274809646e-01 3.649333924812602215e-01 -9.954400873154719068e-05 7.254872629515612698e-04 1.347797241105398031e-02
-6.143355701716797512e-02 1.499096057316697816e-01 3.649419695946026221e-01 1.475859033940604768e-04 7.163716041869552841e-04 2.558629302010205497e-02
-2.045531526062234831e-02 1.983291956604517348e-01 3.648228809711188125e-01 -1.104513124747608186e-03 -3.804569444793690536e-04 1.741428513187935623e-01
-5.972816474171734752e-02 1.708562879328117401e-01 3.650808016302983239e-01 3.797078604746341609e-04 -6.859602087871017554e-04 1.205472030748852008e-01
-4.829199910381516692e-02 1.564745540529347556e-01 3.650086587910070790e-01 4.791803530541004165e-05 1.690320476143207203e-04 9.005190289114484159e-02
-4.158667889720106536e-02 1.969991055762872756e-01 3.648725869487240980e-01 3.148079581921047181e-04 1.824319595206925170e-04 -4.824820031937040316e-02
-1.574761045728368877e-02 1.866697385723604941e-01 3.650667188769401439e-01 -1.867778024376144609e-04 -2.714283893323319891e-04 6.443994399393124239e-02
-1.460601879041667495e-02 1.932221146954325175e-01 3.649475821176434986e-01 -2.599192475970532146e-04 1.813601721465790402e-04 -3.963264413156643989e-02
-3.418309683652829417e-02 2.195762837857282157e-01 3.649989001748368822e-01 -1.469835199507976191e-05 -1.377886749218142537e-04 -1.459624840790042268e-02
-4.038704042963550678e-02 2.141597544490015381e-01 3.650619541477027052e-01 2.209100450667273656e-04 -8.853567613401802834e-05 -8.138098310345921738e-02
-3.815129924997699012e-02 1.911744932161051902e-01 3.650092483466412241e-01 -1.417776174633411125e-04 -4.142612860264185569e-04 -4.715785452687453611e-02
-5.503969630682208070e-02 2.371548543627843286e-01 3.649447605280369267e-01 -5.339494354542952690e-04 9.540344966825828462e-05 -3.318414420382368238e-03
-3.482467175035009604e-02 2.641697977295313637e-01 3.651180010450425506e-01 -4.378918562342221815e-04 5.935372699027992538e-05 5.778810711218967944e-02
-5.698807708170793712e-02 2.512996221571349720e-01 3.650403342957729835e-01 1.162924190154967559e-04 3.358782586312373153e-04 -7.375874034939824964e-02
-1.172104571503684578e-01 2.176257969002062531e-01 3.649828816476807791e-01 2.871693682612932465e-04 2.293223330714103884e-04 -3.876690891440497111e-02
-8.849251082530840140e-02 2.278191272046311000e-01 3.649754235109115008e-01 -1.019730373656513523e-04 -6.328662487755335072e-05 5.194317545151348747e-02
-1.136358590375387140e-01 2.152927845239811788e-01 3.650176570099016304e-01 6.900938630494951186e-05 -2.469488394296604741e-04 1.575864442369538376e-01
-1.046068543840091708e-01 1.939434178101673012e-01 3.650604844621646583e-01 2.375512806775533186e-04 -1.088671821852578226e-05 1.835882608935655858e-01
-1.438754867383781888e-01 1.689797379028968594e-01 3.649339610332713590e-01 8.951226221090800839e-05 1.924545844828767002e-04 8.949243728463052161e-02
-1.150671793519007780e-01 2.000105085413893258e-01 3.650418725723993951e-01 -1.376838530722625047e-04 3.600401731712980498e-04 4.030090054041900877e-02
-8.855106780094543217e-02 2.035895695374264902e-01 3.650134806163791712e-01 -9.036274809863310321e-05 1.256981677727512462e-04 1.701945508299930118e-02
-3.586680656751506380e-02 1.831654572067294429e-01 3.649676175679737455e-01 4.413591705194217169e-04 1.205074354086826363e-04 -5.805882848720805844e-02
-5.659491993726516873e-02 1.809758488385731223e-01 3.650575632126770720e-01 -7.680563721015585025e-05 -5.352845196943975217e-05 1.111700175122179585e-01
-3.857659963793799024e-02 1.985766126084439476e-01 3.649956030085456105e-01 -3.398164889420466408e-05 1.416016066134982788e-05 -1.542859186628929291e-01
-4.468109817339644546e-02 2.079826723021042101e-01 3.651062926152452981e-01 1.594793829603645874e-04 -4.270328967451092131e-05 8.374789329706384955e-02
-3.342148517556021298e-02 2.096389661598256349e-01 3.650502791658239987e-01 8.018569621417979162e-05 1.724862679681480931e-04 1.037342342574282261e-01
-1.121510940645984757e-02 1.662846421632445393e-01 3.650237813595413883e-01 -2.754568070317926050e-06 5.684491432339570894e-04 1.543049089650236870e-02
-2.357054856651908878e-02 8.889588742599099924e-02 3.649766128720669522e-01 1.457533034951156070e-04 5.590655664942171648e-05 -1.778152391213347339e-01
-2.021248185299702113e-02 9.597557393525422975e-02 3.650297342272834644e-01 -4.466091729361824973e-05 -2.226915873693050625e-04 -1.307283324386735758e-02
-1.737545637359245651e-02 1.293677896207242328e-01 3.650428487689303392e-01 -2.093017527562389412e-04 -2.981589239624692794e-04 -1.004684031960261306e-02
-3.176319343629409320e-02 1.287025482768283102e-01 3.650577027033287125e-01 -2.192579927864462036e-06 -1.989981245144526031e-04 -9.955038039437588693e-02
-6.079255930482207332e-02 1.030239748261551763e-01 3.650080427517193860e-01 2.453379152424250737e-04 2.795381396726805657e-05 3.304528864881605549e-02
-1.115421617015574657e-01 5.957547687855848512e-02 3.649981027261172684e-01 4.403041157824127960e-05 -4.644997711260984673e-05 -7.987217911700029982e-02
-6.827151159870478714e-02 6.334491699496494488e-02 3.649386476410574343e-01 1.207797154898087612e-04 2.621399955974451556e-05 -1.365373457878062691e-01
-7.009992870525394437e-02 5.913969101223472830e-02 3.649955991408955214e-01 2.402161105812895055e-04 -2.845152565816149525e-05 -1.604404344853864184e-01
-6.676536025544420327e-02 4.193367515605334050e-02 3.649956758861119255e-01 2.431053207527306343e-04 9.799093694756772388e-05 -1.943812530728317904e-03
-3.412158148266147134e-02 5.723306414563369970e-02 3.650219684960419597e-01 -2.192906825372900628e-05 -4.141190122679038664e-05 8.890476005910120938e-02
-3.429330252073611168e-02 3.928402401390683474e-02 3.650427536143626694e-01 -3.728229613007085527e-04 1.113994350223646566e-04 9.065202295142618660e-02
-7.073220696150490407e-03 -4.340633746801981357e-03 3.650556671165633982e-01 -1.845236190912226718e-04 -1.820095077784484713e-05 1.531708658705898951e-01
3.081740558941885311e-02 7.822369161201127991e-03 3.650996381039065541e-01 -2.251379735399579145e-04 1.368787910335760710e-04 7.602524869811201624e-02
1.033948507160576714e-02 4.374338536856763743e-02 3.650518418687012656e-01 -2.542216675378262893e-04 -1.288586328212647421e-04 2.529301410971247083e-02
1.430202416893636141e-03 7.710375493365098643e-02 3.648578729402067178e-01 -1.736954844346337069e-04 -1.390289614907235709e-04 -6.874934020216673380e-02
1.416696047801755190e-02 5.995472436343093903e-02 3.650035109051731341e-01 1.498786587718384212e-04 -1.776119257184879399e-04 -5.482356672934398517e-02
1.176466250420464370e-02 3.807006713617796384e-02 3.650075239470315647e-01 2.643478124794599942e-05 -1.194291938803939218e-05 -6.222211409133440729e-02
-1.083021247836374323e-02 4.561139778824213620e-02 3.650160830519779687e-01 -4.839767066597475256e-05 -2.520487993164760685e-04 -9.103061770055856372e-02
-2.257822938429305051e-02 6.776960297722237070e-02 3.650368476664618833e-01 5.687620630822197323e-05 -1.628198155808560795e-04 -5.333008510444704059e-02
-2.066253976598649011e-02 5.806234736316055745e-02 3.650230698887547698e-01 8.921843090297062518e-05 -3.457021614707813712e-05 -8.407003479814491309e-02
-3.668256397364281357e-02 7.259993679697157587e-02 3.650279292162972311e-01 -2.055305022082290424e-04 -2.070521125628894385e-05 -1.111825688248161415e-01
-4.829410808990332316e-02 2.151675033663489126e-02 3.649814277223553671e-01 1.181277903213700094e-04 -2.733643944972696769e-05 -4.219059237010850880e-03
-3.437746803397788431e-02 2.624464334335006518e-02 3.649591303958318877e-01 -1.041311476424599809e-04 1.215884805109301332e-04 -4.995045359008368213e-02
-3.567106251673720502e-02 -1.693242629569432795e-03 3.650301003424783475e-01 1.667512063633121025e-04 -8.265411857267236325e-05 -5.743022616169311811e-02
-3.185700438850122551e-02 4.773649188854107300e-03 3.650231968151588791e-01 -1.248683083111902287e-04 9.281004741208590903e-05 -8.235432078538813816e-02
-3.649416357704392960e-02 2.762476280831812486e-02 3.650211737659680433e-01 -5.163483950417919322e-05 8.056264224606575627e-05 -9.156147481678095224e-02
-2.993195724878195546e-02 1.030975261526105059e-02 3.649906275938846201e-01 2.285841436453990683e-05 9.525804933500559208e-05 -2.635982914051318224e-02
-3.104560081940218805e-02 3.506772452303332649e-02 3.649734997976820106e-01 -1.632513599883748565e-04 -9.520994451199318322e-05 -1.475545975362869619e-02
-1.091328667499359174e-02 4.248742840736211696e-02 3.649773742832352896e-01 -4.967215950283619268e-05 3.043462573485366556e-05 -3.056101182531817742e-02
-2.978223250054316124e-02 2.145396835616844577e-02 3.650087681553296770e-01 3.809684023885038773e-06 2.349765712162649569e-04 1.266913665610166530e-02
-2.955940117141952345e-02 3.387706500599629855e-02 3.649893224502922529e-01 1.202904528648982867e-05 -1.071749167193595761e-04 -9.665142046889159400e-02
-2.662581147884611824e-02 1.447122399922756014e-02 3.649910545909972326e-01 8.026279698404267023e-05 6.800988775128783803e-05 -1.470822542645575937e-01
-2.523073715078724688e-02 1.257501229733959044e-02 3.650142978103707581e-01 -1.079416243140952962e-04 -1.435137137519411831e-04 -4.875127402286844741e-02
-2.379372460791541900e-03 3.865638195891743512e-02 3.650167408711331163e-01 5.092395212899434703e-05 3.996619085989812711e-05 -5.022462463340128525e-02
2.813234131643545591e-02 2.748387077571763648e-02 3.650204936584174886e-01 -1.288357110205209661e-04 -1.310691240442705301e-04 -7.635901286870216964e-02
3.198606848583407380e-02 2.217558857716096440e-02 3.650271806284116627e-01 -5.516636541121206492e-05 1.205039272353322790e-04 -1.308274607049925709e-01
3.058637158258946040e-02 -1.150405504647738011e-02 3.650933710902197760e-01 3.518142840433778243e-05 3.463661461019433931e-04 -2.191594472207595012e-01
3.483395026126699656e-02 -1.152273618442734883e-02 3.649969560125716495e-01 -2.534064318339375316e-05 9.567912347581103050e-06 -1.465913141808633177e-02
1.939648275600639252e-02 -3.087401383279689271e-03 3.650074614000203832e-01 -1.337896076028427842e-04 -2.702966240074916224e-04 -1.379974781684042140e-01
1.898072435776491929e-02 -2.043592198226641676e-02 3.649175229672398935e-01 -1.489909409283422348e-04 -4.139084738788690828e-04 -1.263968146731738462e-01
2.308502651444130707e-02 -3.715014051375999365e-03 3.650332305172888647e-01 1.051611978322806323e-04 8.250091584677020698e-05 -1.886830589235446165e-01
3.335425144865394181e-02 1.362018718992785184e-02 3.651282446249574654e-01 -1.705484497353312184e-05 5.438882038440783027e-04 -1.130352315211088782e-01
2.586160264433190123e-02 5.883298059393564199e-03 3.649728864388873117e-01 5.559371605059815663e-06 -6.550872466240959804e-05 -1.176594313928727431e-01
1.674457022744538226e-02 1.688186174388855987e-02 3.649398505850330876e-01 -2.866352726203678859e-04 -4.358233008956984445e-04 -1.094667402529147654e-01
-1.356462005079195690e-02 8.289693666106845785e-03 3.650128969178291216e-01 3.525497261379203432e-05 1.059875666199720659e-04 -1.329704085067055508e-01
-3.060045620936359574e-03 2.395291938122419417e-02 3.650192408653123444e-01 5.315687714986200519e-05 2.455112985049220215e-04 -1.131081722421916347e-01
1.021506977970488769e-02 2.264576569552536472e-02 3.650034963418490874e-01 8.439587848041042576e-06 2.867477784965733896e-05 -6.070070474044150788e-02
-5.616515066131923598e-03 3.117416906927222148e-02 3.649886657054808858e-01 -6.990093463830921599e-05 -2.182691125055836730e-04 -1.349226358589628860e-01
3.691730257125895587e-02 2.280137707795463348e-02 3.650219676268291469e-01 3.690563710314802911e-05 2.202434487846585633e-04 -2.994916023200882779e-02
1.468664684880090525e-03 3.003283317814140971e-02 3.650663833016053461e-01 1.955662603308179286e-04 1.278741555446912383e-04 -1.183092780094128355e-01
-1.050556814019504639e-02 4.699931244917573969e-02 3.648929556691435927e-01 -1.115594325132930235e-04 -6.727928193839848893e-04 -2.000286352017995317e-01
-3.889963240926382765e-02 8.668241984246499721e-02 3.649765491808583118e-01 -6.033735265465655024e-05 -1.040500387975380937e-04 -8.959617783362663901e-02
-4.239056976334049098e-02 7.782808239283167673e-02 3.649844869117808699e-01 -1.312616058440477667e-05 3.000663559215804399e-04 -1.094601871708779650e-01
-4.631698847666094326e-02 1.308143805187694242e-01 3.649518692702659051e-01 -2.837233151490433031e-04 -1.517701084368451613e-04 -2.780092232569159050e-01
-2.150665841355516028e-03 1.217346202743717909e-01 3.650420129087175725e-01 4.843059089857765606e-05 7.894670414195169815e-04 -1.506247372289986064e-01
-1.306598338173562551e-02 1.122721847248905197e-01 3.649394481069984653e-01 -1.249904640497565689e-05 -3.771015068091847005e-05 -1.780891198385003149e-01
-1.716505714156225937e-02 1.067813088262709459e-01 3.650246982307664978e-01 2.371378161052397867e-04 4.528953632743929142e-04 -1.992138501787273364e-01
-1.984849931935022196e-02 7.101712398822551675e-02 3.650151003485281320e-01 1.581127531712786744e-04 1.373758419601824466e-04 -1.193652612399497409e-01
-3.216388193735291584e-02 1.255769647305327585e-01 3.649510391421689759e-01 -1.696148204965086052e-04 -7.088459610196302420e-04 -1.152124901672941237e-01
-2.569303357614552766e-02 1.416212317880040372e-01 3.651009727430322149e-01 -4.903786503230931737e-05 4.516635195888467629e-04 -7.113887611098569652e-02
-2.061332920214643469e-02 1.552138194140361971e-01 3.650008000376351869e-01 7.981699640682539875e-05 -1.245534850271990800e-04 -1.847381578532270585e-01
-1.065645450328141230e-02 1.488247100472767370e-01 3.650674043105842648e-01 4.653579644853717326e-04 -8.586270447003037788e-05 -1.494663936421584960e-01
-3.446732538830411807e-02 1.182762255309758315e-01 3.650074354573484836e-01 5.006704642813057996e-05 -1.765848162805335386e-04 -5.794343921103190659e-02
-2.455815642120004819e-02 1.168095555203036567e-01 3.649446186072777820e-01 -2.164399850947609032e-05 -2.868319272689236784e-04 -8.635026105231083382e-02
-3.178150488994339884e-02 1.042467619317455491e-01 3.650176803979707785e-01 9.602894264092748269e-05 2.851177342094541808e-04 -1.658879406786106792e-01
-4.329276571106844412e-02 1.029923995765603811e-01 3.650052343437153457e-01 9.019456123260957778e-05 3.626834611283489759e-04 -1.160229457106422279e-01
-6.576552462406695665e-02 9.877390244037188849e-02 3.650027863084112090e-01 2.247565179930114136e-04 4.845960089152202398e-04 -1.960497036574524732e-01
-2.081086238911374064e-02 9.438748836403551556e-02 3.649758281032516871e-01 1.902596494052201598e-04 7.281519511392953777e-04 -1.570514948242438258e-01
-3.093881763309087179e-02 1.104616051712851710e-01 3.650282789450894905e-01 9.816423115490075305e-05 -2.072604666933441713e-05 8.927457416533383927e-03
-3.099102327552701389e-02 1.077979229089217755e-01 3.650272940694516133e-01 8.272153084415663287e-05 1.187189032176535938e-04 5.972546754104707950e-02
-3.282916462229251708e-02 8.749020360757210624e-02 3.649942720318476441e-01 2.310650702150150336e-04 1.819868426460201285e-04 5.586487516840357020e-02
-1.677845829842221012e-02 1.093634375834407063e-01 3.649655815424583949e-01 2.498652264892204386e-04 -5.980873044755756875e-04 5.505215795048708921e-02
-1.518529817920968861e-02 8.978369548923902099e-02 3.650146391187995554e-01 2.034005802534291109e-05 2.898023945045765499e-04 4.170710506820598379e-02
-6.096648430539002537e-03 1.159355989176420187e-01 3.650029380243134947e-01 -9.570310972014162468e-05 -3.268289736055374271e-04 -7.488686018690264568e-02
-4.434509956041933986e-04 1.236578898696351625e-01 3.649873293434948707e-01 -2.234831915328353155e-04 2.425602162416459903e-04 -2.835057084610936515e-02
7.558692566869603877e-03 1.302419908403575910e-01 3.649811721352801408e-01 -6.895832876511079172e-04 -6.299741550896135111e-04 -4.406523564163638412e-02
1.815332859969764207e-02 1.467718976063460690e-01 3.650435014564744618e-01 -3.854823698067517154e-04 -3.673334241751513986e-04 -6.044753043613420446e-02
2.895460512105705805e-02 1.665761673381510877e-01 3.649744492298776510e-01 -8.683851779122195172e-05 2.509196295458294220e-04 -2.136583133719244503e-03
3.798276572852948840e-02 1.581414686211023157e-01 3.650128034118527154e-01 -8.167710160535716836e-05 -3.692642665161853760e-04 -1.617336652814532760e-01
3.765958374179257523e-02 1.604200664151296807e-01 3.650327895319718796e-01 -3.505636683286987771e-04 -3.746137897314493837e-04 -1.305417658375480905e-01
4.817559079469648647e-02 1.796814600240819459e-01 3.647184987996637817e-01 1.743842069282435046e-04 1.852551571917702674e-03 -1.324436301543028272e-01
6.386582255765937965e-02 1.713793351648089103e-01 3.648813368261716317e-01 -9.955381811113372937e-05 5.615244895659112336e-04 -9.822863084735783401e-02
4.760690183816592563e-02 1.988878252417520254e-01 3.649863225575206149e-01 -1.256122850823077931e-04 -2.077229724996352181e-05 -1.795016267465689430e-01
3.422732880105774922e-02 1.888800058426145234e-01 3.650139867457747878e-01 -4.010376046001905294e-06 -2.369749038332901239e-04 -5.491133813302156302e-02
1.465347234700075871e-02 2.054904641727601233e-01 3.649823159324745991e-01 -5.491820645528523227e-05 1.844463186931269308e-05 -9.959747441911305510e-02
-1.013734694049274292e-02 2.051748046357926847e-01 3.650789308157001978e-01 3.808759261420339689e-04 -1.419070733092800364e-03 9.636700705341618226e-03
-1.399685633369889513e-02 2.006330188964157990e-01 3.650461852576213917e-01 -9.317617439387835404e-04 6.585777322747743802e-05 -4.014692341996382169e-02
-2.571003984393463795e-02 1.735075759930397310e-01 3.650552495816681287e-01 3.562312964792130180e-04 -7.457474453137216078e-04 -4.242592998193429887e-02
-2.239470728342170258e-02 2.006319153176391035e-01 3.649656500311185825e-01 -7.548246412687897194e-05 4.790472451910762872e-04 -7.116636665907981329e-02
-4.803764396684960525e-02 1.980515798401576710e-01 3.652336585393185509e-01 2.184691875910780862e-04 -1.843372600297926191e-03 -1.404603148557661586e-02
-6.643798163366006204e-02 1.682207848475491818e-01 3.650416973125498732e-01 4.954135761604744684e-04 1.276540741252491190e-04 -1.338827437140051035e-01
-1.055155400202482524e-01 1.803101669922379247e-01 3.650020217652245602e-01 8.224741601590764982e-05 2.499659327647693911e-04 -5.389056499430309316e-02
-1.212834229906997185e-01 2.119518212499906240e-01 3.649789132762412680e-01 -3.614530174721375302e-04 1.513125243777165864e-04 -8.846377064832848525e-02
-1.018288077337085318e-01 1.886043202519171180e-01 3.649956359503349068e-01 -5.379900774368022003e-05 2.201426867212361038e-04 -2.506383414110189070e-02
-1.379511609755661450e-01 1.601806318670332685e-01 3.652067809289152311e-01 4.804158930547546458e-04 1.085150670227325032e-03 -1.232949802764911895e-01
-1.437706669803958948e-01 1.426110520818100191e-01 3.650024772927048522e-01 1.681619668957030748e-04 -8.471890848775893686e-04 -1.103605004510990611e-01
-1.382961997299091417e-01 1.753403295683962082e-01 3.649826936168075742e-01 -1.347932382549546330e-04 1.939713657425601832e-03 -1.215739863665676879e-01
-1.155832301952581520e-01 1.729027604899483761e-01 3.649848755675711987e-01 2.249156966435511247e-04 5.279036835310223956e-04 1.176565538394299705e-02
-1.278543024401282147e-01 2.175581791514746843e-01 3.650285852729658331e-01 3.336749303917533086e-05 1.218118796313867732e-03 -2.394593340766869305e-02
-9.007053536353538947e-02 1.827271519474557016e-01 3.650518263858472112e-01 2.295270556711607286e-04 2.727788261882001524e-04 5.459880074300198921e-02
-7.576955580621493047e-02 1.605113365575431272e-01 3.649857338634440174e-01 -4.861984465688329879e-05 1.845544951046232016e-04 3.460658741286725543e-02
-7.133718934592547800e-02 1.538292225932289814e-01 3.649711556844201232e-01 7.571600225964819717e-04 7.380802120643639068e-04 3.146621726820419268e-02
-4.967364461983264645e-02 1.548696940944324363e-01 3.650424550756596886e-01 -1.024747999067750220e-04 6.189146259480850622e-04 5.111968326544055058e-02
-3.356974112768350976e-02 1.409629563969072019e-01 3.650018375657543834e-01 -2.580942169630277838e-04 1.553966078494197791e-04 -6.510773938121137971e-02
2.004301271764015804e-02 1.398501140577736168e-01 3.649849064450231273e-01 -3.088919747193270013e-04 6.705427067742788507e-04 -7.248509753031359693e-02
1.465545651720342145e-02 1.519097876179108797e-01 3.650520757120622739e-01 -1.442795507136528883e-05 -9.236808173696529380e-04 -1.620256447321397342e-01
-1.341734844786471488e-02 1.427880803608766180e-01 3.650167307978485209e-01 1.613798759451097822e-04 -1.945309965030785093e-04 -1.365686506075712014e-01
-1.588001389304340150e-02 1.740596050811189510e-01 3.649645247373106693e-01 -1.298501648161768318e-04 -2.838488752231021193e-04 -1.078876542907404590e-01
-4.235715675722301343e-02 1.577422037862614423e-01 3.649874536719028839e-01 -2.503569302699576102e-04 7.118818671849549311e-05 -2.243351049963887289e-01
-3.020101790847833090e-02 1.544332823493198004e-01 3.649750946236572924e-01 2.432606877639011133e-04 1.295878125638214766e-04 -1.896448709509182817e-01
-4.010787345746109206e-02 1.587839543986227508e-01 3.649853656932303680e-01 4.612163870821190401e-04 -4.803193624034532688e-04 -8.303620145119153251e-02
-4.044926161310978541e-02 1.386828137186701948e-01 3.650293686658424019e-01 -4.476141301034134356e-04 4.994134845593329632e-04 -1.135646413869847299e-01
-2.174938538226850113e-02 1.821311546155681693e-01 3.649209595828496466e-01 1.875651378372611335e-04 1.251790939108495307e-04 -1.292893094067026072e-01
-4.449524544089093064e-02 1.870293431867878775e-01 3.650177086941122084e-01 4.360521168443708541e-04 6.433567615838891446e-04 -2.108965375177435098e-01
8.201336533260753306e-03 1.654901179131660072e-01 3.651488078376248225e-01 -5.194658487095439288e-04 1.074392539434677885e-03 2.044834565457544912e-02
4.844300101026246565e-03 1.873315544223388418e-01 3.650097912633554764e-01 1.896940675945187581e-04 6.253550383706417523e-05 -7.245253177985501447e-02
-3.008529555663296343e-02 1.685570529305613074e-01 3.650039845619897916e-01 1.393450833815781465e-04 9.085709622672794863e-05 -1.871931313471227321e-01
-3.364134535020475714e-02 1.567168725991557043e-01 3.650850130409818428e-01 6.998386607494675544e-04 6.352584191726199899e-04 -1.834286771022607676e-01
-6.772891469258225661e-02 1.387273989398607466e-01 3.651092909336672854e-01 1.227243509353850804e-04 6.132061169887902206e-04 -2.339296910051005818e-01
-7.525957795176994869e-02 1.863471421562729879e-01 3.650149159623891637e-01 -1.111050812774870989e-03 -2.126656982065429184e-03 -1.674591796310790082e-01
-1.021395334913862696e-01 1.588933631371765853e-01 3.650255687852643760e-01 1.423833342162686693e-04 1.367906568025010171e-03 -1.054797081197114406e-01
-7.161452744356455735e-02 1.685522438852312122e-01 3.650791142817009782e-01 3.058735729659604473e-04 7.073667784924286871e-04 -1.076947204338791209e-01
-6.664989629516268610e-02 1.064971382348263440e-01 3.649718184697270384e-01 3.272773763457300831e-04 -2.904819255650802393e-04 -1.032534386859190328e-01
-8.409072890218549645e-02 9.305704655545668502e-02 3.649909848536112555e-01 7.278284478947302239e-06 -3.774028726604449261e-04 -7.091405315927833131e-02
-1.022405925072779748e-01 1.210577949187670171e-01 3.649967067575151658e-01 1.114030769523248194e-04 -2.505011390708440124e-04 -1.198659688352481240e-01
-7.628426433581614319e-02 1.401517818287412731e-01 3.650026355310800330e-01 3.396224326466092212e-04 5.788079440788757067e-04 -7.964403731298023981e-02
-7.502186977182612182e-02 7.492774919935313305e-02 3.650312488660368282e-01 1.677831759073286936e-03 8.524885551164691636e-04 4.428396468434954436e-02
-8.519255972179641534e-02 8.950548419205765771e-02 3.650184926383683859e-01 2.075814870674368422e-04 2.431684584289932338e-03 -3.384747365732360819e-02
-5.486714671882347155e-02 1.020130930779045153e-01 3.649642583836497645e-01 -8.599212534469469237e-05 4.466112138000759204e-04 -4.348532244155425830e-02
-5.018560356632564834e-02 1.395895006896706869e-01 3.650349566561141845e-01 7.961708554292180634e-05 1.375499786138077024e-03 -2.008404091743533695e-02
-3.238263534152702183e-02 1.296875429509545818e-01 3.649378212930224352e-01 -1.947035643217728872e-04 -8.684988493709498670e-04 -2.319863220495288827e-02
-1.930515145432136828e-02 1.316184418631395070e-01 3.649991348664934909e-01 9.968977727526490400e-04 1.247627426810096665e-03 -1.237017953122773184e-01
-2.602872706585901766e-02 1.125675052786218183e-01 3.650112904198339336e-01 -5.539080792255101412e-04 2.115898047563769988e-04 4.874553652413016885e-02
-8.782952214070063879e-03 1.255535951139122308e-01 3.649900771282987288e-01 -3.541643372012186815e-04 1.736839726384051979e-04 -2.600317815982760086e-02
-3.902848239946141856e-02 1.598672168217806777e-01 3.650485493572382945e-01 2.487469783342877616e-04 5.755515371334419107e-05 -5.661095250630685666e-02
-4.579589982714292462e-02 1.565097221199774902e-01 3.650052063607115427e-01 6.696895012967101206e-05 2.722497511123272984e-04 -4.840065098454254117e-02
-6.705806334437344751e-02 1.198931181636906790e-01 3.649985480639613700e-01 3.290805638069926159e-04 -9.138266026210251991e-04 -1.173384488041897405e-01
-6.776753892253951916e-02 1.532118411183788220e-01 3.649660647570631689e-01 6.566036536012003855e-05 6.154135675025683059e-05 -8.787960959615485901e-02
-6.894628512512915308e-02 1.738241287886359565e-01 3.649895476572909137e-01 -5.874503289669933976e-04 -5.649437880594184369e-04 -9.458860893736920072e-02
-7.538533786426848682e-02 1.867254445247155392e-01 3.649532350973250794e-01 -4.058115143419539100e-04 -7.932186433725983750e-06 -5.674631930823349074e-02
-1.055350773302366207e-01 2.086271546335765614e-01 3.649860680896637177e-01 -6.351535915580187788e-05 1.911196820596487884e-04 -5.721451050811577482e-02
-9.765146060064867906e-02 1.972157242320439485e-01 3.649356213800559745e-01 2.392658923879988444e-04 4.249965213045743995e-04 -5.815728179196547054e-02
-8.469998028754512076e-02 1.488038922357870497e-01 3.648581958519321322e-01 5.686787196269359277e-04 5.060077931708641076e-04 7.347263195307036920e-02
-4.040392059512637468e-02 1.571107048221217495e-01 3.648304073656678526e-01 3.702491051242521973e-04 6.702726239285705613e-04 -3.337582265608610155e-02
-2.252450470429168128e-02 1.208165535203697682e-01 3.649908381650329159e-01 4.079786398333262168e-04 -8.036443589635142463e-04 -1.134528386331925404e-01
-3.230886752180321675e-02 1.110380459814598597e-01 3.649582038766744363e-01 3.464748835646799612e-04 4.513096709501216862e-04 -7.703418507012739502e-02
-9.069760629697666554e-02 1.577950796429249403e-01 3.651315505158939656e-01 -1.057282381713106970e-03 5.682685719634662010e-04 -2.374545346923365944e-03
-6.415358040816618312e-02 1.575226314864041910e-01 3.649630922317836923e-01 -3.265441170086126068e-04 6.830246909781191892e-04 9.464863971674399024e-02
-2.471501357014186523e-02 1.621941110157611166e-01 3.649886474499932643e-01 1.961361148190521005e-04 1.202038159877881089e-04 5.664527175402803844e-02
-9.235004796084210488e-02 1.403597653924630595e-01 3.651691179070709614e-01 3.443319748135339510e-04 -1.496928407119439523e-03 5.334304680577247465e-02
-4.981081118485573139e-02 1.641915158296310129e-01 3.648854268580286053e-01 -2.871492565631930519e-04 2.389197488704301008e-03 7.021904576247312707e-03
-6.584124893775473997e-02 1.488855144633284000e-01 3.650261743042851892e-01 1.641844110292701279e-05 -4.703019157429501741e-04 1.551317569656592184e-02
-6.561466990660440313e-02 1.708442080463909996e-01 3.649493096883843490e-01 -3.212088753587728448e-04 -6.881590681518537172e-05 6.446636093914269450e-02
-5.900084326808586327e-02 1.965828506993944069e-01 3.651380735355335139e-01 -8.066134374995941395e-04 2.772745536737488727e-04 5.164192738662531229e-02
-4.231445982190115002e-02 1.339826868388055703e-01 3.646413956399090495e-01 1.617067551292698368e-03 5.717813173820769385e-04 1.353981170492818131e-01
-7.587717753995160130e-02 1.243599358633086793e-01 3.649993463768054225e-01 1.520003789043189533e-04 3.439272695128913360e-04 1.472656440437014047e-01
-4.417945451738650858e-02 1.544897052357588618e-01 3.648988658834751986e-01 -1.654027718164822124e-04 -3.557522961555779580e-04 3.143961913110117357e-02
-4.392894672163284719e-02 1.546561735097112533e-01 3.649804563190947038e-01 9.170340063013709671e-05 8.965382410017157635e-04 9.265053373068035669e-02
-2.810617026830126292e-02 1.629821735678254058e-01 3.649850577535359020e-01 1.760919888252986725e-05 2.114823078525355973e-03 -7.296186876937880983e-02
-4.055695886523036364e-02 1.543013136834817944e-01 3.649965836399087782e-01 -2.645940867526084552e-04 -1.076362144140825990e-03 1.748846995369771756e-02
-3.846999410511177386e-02 8.666271772113402772e-02 3.649321464609651677e-01 2.635957011492970283e-04 -6.854802145671363327e-04 -1.809519264424149301e-02
-3.150977054636587560e-02 8.331634405147865519e-02 3.650012603075125650e-01 2.977056546654278219e-04 2.424678230311021546e-04 1.833022382291218944e-02
-3.350945346595381874e-02 8.615031343553580800e-02 3.649025328597998996e-01 -4.136703753430374009e-04 7.366207554430600005e-04 1.481496377658688551e-02
1.886242929390009176e-02 1.146160086313861015e-01 3.647228087165768073e-01 -1.132397936825340007e-03 1.623293253398223456e-03 1.102724003243852613e-01
-1.391067330276075107e-03 8.287246789732664876e-02 3.648140857112588398e-01 1.383542456498931513e-04 1.983897112526405819e-03 6.885158026755357208e-02
