7.308862911980398835e-02 7.310989160052688840e-02 3.649192622864037006e-01 4.367507318003969368e-04 3.689767188082716657e-04 3.208838002299990028e-02
1.241133256575848720e-01 1.259878820227343377e-01 3.650079252720810352e-01 -5.487165030040191700e-05 1.566357287232305763e-05 -9.319226383954498649e-02
8.887514945448042603e-02 1.583803572992715236e-01 3.650370629285951685e-01 -7.175112316895067678e-05 -1.392693766285573321e-04 -6.898854088091328773e-02
1.213810801574603249e-01 1.244115243556658396e-01 3.649374309865204835e-01 -1.006576995467996059e-04 -1.127055379777325517e-04 5.131094207111232958e-02
7.760480905616976011e-02 1.401196397717593412e-01 3.649773474842061827e-01 -1.118464119428115946e-04 -2.219474844223587068e-04 -1.057483249082674798e-01
1.153065678336769317e-01 1.686080697496397662e-01 3.650033925418445513e-01 -3.154550560517151791e-06 2.274914511226848379e-06 -2.081010933519138462e-01
6.422528535712158926e-02 1.147804155977619894e-01 3.650646399965671307e-01 -2.858356133984086894e-04 -1.644529336886388186e-04 2.693785127478659155e-02
1.006543484537836403e-01 1.341697652563697274e-01 3.650164533946658185e-01 -2.645644121676798114e-05 -1.514267347230392580e-05 -5.608770134541393032e-02
8.219989818414200067e-02 1.381227226156903076e-01 3.649984873384902739e-01 4.924419921769230825e-05 1.977879409180396990e-05 -1.923386563619752104e-02
8.698688422932711328e-02 2.223656396390593926e-01 3.649913249022700423e-01 1.224830878835871190e-05 -1.157496250803336912e-04 -2.653982090868275967e-01
5.314818289890724246e-02 1.822987013152912450e-01 3.650086823084827126e-01 3.248958133789255857e-05 -1.451703723616208914e-06 -1.849927854946735173e-01
8.016558459303986528e-02 2.069711531827903850e-01 3.650283581275483580e-01 3.434853310681364831e-04 -3.031033294187710577e-04 -2.476796604001437752e-01
6.621161858108116915e-02 2.329727764257680800e-01 3.650248391407525661e-01 2.641806277677045272e-05 -1.112870349373075299e-04 -3.555734262834242543e-01
4.248076420445358325e-02 1.851445914779235036e-01 3.650173561144344214e-01 -3.432926942394355304e-05 -7.208966690383850268e-05 -2.039112468762324659e-01
7.229269669377372948e-03 1.739010338163440028e-01 3.651150385775677742e-01 -1.624380642719357474e-04 2.173163270626867524e-04 -1.749945452264270451e-01
-2.780151867093518664e-02 1.003402971310703440e-01 3.650108607304061725e-01 -3.354043512508978907e-05 -5.025220114830377576e-05 8.768352140054605504e-02
-3.542390226584542917e-02 1.978531701777908880e-01 3.650335961304900234e-01 1.375740950943998375e-04 -3.247331937541861395e-05 -1.508665193831484341e-01
-4.424240561294238983e-02 9.599998304461786203e-02 3.649675557508073043e-01 2.908184298062153916e-04 -5.211619643152905082e-04 9.737954826488728205e-03
-1.939716630232285813e-02 8.360529415199677294e-02 3.650264729467830316e-01 -1.773047045552846469e-04 -3.962298095591029317e-05 6.607490641496284456e-02
-3.143070779926791097e-02 7.826776081882598490e-02 3.649601812805072232e-01 2.770149917276553883e-05 -5.103016507052687530e-04 5.005220925470008075e-02
-2.201266036567127785e-02 6.795846441942898775e-02 3.650186342008915341e-01 -7.210638067970828681e-05 1.681021626612517615e-04 7.864110791138223533e-02
-3.599740682668246816e-02 1.369518040365785283e-01 3.649760447147341047e-01 -2.230840234039690236e-04 4.426037085350118753e-04 -5.225683258750225130e-02
-1.752663199238778738e-02 1.118724962138677448e-01 3.649861818539741343e-01 -1.733591975932041328e-04 1.283074388692729032e-04 5.281436120820469371e-02
9.577729996587500128e-03 1.532845955057419718e-01 3.650161021648842818e-01 -5.502635471814731460e-04 -3.277050320747627345e-04 4.206205715359444958e-02
-6.815289716815668870e-03 2.173590183681846089e-01 3.649962271199612696e-01 1.108296180267502248e-04 5.869906283692574814e-05 -6.533545345988750475e-02
2.412542480162371827e-02 1.648991239068505199e-01 3.650304559193288112e-01 2.894276671983843152e-05 2.819232510075634257e-04 4.493516363580819795e-02
4.882864190237978796e-02 1.219777060026988741e-01 3.649997393380535193e-01 2.273412867112531183e-04 -1.646070424340124040e-05 7.735131548634703591e-02
4.701236433745809018e-02 1.727298942909474555e-01 3.650259579421979428e-01 5.026679959491315870e-04 4.663313228902439929e-05 5.953829122134622620e-02
4.917416408029015584e-02 1.647340429259391559e-01 3.650104834038594981e-01 7.242481135933416644e-05 2.841775329925721357e-05 5.745547566693268854e-02
6.630414909452014838e-02 8.574117030555110375e-02 3.649948311881830998e-01 4.568753960530642650e-05 4.386818841960807562e-05 5.367997089356614515e-02
8.610639773584910506e-02 1.295484115698865568e-01 3.649978206828106142e-01 -1.984111322154518656e-04 1.261318778517763264e-04 -2.045062355198171491e-02
9.822397560694175189e-02 1.617677980495067225e-01 3.650673195386533454e-01 -3.201129042512238670e-04 -3.727110369517707615e-04 -1.514509790367341534e-02
7.498902147230704363e-02 2.018793427190710421e-01 3.650130265124192919e-01 -3.912424653466312703e-05 -1.024759113121484488e-04 -1.701479655040860628e-01
5.431434110686153560e-02 1.418804213142460802e-01 3.649953747290597406e-01 -5.489020558872678875e-04 -1.915373652314283572e-06 -1.881589924725000917e-02
3.201342422808054616e-02 1.475761888450757564e-01 3.650587703598336953e-01 1.378891376649313283e-04 -5.097764005099786767e-04 -3.721473028421905943e-02
1.811409181255956707e-02 9.549592757121365405e-02 3.649749145977140286e-01 -1.060717359547288483e-04 3.957949150984927354e-04 1.106693732669023489e-01
3.360453410511648337e-02 8.093124461688940008e-02 3.650049822595994309e-01 2.887497633585828704e-04 -3.301921082750435390e-04 1.422736833172381643e-01
-5.724465310131092444e-03 3.314465052281348901e-03 3.650693482321807348e-01 2.097372711150756626e-04 -8.020852122540313156e-04 2.318997019636750700e-01
-2.419043046122850912e-02 1.376997379466752824e-01 3.649979571692529845e-01 -3.106049575342290186e-06 -2.931048643792970995e-05 -1.413497284431638745e-01
-3.389528800187973333e-03 1.107887299445027285e-01 3.650152364887889744e-01 1.838862718845570444e-04 -1.916513410353543740e-04 2.102460600317442030e-02
3.167490220483364788e-02 1.130802851925714336e-01 3.649966523562166998e-01 1.020751835121997000e-04 2.239369541601188460e-06 -8.832895386890245171e-02
1.102977817130808974e-01 1.052916423004225943e-01 3.651713625998728174e-01 1.190579891663347527e-03 1.313417735138729722e-03 -6.969094365367421717e-02
5.213137234390742558e-02 1.534702947949200535e-01 3.650616807426724231e-01 -1.482448136063379673e-04 -7.734627831139643839e-06 6.882553995900923816e-02
7.379218189505706849e-02 1.421722455556748421e-01 3.649900491451690820e-01 4.063061685898888576e-05 2.132989249815860121e-04 4.492523847390720443e-02
2.955659815399596865e-02 1.476372083003423541e-01 3.650176667340652714e-01 1.252170595004140400e-04 -4.430082473658099622e-05 -9.356787614896913685e-02
3.562407857322816979e-02 1.511643486622079868e-01 3.649512155667175017e-01 -5.180578840466456116e-05 -2.546624771552070650e-04 -4.728105832425256311e-02
2.424561156817059762e-02 1.451005409121958190e-01 3.650516973199450232e-01 8.653824509333767827e-05 9.700161864857343840e-05 -7.157179770194903139e-03
-1.998821717898908654e-02 1.362681815571450405e-01 3.650176776809677670e-01 -6.174366672043611116e-05 -8.305450947132043179e-05 -8.812241931146390372e-02
-6.449403681295118318e-02 1.364258478427752552e-01 3.649943582082233462e-01 1.153036710367815512e-04 1.587459609605077675e-04 -2.050788914702796062e-01
-8.899911550938625904e-02 9.876473489571145625e-02 3.649733530038160589e-01 1.544182068036489646e-04 1.026583409593744548e-04 -1.367848716066979442e-01
-3.439768308448653417e-02 1.229538728771716188e-01 3.649865261399198313e-01 -9.212243878383750777e-05 9.703972291221978172e-05 7.705394709994356495e-02
-2.248372118856712537e-02 8.937937797948898588e-02 3.650034717839788501e-01 1.367449798506638102e-05 1.029797603610168162e-04 1.198512958923414889e-01
-4.692249520575003663e-02 9.430108222700819831e-02 3.649485630283743065e-01 -8.653674369025142997e-05 4.851163762098025770e-04 4.195409004575770956e-02
-5.394490998671824106e-02 1.135646101641207967e-01 3.648971743300853943e-01 4.334272719237269259e-04 7.475358153962805702e-04 -1.151209687072634602e-01
-3.675697575197515998e-02 1.167452078803861842e-01 3.649868652476400688e-01 1.106217686153019897e-04 2.369061014113883453e-04 -2.377243463570837684e-02
-2.310424957926332512e-02 9.393664156130683562e-02 3.649880194799078881e-01 3.041716975148734954e-04 5.343171891713638768e-04 -1.499866471246556199e-01
-2.936769467176744697e-02 1.075632034565017908e-01 3.649720693038857600e-01 -5.360948013283500097e-05 -5.201193181512691764e-05 -5.201721175403548059e-02
-2.338922914195866107e-02 7.568967203917055520e-02 3.650430321766755526e-01 4.190411048337278413e-04 4.211899690893665155e-04 -3.113520700169942340e-02
4.155220030483793014e-02 5.721209977042539946e-02 3.648954111699955205e-01 4.190847960866618841e-04 1.151034711905796464e-03 5.614846513834807068e-02
4.961160982707023270e-02 7.884866819128105719e-02 3.649968756030986250e-01 -9.192576869798316412e-06 -3.518799897212173316e-05 -1.058530772360053163e-01
3.226591752891406345e-02 8.240675490300264361e-02 3.650095541619625683e-01 9.551647720765758407e-05 9.819634680418388100e-06 -2.954820277522493543e-02
1.383606987591162220e-02 9.020496881686326796e-02 3.649786371086503056e-01 8.346940537491708191e-06 -6.821515468162644502e-05 6.887502353854206560e-02
-1.213568989374497371e-02 8.414540008791351888e-02 3.650212511998320863e-01 -2.273985702820916443e-04 -1.876864595289271767e-04 -9.296667338406240091e-04
-1.885582606327555061e-02 1.133929188555320294e-01 3.649561408715595312e-01 -4.101954896352092480e-04 -4.880570652986826051e-04 -4.429815797943095421e-03
-4.095784154870579091e-02 9.373528091366641057e-02 3.649937828012117524e-01 4.451493291642704287e-04 -2.451352081049645862e-05 -1.392683420953147733e-01
-1.232671920065515729e-02 1.104905964374905680e-01 3.649953562255294770e-01 4.232674618275904910e-05 2.314760485139941907e-04 4.715835659862861740e-02
1.613907848609736143e-02 1.151775162538026809e-01 3.649826142316831001e-01 -2.772253217057814019e-04 1.380784714050992839e-04 7.805452768332267477e-02
-2.801064197637482406e-02 1.381033347918904364e-01 3.649891791017529918e-01 -1.629512034490903575e-04 -2.658951308156882933e-04 -9.100436804304130878e-02
-1.530120813969685495e-02 1.340243702924284463e-01 3.649583852577698018e-01 -4.386042952240466969e-04 -9.524428880830353465e-04 1.417608719123755398e-02
3.557440427544539957e-03 1.686173850227524751e-01 3.650076430006838901e-01 4.817591517531786470e-05 3.766880323532657192e-05 -8.807123150169073045e-02
2.625750998904433087e-02 1.532514632079053918e-01 3.650365533017821962e-01 9.337132200328656761e-05 -1.645844906852172117e-04 3.731239468667656156e-02
2.425364897945055803e-02 1.608186559631686330e-01 3.650150212571651731e-01 1.097269424340529973e-04 3.068352785942397311e-04 2.687930715321927826e-03
-3.960534084731797029e-03 1.692768855874214329e-01 3.649357615197842408e-01 1.992073799106547664e-04 1.312888263429657005e-04 -2.987884089479317384e-02
2.531789173061694750e-02 1.755811322620254855e-01 3.650731450089257368e-01 7.045636530656470620e-05 -1.234537153186576178e-04 -3.065953624034878713e-02
2.078816854306703328e-03 1.811123899145382632e-01 3.650017961092592023e-01 -1.093763436751173270e-04 -2.239345957481055115e-04 9.701097902651206750e-02
2.385609666458799252e-02 1.532195786801679449e-01 3.650280127250919993e-01 5.316709998195105053e-05 2.518971016800051926e-05 -6.392502560677854051e-02
1.838617360048021288e-02 1.498872951604564019e-01 3.649732614584983992e-01 -5.677736689239823269e-05 1.209617963941359367e-04 2.413956612590599862e-02
-3.418835713931628936e-03 1.346647765727144730e-01 3.650172272008199714e-01 3.419425402806842865e-05 -2.912828810870024714e-05 1.134324633853914938e-01
3.400333209062859907e-02 1.373448815663798894e-01 3.649580234363902775e-01 3.761013367383215627e-05 2.438793031147136817e-04 1.003197381302674829e-01
-8.597620933982169211e-04 1.229553342333015997e-01 3.649974385303234037e-01 -6.885701977638939678e-05 1.414387196025757118e-04 3.534490544226592118e-02
-1.974136387069828046e-03 1.096668148235007828e-01 3.649959348998312869e-01 4.722029332606837563e-05 1.063136016775387212e-04 -4.810154416859593884e-02
-3.876840804771087418e-02 1.680316215746901765e-01 3.650266015362055860e-01 1.403442391153801757e-04 2.445276114521068408e-05 -6.399311469859585155e-02
-1.934486919090218707e-02 1.257808521831540738e-01 3.649913828151035711e-01 -2.035190356778138857e-06 1.023639555100655731e-05 4.629755981001081738e-02
-5.189229101279597967e-02 1.232329313767881879e-01 3.649841329740401985e-01 4.121399759213987667e-05 -1.868465440218475355e-05 5.935537332194938676e-02
-3.590236035194933895e-02 1.279418919247682918e-01 3.649645607753132515e-01 1.343289396194340363e-04 5.132723883969786833e-05 7.313827517143871304e-02
-3.076089614238571718e-02 1.302382655013191726e-01 3.650009647894803533e-01 2.274654587502376044e-05 2.236227129783427889e-05 -9.888998374390269019e-02
-2.768734611952469726e-02 1.687921487544568888e-01 3.649573464864796501e-01 -8.457678988763655203e-05 2.131830127688388106e-04 -5.562880321898772129e-02
-6.770148525617315782e-02 1.653561392907548500e-01 3.650450270337244341e-01 -1.549332607148974406e-05 7.767450927311024371e-05 -1.585477593243981576e-01
-5.037092343585280324e-02 1.705605861096323728e-01 3.650347713496576718e-01 -3.488430630281500079e-05 3.422088023445833921e-04 -1.156573808726816394e-01
-5.633168482044826481e-02 1.492282531902182352e-01 3.649801749692087594e-01 3.093177390584592136e-04 -1.216986342090662444e-04 -1.430272609260830052e-01
-5.741299258007331180e-02 1.702317516215024473e-01 3.650682108454150754e-01 2.566325247105787706e-04 -2.809882672934083548e-04 1.156829053741812163e-01
-5.750287428429711606e-02 1.642168882989597234e-01 3.650481126286583278e-01 1.733567681196000146e-04 -1.536001108952232545e-04 2.260445079638566390e-01
-4.256326770233604534e-02 1.625211530224219547e-01 3.650002932406406497e-01 -2.033509668870048237e-04 5.380506160689213822e-05 2.100708628249250975e-01
-2.508621253847492100e-02 1.400449634638181451e-01 3.651137016081800191e-01 3.729654478060198089e-04 -3.633257114175174611e-04 2.573748192279856628e-01
-9.996135322934009138e-03 1.235664472230403460e-01 3.649684994865287080e-01 2.738305974629430778e-04 3.214836907706413284e-04 5.225988814940182164e-02
9.110797837693461812e-03 1.328266616119925525e-01 3.650020180744288356e-01 -1.409792565351663802e-04 6.903155604496725582e-05 1.134565036052039427e-01
1.813382343802106070e-02 1.503647316160034997e-01 3.649914470871276628e-01 -1.701608492029427309e-04 2.434291128936725494e-04 5.531544900625182809e-02
-6.745848992083834823e-03 1.202353569103846720e-01 3.650007661372903778e-01 1.590462942074434365e-04 1.337343777657178574e-05 1.816868851169481658e-01
4.094488734282232534e-02 1.372573962142212278e-01 3.650240546505298944e-01 -5.952359736091938924e-05 2.025839653090669959e-04 9.330024071427250876e-02
3.948209548176569855e-02 1.508444959658444273e-01 3.649736355501945750e-01 -5.094769905502919902e-04 4.452153836781901360e-06 1.335765846242575883e-01
5.626543244114597109e-02 1.743174438318577102e-01 3.650213225930444283e-01 1.863603367227110725e-04 2.117118472569693555e-05 1.884141653877496325e-01
1.059927141269329520e-01 1.912361000412132195e-01 3.650040048205859256e-01 1.697707394080305945e-04 -9.218257893328768156e-06 6.497509268965906415e-02
4.452254578438732263e-02 1.921483780047157364e-01 3.650156881977929535e-01 -2.505502605109327500e-04 -2.235565142843146775e-04 4.542933286033655482e-02
7.381440525805450792e-02 1.893487483423376971e-01 3.650548207078958551e-01 2.007759310826056698e-04 4.673147254235701366e-05 8.316191274007486700e-02
7.284336945736451241e-02 1.629659028291695899e-01 3.650346431839389671e-01 -9.603881022584112191e-05 -1.063264862047135460e-04 2.764109006281655415e-02
5.306654711188285578e-02 1.468347723073790134e-01 3.650135892261593407e-01 7.163742382465175757e-05 8.494899716944654343e-05 -8.079121187340113780e-03
1.494154420469737240e-04 1.442277717427487005e-01 3.650004588760060731e-01 -3.018070241827571751e-05 4.691722140242038228e-05 -1.776029015756667648e-02
3.982973987679822719e-02 1.544012006151387895e-01 3.650002759261806173e-01 -2.577985963403857576e-05 -4.357027863558753501e-05 4.116812278466244063e-02
3.115667546777306507e-02 1.436015809611787819e-01 3.650830671544119665e-01 -5.805614871293543374e-05 1.027859241108480240e-04 2.905848197468320626e-02
-2.662273276115297710e-02 1.153573100744815366e-01 3.650012647752546857e-01 -1.994419283721610375e-04 -1.395092952729853517e-04 1.476445182206829465e-01
-2.872583317478571291e-02 1.195909772346737399e-01 3.649537448115470761e-01 1.123199389769273326e-04 8.284374359480026965e-05 1.198702266351775181e-01
1.636939694653059135e-02 1.121051509935589302e-01 3.650016742341576359e-01 4.258808635064177184e-05 8.454231526953972739e-05 2.639127558151119768e-01
3.443080687175877758e-02 1.289895024790415623e-01 3.649284552107168178e-01 1.802374612636372330e-04 3.660691273788898334e-04 2.057304738820020795e-01
3.762128983096458407e-02 1.359846528313543579e-01 3.650113016311057335e-01 2.303586462277058475e-04 4.217756987036790539e-04 1.508981698746829081e-01
2.532130040766115281e-02 1.118859851499329761e-01 3.649941445191245970e-01 -8.706238964368365377e-07 1.318677033548923539e-05 8.051557385018408633e-03
1.671832514544019377e-02 6.576118405823051793e-02 3.648725177438337242e-01 4.552385116306319115e-04 3.018834726271691412e-04 7.823131435832840486e-02
-1.622167879766091628e-02 9.448028275361727846e-02 3.649891077743815382e-01 4.129114062329573793e-05 1.431091873147759184e-05 -1.768288996641777244e-01
-6.822348264257065663e-03 4.639313204406254887e-02 3.650280220846640056e-01 -1.774113574507927193e-04 2.277526462618693475e-05 -3.396182946958347521e-02
3.089133154017421196e-02 2.089873501271988232e-02 3.649902272694165450e-01 -3.741198273716688985e-05 -6.716499510816745363e-05 -8.721764969275751234e-02
5.088580843345048843e-03 1.079399417426733232e-01 3.649095192992885539e-01 -2.018786716159533430e-04 -5.533547675619155038e-05 -8.424189951490647366e-02
1.070927142629051745e-03 1.445738315437797850e-01 3.649534662918121897e-01 -3.393430459109084097e-04 2.120134108551163378e-05 -9.659125122210145825e-03
-3.643643421768621299e-02 1.266921852120705683e-01 3.649785299474500033e-01 3.850207307988351939e-05 -9.496731161175977998e-07 -3.552571399613756870e-02
-7.218406860072618288e-03 1.027039929037380367e-01 3.650960817423316573e-01 1.928514045988614543e-04 -2.130987176027837799e-04 -1.262200073718679205e-01
2.389084040168840128e-03 1.036240661544608199e-01 3.649080255062314704e-01 3.852293328193650114e-04 -2.690518859530904817e-04 -2.488783821787709030e-02
-2.023488992201603540e-02 1.391489436662765034e-01 3.646991751328870768e-01 1.275434151862196686e-04 -9.497242066160069805e-05 2.532909839492178058e-02
-4.243629373260717104e-03 1.430401329509908281e-01 3.649217122186890760e-01 -1.078045956073477843e-05 -9.880069454886259903e-05 1.034659979476964392e-01
-5.553186960673191230e-02 1.025691674765646932e-01 3.651101227399712323e-01 1.104515197401105856e-04 5.379793942610725812e-05 8.399061955673803315e-02
-1.815949340108589244e-02 1.260842399473319497e-01 3.649180952941921685e-01 1.542204732583268660e-04 2.643903509912906460e-04 -7.136592967477323191e-02
-6.145358725982130732e-02 2.282151274324810755e-02 3.650013569878250985e-01 -4.379643153352835163e-05 7.704583941645551772e-04 6.655870882018040391e-02
-5.782859905442972598e-02 1.979136750331091793e-03 3.651475453919698078e-01 4.193192073376360751e-04 -1.614613980438365842e-04 -4.903101536097189544e-02
-4.875190410536037189e-02 2.418923964227790921e-02 3.645058931537215052e-01 -1.008446999632539804e-03 2.115274581742441324e-04 -1.783017819385609645e-02
-4.952543416538689180e-02 3.570692576556011577e-02 3.650642632485798234e-01 2.420683638045798187e-04 -1.043267072156913675e-04 -1.660802060627716292e-01
-4.145597281645415494e-02 1.135662686547656425e-01 3.650782748279742806e-01 -6.813019445366277731e-04 4.662351919090202616e-05 -1.358215959694279440e-01
-3.288371324252901268e-02 7.226241502993514809e-02 3.645542324225740094e-01 9.326600876039652923e-04 9.544936183694833825e-04 -1.143931366664276555e-01
-1.382184560196813607e-02 7.313170152986679662e-02 3.646115239109304906e-01 -1.314702548395657936e-03 5.503873995580566177e-04 1.207933395255072762e-01
-8.155177032726042274e-02 5.242879013894993084e-02 3.651737187346800750e-01 5.489887308415739280e-04 -3.013324729074529106e-04 3.911549301043120569e-02
-1.055000834514436409e-01 -5.740770398361145360e-03 3.651172587167763606e-01 8.333221634556559673e-04 -5.752257203998037850e-04 3.371338397145123150e-02
-1.234759416741311178e-01 3.078291927622824747e-02 3.650975460139060935e-01 -3.088756784146738980e-04 -1.816343421759909069e-05 -3.641155400608629689e-02
-8.385815349475343218e-04 -2.372220294159277723e-02 3.650174140229817121e-01 7.079274751034843457e-04 -6.845974024936605303e-05 -2.105145676616582140e-01
-1.379819298639618497e-01 6.867629954309582840e-02 3.648743343800539551e-01 -8.191590498529997344e-04 1.242058274606342317e-03 7.124031899107133303e-02
1.555527696790442727e-01 4.143722490900509335e-03 3.649108637469799521e-01 -1.585475645402531801e-04 3.584869808982366957e-04 9.689753247504342970e-02
-3.173908105896676435e-02 8.006046100516174546e-02 3.652712117083421473e-01 -6.196623701692967898e-04 -4.718742770266109087e-04 9.581094658318198287e-02
-1.974582476366431791e-02 1.389729052859737524e-01 3.649564690781252896e-01 -8.308547946940652846e-05 1.557897123124005331e-04 8.011425382276927964e-02
-6.935460376119106929e-02 1.496841417891471571e-01 3.650552886006280251e-01 -3.586782584057109156e-04 -6.254597097622640201e-04 -3.548420469584603887e-02
-1.050703527790453340e-01 1.202879046409456310e-01 3.649377912342421371e-01 -1.082800752250391617e-03 -7.535472914447052025e-04 2.770254663801776859e-02
-1.182204704535549933e-02 6.344735554873184857e-02 3.648056011279894317e-01 9.430876501435514134e-04 1.595503125840346025e-03 -1.060872925714564374e-01
-1.995564085163270898e-02 9.715904638185705877e-02 3.651798287116206909e-01 -9.533009713318706460e-04 -6.653162674955899122e-04 -1.709339798671680732e-01
-8.784289018577952357e-02 1.366802142755581262e-01 3.651843202867777194e-01 -4.417262058318413499e-04 -6.396104779732204480e-04 -1.471398624889660445e-01
-5.673856964614313464e-02 1.427775203017612182e-01 3.648920642444072882e-01 2.671635838322148357e-04 6.015569452644275485e-04 -3.500816010145606227e-02
-1.028124482345386115e-01 1.064132661030372240e-01 3.649228662758159381e-01 -5.027808800535859754e-04 -5.639087035353946642e-04 6.409756898326526842e-02
-1.327009599263108582e-02 7.661631719123099260e-02 3.650672550343504463e-01 -7.599878812464788387e-04 -7.568791832073642253e-04 1.791250882305987779e-01
3.312279610885727338e-02 5.288241913691662383e-02 3.647012592728764435e-01 1.423549032546757688e-03 2.215760621259341926e-03 -1.301973884709299867e-01
-1.218345809505457303e-02 -8.632104551924944802e-03 3.651447244707584083e-01 5.838099215954768197e-04 -7.092634069173946523e-04 -9.012621327361140799e-02
4.994211773203473259e-02 -2.690601220511992797e-02 3.650673230706873995e-01 -3.704922910339072495e-04 6.944665622097023511e-05 -1.441370037008079530e-01
7.451746728392677314e-03 3.453963380803770893e-03 3.650761735354183246e-01 -2.660282456074106723e-05 -2.080496363759590359e-04 -1.289990851701300345e-01
9.663158849753696045e-04 3.404223146067906353e-02 3.651258805695553056e-01 -3.336205071708955253e-04 -3.626909073060828972e-04 -7.312870764265720983e-03
7.870687668772745338e-02 -2.471250768756204363e-02 3.650054407620232366e-01 5.371669480446281667e-05 4.709448102664132055e-04 1.624345958650606214e-01
3.864997929711115610e-02 -2.923112867374713653e-02 3.647629971633433721e-01 6.334779359622735254e-04 8.544299280347300378e-05 2.903738594608183676e-02
6.381664800504074919e-02 -2.967345155345346708e-02 3.650213720700650200e-01 -5.351155020080093320e-06 -2.326038878519408952e-05 4.646045615170552034e-02
2.677460409305517167e-02 -1.248290846914628695e-02 3.650178446855196768e-01 -3.585444847552813545e-04 -9.526561505949441427e-05 2.010428651663822563e-01
2.238933082247140547e-04 -6.185438069412007439e-02 3.651653868359177046e-01 -8.658699262758747412e-06 -5.465656811808507079e-04 2.819318349903883747e-01
-3.181291369740970459e-02 -1.335758036143431526e-01 3.645026452353446467e-01 3.803003046658502478e-04 1.067500408415169178e-03 1.151735694558393835e-01
1.224124267825839503e-02 -8.226102834968675170e-02 3.648973153914367162e-01 -6.279918555108908061e-04 1.729529726526221611e-03 7.872480817604493586e-02
4.491636427836255552e-02 -8.786460524864031507e-02 3.649851410806588259e-01 1.364590861214781561e-04 -8.626731032394047355e-05 6.658139206708288405e-02
-1.873574267374442104e-02 -1.388385143741196481e-01 3.649590891497707101e-01 1.077237240201418637e-03 -2.316413905603958382e-03 4.400263042152408738e-02
4.843356053386926874e-02 -3.685926448322620480e-02 3.649361083352296586e-01 -3.680149043820180629e-04 4.497628315153095503e-04 1.621165667511679509e-01
3.869845301680052002e-02 -2.874322147027377414e-02 3.649503730684949820e-01 9.774913077418847737e-05 -9.433831946225847620e-05 1.210983064268324194e-01
4.204053413988369237e-02 -2.168108813274233909e-02 3.649112638922633600e-01 3.044711955778640227e-04 8.386039820125808925e-04 -6.362304435346619047e-02
7.470881249352068210e-02 -5.028320619924853130e-02 3.651587066259598391e-01 -5.651133178188652009e-04 -8.049623259339079237e-05 3.345087213073726085e-02
7.500048452127440479e-02 -9.102020675221826618e-02 3.651303206652983246e-01 1.441352983550283609e-04 4.159085365563774971e-04 1.925488430013791163e-01
1.123331047881562100e-01 -9.453571279803658911e-02 3.651328064336529788e-01 7.318419439117780602e-05 3.634789518494074313e-04 2.513182269475698338e-01
8.180467661390225520e-02 -6.009904352411820500e-02 3.647993093138087728e-01 -2.242267470648387061e-04 -3.078221960917104367e-04 3.073130054640356712e-01
5.331283248914332751e-02 -3.161560524807938751e-03 3.649288200305169649e-01 -8.452761420555869685e-04 -1.074688640231059433e-03 1.642329420244767468e-01
4.578996108901482731e-02 -2.367628732249880616e-02 3.646847893168111976e-01 1.472431597970388006e-03 1.236931696400773127e-03 2.070907626498458554e-01
-1.773051637259778768e-02 -1.024814756202745841e-02 3.647822616096553228e-01 1.000018823554158713e-04 -8.067773454431268528e-04 3.112185208455711324e-02
1.111695678197969703e-02 -7.743680438736620653e-02 3.653212480401745732e-01 -3.877409645938867779e-04 -5.785205964589972482e-05 1.417146039627587562e-01
3.076589695562430976e-02 -7.556729043391445522e-02 3.653545166208000960e-01 -1.500522029681829487e-03 -1.184468647586828498e-03 2.168884156076110736e-01
4.916895420180073667e-02 -4.781226019921790138e-02 3.651185859492849239e-01 -1.746205750938090392e-05 4.587961883570447269e-04 2.102415815205825600e-01
5.822642376528169156e-02 -4.564768870806542450e-02 3.650888684690944963e-01 -6.398600475126756679e-04 -5.939207082799873461e-04 3.839116379661548506e-01
4.922245728892212652e-02 -6.808008811014951145e-02 3.650039750395852600e-01 -2.246115608525093354e-06 -1.943540618125999769e-04 2.562163962904208669e-01
3.005292377092522692e-03 -4.375676763351538101e-02 3.649967019931095735e-01 -4.137310889368796978e-04 -7.737634656357669349e-04 1.156252080012115518e-01
2.511550382228685402e-02 -2.681069239211264499e-02 3.652722030713513313e-01 -1.002532554897006805e-03 -3.109628941828634636e-04 2.278843017365991541e-01
5.135787951120061867e-02 -3.993607125931605134e-02 3.651727269438528323e-01 -1.245302446259087244e-04 3.913700960022912286e-04 1.567136286046293125e-01
4.739536167324816252e-03 -2.257189934161231773e-02 3.649110861356786861e-01 -2.463944007319337874e-04 -8.063858264253568166e-04 1.259528065193195323e-01
7.162036612370153814e-03 -5.338827589637332866e-02 3.652837418364111577e-01 -1.113493626782633295e-03 -2.014686322995857832e-03 2.435053052554873310e-01
-8.188353369566213347e-03 -2.960070586239865395e-02 3.651460704173040694e-01 -5.167642735581020209e-04 -5.560444017007651986e-05 1.191619159534624828e-01
2.290965325321813253e-02 -2.965743055506413900e-02 3.652383156935326003e-01 -7.846639608345126532e-04 -7.895202513955518805e-04 1.968333091677194058e-01
3.473538885161508993e-02 -6.512896448375520009e-02 3.649876313775916037e-01 2.105235611725280462e-04 2.939676241874148756e-04 3.315467952584120748e-01
6.969353764477910496e-02 -8.085538864780457413e-02 3.649478044453693948e-01 7.048752062150078412e-04 1.317383916139909907e-03 2.631784083616636738e-01
1.540393517128494684e-02 -5.374892915917769270e-02 3.646327418822612465e-01 8.839877892844077208e-04 6.397516784960730540e-04 2.727356011203135866e-01
1.673535442962848299e-02 -2.132633215519993616e-02 3.646690176503049052e-01 7.486198811880056571e-04 3.089086297730118881e-04 1.268155649623854131e-01
4.307853129314923035e-02 -7.610375116944624596e-02 3.648459727083707693e-01 9.245376474246244517e-04 5.931855526137105221e-04 3.170820130078665922e-01
3.401086747947048433e-02 -7.010060622790076357e-02 3.649699226791269235e-01 -6.408705034006432274e-05 9.086297108930311184e-05 2.734912064788573294e-01
4.326447931993950696e-02 -6.581489650877171693e-02 3.652871623900982856e-01 -5.524963269635428057e-04 -7.519469777175904557e-05 1.235494714129517363e-01
2.967847093606921366e-02 -7.611195744923657247e-02 3.652605207043299052e-01 -8.220041670228660094e-04 -1.234647303209992011e-03 2.370262342196645111e-01
4.120368307877857877e-02 -7.809954106520482220e-02 3.646074988778648107e-01 1.088324588210661057e-03 1.304809007730229091e-03 1.684740001377236229e-01
3.984496698914329754e-02 -3.651200866995746308e-02 3.651378706711208011e-01 -7.057140336276953273e-04 -3.163552694567558338e-04 1.429790013577805774e-01
3.765121216946618055e-02 -2.442772712767684457e-02 3.650520723025590941e-01 -2.275278828584141881e-04 -4.010618228018030781e-05 1.866350582395329416e-01
1.594542550568743555e-02 -1.800285139182393815e-02 3.649574192530558037e-01 -3.029972593966833317e-04 -7.653052266604295530e-04 8.470581645087824074e-02
4.958882737905510873e-02 -7.547386187516469391e-02 3.654005892944269807e-01 -7.219750415413480780e-04 -8.105691278005476216e-04 1.974470599314709918e-01
7.569251654128565654e-02 -9.235723757638643339e-02 3.650826302492793385e-01 -5.796195246709687481e-05 7.224008491971439414e-05 2.313529259180732989e-01
7.763864101442771726e-02 -6.945869031507734270e-02 3.649620990346636451e-01 -1.537419024863224807e-04 -2.329686399467193240e-04 3.732436139396596575e-01
6.642062119764759187e-02 -7.466104868886383472e-02 3.648890082790646194e-01 3.989661709697899764e-04 2.580171385813815384e-04 3.401784939894350046e-01
6.366726948259665564e-02 -8.183228464552338988e-02 3.647312316369806240e-01 1.296969252390786686e-03 1.638444062451749252e-03 2.634610425882402684e-01
6.967362710456224961e-02 -7.000096216795659299e-02 3.651281814094853306e-01 -3.781818745701010214e-04 6.099071942376694871e-05 1.376716366034433092e-01
2.277399106589653513e-02 -5.412608813790311529e-02 3.653058439889132480e-01 -1.213239105399028768e-03 -1.766260183460626430e-03 1.293858178941502957e-01
2.142919884639663680e-02 -7.058943329832002844e-02 3.651504665732862032e-01 -5.431146700514920787e-04 -1.093596206055940170e-03 2.789333946509539031e-01
3.165834623246399637e-02 -3.750904567666399347e-02 3.652285185927337530e-01 -7.677955863592183855e-04 1.739811286283274446e-04 1.865816809024503087e-01
9.189322329969898395e-03 -3.639429919856001366e-02 3.650544623384948673e-01 -9.842570949845363417e-05 -1.100612306363834338e-04 5.157454950709967900e-02
-2.288866135027187859e-03 -4.719281723316201549e-02 3.652344168508813160e-01 -1.008348755779483758e-03 -1.201625776312875097e-03 9.632430566151177487e-02
4.222072924683899220e-03 -5.656840008509927270e-02 3.653085017489153263e-01 -7.918592183141587521e-04 -7.932415877268663915e-04 1.206134487273901185e-01
1.390032408721427262e-02 -6.112153137098109285e-02 3.651964828943840002e-01 -7.281833248099190640e-04 -9.958897383214801446e-04 2.337929720136943390e-01
2.947572728543573078e-02 -6.680947345606363941e-02 3.650957025232948183e-01 -1.242566828872041656e-04 2.900005215674617476e-04 2.346091123883816687e-01
2.136446564807865933e-02 -8.174352507757624842e-02 3.649591652217197835e-01 7.151039483803452580e-05 -3.957099726760617128e-04 1.322027656078049174e-01
1.017871155948108647e-02 -5.757685335214493549e-02 3.650286265529928409e-01 -2.701633471082265153e-04 -1.431155942923153113e-04 9.730151991304691883e-02
5.826424283950240243e-03 -6.926366147309392929e-02 3.649658102988078689e-01 2.330667143596662364e-04 3.050549285142304247e-04 -9.180020766189034634e-03
1.144634943094993175e-02 -2.095735572219679238e-02 3.652515875957469960e-01 -1.089004289631052618e-03 -4.586590112513474972e-04 7.358897698154476252e-02
1.121811261204273130e-02 -2.388482036487342072e-02 3.654223136897936097e-01 -1.813838892839493436e-03 -2.239235896070594905e-03 2.618211443590255927e-01
2.921614945189899074e-02 -6.462441735761545458e-02 3.652346418583592436e-01 -4.966835771083416258e-04 -9.456675919950661112e-04 2.044867833087009867e-01
6.837955882596323531e-02 -1.037833910722110453e-01 3.650706056572788905e-01 4.090442346394384220e-04 3.301352727250329963e-04 2.050952903937516836e-01
5.849915438636379278e-02 -9.356819748896778866e-02 3.649064024149225594e-01 -1.301129567446754993e-04 -5.721341685098176120e-04 3.142185655053940652e-01
5.556025070199591132e-02 -9.622405225455882283e-02 3.647246370213539368e-01 7.555387467177626442e-04 9.769587640226619699e-04 3.448039601361613804e-01
7.754826063108240242e-02 -1.002056308728829365e-01 3.652949624115912619e-01 -4.861281896340890357e-05 8.476572625047196002e-04 2.702730828777408778e-01
7.878402082162461184e-02 -8.051287056932066033e-02 3.648641909788610249e-01 4.900627141488033377e-04 1.224346355079077324e-03 2.387838881357749465e-01
4.251417644947422941e-02 -2.656714355324564861e-02 3.650701088794858773e-01 -7.924291667460482691e-04 -4.955913296234754116e-04 2.672328066524443657e-01
6.673627710044781336e-02 -1.191925364478244320e-01 3.649029681253471713e-01 9.607250606288337148e-04 -3.604592014791197099e-05 1.281407846258574290e-01
4.174964574677695467e-02 -9.215705226829271068e-02 3.650357409263332298e-01 -4.832490797239696076e-04 -1.957822930427642930e-04 2.036868943296044343e-01
3.250971985162387935e-03 -9.079423324556332164e-02 3.649542552293623121e-01 2.862732436143841197e-04 1.821550364749116937e-04 -4.162524276105569049e-02
-3.745573420503667348e-03 -1.666077306336667674e-01 3.649490628344893572e-01 3.017260175380285288e-04 4.314803615515997305e-04 -5.685955563817320785e-02
6.953659303189495267e-02 -1.887908125167230278e-01 3.650428226786801011e-01 -3.699514504606088460e-04 9.820609654327397062e-04 1.958392958531743333e-01
1.092612437733232050e-01 -1.114647766359728870e-01 3.651118294270526698e-01 -7.856565502389362566e-04 -2.371308221851476565e-04 4.645705116983830235e-02
7.194185531190576410e-02 -1.143898265453362900e-01 3.649618258886535571e-01 4.409965892193160562e-04 -1.468089084977570666e-03 -1.428868292019631545e-02
7.936294934473062113e-02 -5.239609431867920525e-02 3.648490636415281374e-01 -2.897737745162654794e-05 5.610396536700799170e-04 1.224817722062842007e-01
7.983089845749552493e-02 -7.064862979094807538e-02 3.651242664858352915e-01 3.143222151829305191e-04 -8.024053779782511686e-05 7.056266650508630223e-02
5.434164362868379450e-02 -4.344588116660748345e-02 3.649008697691166203e-01 -1.168409100331311862e-03 2.631306374642367074e-04 4.195432311241143603e-02
7.683208186463177936e-02 -3.508321775644248491e-02 3.648131039712084744e-01 5.712578758981474243e-05 7.179178622961772697e-04 6.183156194496045727e-02
9.151237155631489206e-02 -4.989876285163784980e-02 3.650824091324347265e-01 1.317821190658140587e-03 -8.106251614557321780e-04 2.687231889933593132e-02
7.561992970394494640e-02 -4.112069209350690396e-02 3.650723813788341876e-01 4.033570684028444449e-04 -4.653887788617142832e-04 1.781551726944906044e-01
8.022561316547720256e-02 -4.460803976157903111e-02 3.649462461814757530e-01 5.004544888428347042e-04 2.380103061723877424e-04 1.507259103140655143e-01
6.126388079212393561e-02 -6.268759751441413397e-02 3.651097360738747577e-01 -1.041413734380142132e-03 6.857381920015900552e-04 1.282167307377753140e-01
3.518269807745715017e-02 -2.631423223807685674e-02 3.650422982210431155e-01 -6.488484009125623092e-04 -1.636134428510298885e-04 1.198372592664744413e-01
2.748779937471057186e-02 -2.651401384637787351e-02 3.650428616306604646e-01 3.138618443514642982e-05 4.786565676318088993e-04 6.712998439385682581e-02
4.633788986912928953e-02 -1.919073808044811230e-02 3.647459283511276240e-01 -1.827737260008364300e-03 1.380414518580468227e-03 -9.286904235554457876e-02
1.115709463004535273e-01 -1.812573604810901323e-02 3.647275920066650468e-01 -4.405109319719872907e-04 1.506119303709194937e-03 2.006215455415679902e-02
1.563319227667176181e-01 1.041349044923944520e-02 3.650959570767078888e-01 5.758551676743269053e-04 -6.378197685328832476e-04 9.146478789512267615e-02
3.450806690638200808e-02 5.195633633658052614e-02 3.648912756164311988e-01 -2.200338308869696346e-03 6.265800473839273563e-04 -1.178764058353377192e-01
2.000644485514158077e-02 1.268139729281659439e-02 3.653060272295083344e-01 -5.776358070305787388e-05 -5.708589753314174519e-04 -4.369279125917904100e-02
2.233040621326418118e-02 -2.042037736710514487e-02 3.652681465596194776e-01 2.113794466617539261e-04 -1.128379047626427805e-04 -1.168737083981568753e-01
2.928451009376072112e-02 2.128279666613739317e-03 3.648289729856198926e-01 -4.071282741384563836e-04 6.888161677292118940e-04 -1.413799912069111930e-01
1.380430044522021511e-02 -4.253103657172531936e-03 3.654246257799798614e-01 -9.693349897121175717e-04 1.525479429752833358e-04 -7.339073319141498075e-02
9.135224387672410615e-03 -4.653757475455432002e-02 3.655927687556945749e-01 5.175208270751166647e-04 -4.288876564096094765e-04 -8.360059745949949273e-02
-4.166389355285436864e-03 -5.605684133610944891e-02 3.654539762086052579e-01 -1.301900394351423844e-03 5.551463078673568932e-04 -6.319920649066944340e-02
6.188109308904197331e-02 -4.967402529578299197e-02 3.641936005317770730e-01 5.768065667150032872e-04 1.084208626663604605e-03 -2.093008954062738070e-01
5.798846010723057720e-02 1.433179836773806025e-02 3.649430385917994402e-01 -8.354550518266013089e-04 -3.011412314435322492e-04 -1.642089030102546476e-01
3.405152425974924263e-02 2.601798123473748545e-02 3.651138531925885999e-01 3.249667382937104472e-04 -8.283690500926477185e-04 -1.207989202769290116e-01
1.811484009628019660e-03 3.132703590981558098e-03 3.651079951815424662e-01 5.701480335597434480e-04 -6.618016836789498807e-04 -7.445375123280328911e-02
1.930755269822770348e-02 -2.016389390037310464e-02 3.647033060856555986e-01 2.039772739446013669e-04 9.678169447667916330e-04 -7.270206543360922423e-04
-4.308245123055636644e-02 -1.003631234782857706e-02 3.658121557945668290e-01 -6.972205243624263324e-04 -1.343707214965375336e-03 -1.427447155877543672e-01
8.193612561164359542e-02 5.282811473862240176e-02 3.640392425643285135e-01 1.056221658861827492e-03 1.103093092858476202e-03 -1.033447847746301607e-01
8.611284845321268144e-02 7.421478599170704127e-02 3.649041940570776354e-01 1.628151563345840019e-03 -5.348230901177462989e-04 -1.275470300307891998e-02
7.317893186425536434e-02 1.131340655531606065e-01 3.652041487556604848e-01 -7.858641053701778028e-04 -2.505363223062763824e-05 -9.490429185693885494e-02
1.462575309733345034e-02 7.180166470637190657e-02 3.647839219608533523e-01 1.001644471241445273e-03 4.014182125290508473e-04 3.092948746508191252e-02
3.596734921153033754e-02 1.076550847400056660e-01 3.633827983074821577e-01 1.262646581638763709e-03 1.676330321148803261e-03 2.188371588109486177e-02
1.127856900256230532e-01 4.003386891690424026e-02 3.647372526420461503e-01 2.953959014404503882e-04 1.387734419791646870e-04 7.610995050937788275e-02
7.116824376859988421e-02 3.914898464305845149e-02 3.656469962586754718e-01 -2.554229839676239004e-04 -6.354798188934694106e-04 -1.350780952963993586e-01
2.515636794857103314e-02 5.327638496619514080e-02 3.656452404724050975e-01 3.139499148086409612e-05 -7.058412410162215409e-04 -1.379377913770492847e-01
6.716258978727818185e-02 8.227951650495612945e-02 3.646800382927273265e-01 1.599782186125914924e-03 6.178132231274047247e-04 -1.036128514426005037e-01
6.882869882303664644e-02 7.059899486241631716e-02 3.653508033947685529e-01 3.460732466538507263e-03 1.842860433005973238e-04 6.485806637111000972e-02
8.983853117049782344e-02 1.607828902712161168e-01 3.642951987076461506e-01 -7.149623087603157933e-04 3.589140979388421486e-04 -4.913890276133502100e-02
4.199965440364009095e-02 1.362999356562000219e-01 3.650287939296493200e-01 7.166817854662356100e-04 8.583348161087070742e-04 2.493107480741571166e-02
3.294847585765568743e-02 1.287939348351151703e-01 3.650795794713044273e-01 -2.954521451443526217e-04 -5.109173135520114501e-04 -5.590850673857163111e-02
7.437240790053205319e-02 1.490753478346947825e-01 3.652174152518342654e-01 4.670361576819635069e-04 -5.879439972269241845e-05 -3.658408850595393919e-02
6.252888909050074995e-02 1.435459661990664271e-01 3.655211542061201357e-01 -2.268529723120091073e-04 -1.378997616727614802e-03 -9.357792716395690880e-02
2.211197869344094791e-02 1.426490767188277331e-01 3.645454413647953862e-01 -4.026613118814427765e-04 7.274302011932116604e-04 -1.365079051279810829e-01
1.146449942867717661e-02 1.774488094573198615e-01 3.650193026536601715e-01 7.530963345412153417e-05 2.031102952749053719e-07 -1.355075324691463459e-03
6.864105415063871674e-02 2.252742460228358834e-01 3.649256366994310108e-01 -2.626897015468901658e-04 4.760985312121686483e-04 6.913746852203017483e-03
5.749168686361978697e-02 2.108825526071877454e-01 3.650837760662755116e-01 2.949605832297909954e-04 3.088474735229447109e-04 2.569081592017037965e-02
9.870834468135743223e-02 2.688549673256900863e-01 3.649554229325251420e-01 -7.750146045375376274e-04 -6.364707633364975097e-04 9.532933189001228935e-02
1.396898749919311122e-01 2.267697544610476623e-01 3.651742823763527435e-01 7.690794793561517642e-04 5.805138308205810100e-04 1.057704017062301577e-01
7.496830050560270020e-02 2.045747966569765042e-01 3.648971088413038855e-01 1.437239556861303095e-04 -2.767379103343568770e-04 -1.021857035136836470e-02
7.885385081368842530e-02 2.458420905946535062e-01 3.649116752736176750e-01 -1.470899972445547711e-04 -1.260525055721382773e-04 3.652096799080482153e-02
4.678174327154804163e-02 1.858411755821479383e-01 3.653271731419366342e-01 4.940144768041499585e-04 -4.399569112197477963e-04 4.700742859189214334e-02
9.746185949955880543e-03 2.596745887022926524e-01 3.645646282895208534e-01 -5.634911230788419885e-04 -2.412549933252592499e-04 -5.305704624306498141e-02
2.347314314881094113e-02 2.219915327404684835e-01 3.650561222133915651e-01 7.895949659930773202e-04 -1.026734572131703571e-04 -1.932468921211038249e-01
-4.114481647283575044e-02 1.363481190344962846e-01 3.646694310052370769e-01 1.043133473128110382e-03 -1.026161216134417698e-03 -1.945709880567990380e-01
4.408087838256730118e-02 5.105028938901794155e-02 3.647918208206730739e-01 -1.777974562489652223e-04 8.415465064215946374e-04 -3.903305537418272908e-01
-2.236357613490163807e-02 1.336485866496947006e-01 3.648545867159931344e-01 -7.379482514064456726e-04 1.525530946076390825e-03 -2.931297422902014449e-01
2.086957177880930867e-02 1.506178430070631569e-01 3.651662155531583132e-01 6.870761260789894857e-04 2.099147466974474706e-03 -1.554897522246302122e-01
-8.730267023008792676e-03 2.295869291606314755e-01 3.644995095055293399e-01 -1.156986761330538365e-03 -8.962540118731483806e-04 -9.719702142170694170e-02
-1.263973745150308997e-02 1.765966477673568957e-01 3.651257076778574584e-01 4.212519975933792511e-04 3.421720564170318700e-04 1.955943974797032595e-02
2.656360681306024416e-02 2.233103999710448762e-01 3.649287913169246833e-01 -2.821652532286813165e-04 -2.536053815201196504e-04 4.296498878120952325e-02
4.103723254957025030e-02 2.008803845601947469e-01 3.652757963780406958e-01 3.134725634398852667e-04 3.214269820066275262e-04 -2.194524568720516711e-01
-5.526948162187383939e-02 2.581394434154276052e-01 3.644701506105370026e-01 -4.779794060623199030e-04 -6.343104524011818545e-04 -1.013321124802413903e-01
-5.250696227187224424e-02 2.582243438070976338e-01 3.650597579986644692e-01 1.520541715836749668e-04 -6.366867928164798070e-04 -9.253761302031378311e-02
-1.033174242674125137e-01 2.348088542401731149e-01 3.648052213013705525e-01 -1.150390620715474268e-04 5.337106505219205762e-04 -3.473230590935761503e-02
-2.085022987236236428e-02 1.800148562585136003e-01 3.654577683341524996e-01 -1.333577777543805832e-04 1.078127238227852280e-03 5.135448132612934619e-02
-8.070997685390671195e-03 2.134127061450214469e-01 3.647174755256327172e-01 2.577699889093320045e-04 -3.840779772108130039e-04 -6.336533990252997406e-02
2.536373179353494309e-02 1.907263192270956531e-01 3.649932740959376254e-01 -2.929132446778857259e-05 -2.578805087947778928e-04 -1.286657350278089251e-01
6.296507245891007354e-02 1.627173643649941215e-01 3.650132118917035484e-01 2.848400254491657412e-04 9.066874282236969413e-04 -9.439031414062680481e-02
7.325082050028026981e-02 1.877451362023898618e-01 3.650369242640127965e-01 7.989591457841451372e-05 -1.675670063316799484e-04 -1.191654570346475511e-01
4.054940983509033869e-02 2.180441766829130656e-01 3.648680327663271217e-01 -6.646237301321802297e-04 -2.256908831802633406e-04 1.657530187222220524e-03
3.589836764851120354e-02 1.869756213147289459e-01 3.650103529907171573e-01 1.542997871079242699e-04 9.830576018462681994e-06 7.035972511064529644e-02
2.187106293251883660e-02 1.885943283199828235e-01 3.650114910989130657e-01 -8.179495767893112167e-05 -2.789959906727867869e-04 9.647087083797871443e-02
-2.509776407235604634e-02 1.881830296204261010e-01 3.649360205356344533e-01 -9.486331890070509457e-05 -2.518470429562169556e-04 -8.854635606686989124e-02
-6.627682890028663287e-02 1.549608616030485886e-01 3.649979243609316470e-01 -2.016638063146732025e-05 2.332118257576029890e-05 -9.200791109403717860e-02
-5.657454413598009962e-02 1.939064100743198293e-01 3.649950030495868747e-01 -9.071258062115436776e-05 3.593360363044292198e-04 -1.347831394908130254e-01
-6.143865909271603587e-02 1.908169168252371595e-01 3.649028576537355906e-01 -2.788623891050377962e-04 2.984118293659765775e-05 -1.212065257779146032e-01
-4.656586798587187409e-02 9.290181010056559885e-02 3.650268177803095426e-01 8.053846151102894441e-04 1.871492478473408237e-03 -5.645457103210014399e-02
-2.224015704606830193e-02 1.154788826586472805e-01 3.648791837638283853e-01 -1.032085311362689777e-04 9.855923142395453876e-04 -9.458658236917766304e-02
1.202301387360359478e-02 8.166722940782081275e-02 3.650297670414570095e-01 2.751023833167875955e-04 8.620305843878933944e-04 -7.257248242271152616e-02
4.279666086581489920e-02 9.684735806172863060e-02 3.650787862244081472e-01 -7.439559741999251315e-05 1.089438492261056597e-04 8.790724475128819382e-02
7.003489720407930774e-02 5.934990407535587625e-02 3.649939330570748375e-01 4.144044272276857765e-05 -9.829842543761867332e-05 8.085203891419864841e-02
2.866478652019046475e-02 8.915384946715487757e-02 3.649876180609752940e-01 -2.002189495042448145e-05 5.197698435760452840e-04 -1.327057150441509660e-02
2.607674950274741291e-02 1.445980871197638240e-01 3.649863963785549559e-01 -8.857245308642882709e-05 -1.580823586656436889e-04 -2.504266614106534505e-01
2.515198344813148953e-02 1.461704971382078166e-01 3.649863996260582777e-01 2.732002038877749832e-05 2.335053173690780203e-04 -4.857696785597114160e-03
