-6.608652117004870652e-03 8.792464906492264420e-02 2.102838956063061149e-01 -3.295241174227784485e-05 2.758719132561837997e-03 -3.866647735457312551e-01
-2.123663656056298116e-02 3.568563993726150962e-02 2.109501432262822496e-01 -1.961491245618836299e-04 3.981328716045262270e-03 -1.975845596484364919e-01
4.450979689200837419e-02 6.761703066803920192e-02 2.114804496416355373e-01 -5.725456826076631440e-04 4.990669617154232761e-03 -3.645729511722762273e-01
8.180080140263627786e-02 1.158209715642338940e-02 2.122344462222834349e-01 -1.980381138738397267e-06 6.336182270998943870e-03 -3.703964424078334261e-01
1.811004965322970256e-02 4.579980431900077670e-02 2.126868991142460419e-01 -7.765656858753525009e-04 7.463830198448956343e-03 -4.155090413187915166e-01
4.396983841200111098e-02 1.264776878943750862e-02 2.132245285792458422e-01 -7.703546127440374794e-04 8.475797008830599638e-03 -4.026447890863483758e-01
4.583902267651292217e-02 -2.324230291459052078e-02 2.135856384545140596e-01 -8.342537363209025485e-04 9.026170084062760252e-03 -4.244920383281403087e-01
1.080848717553385338e-02 -2.608841637792162077e-02 2.140111274662570007e-01 -1.000695954391502039e-03 1.009873868562874942e-02 -4.017398222525838114e-01
1.243488343344693603e-01 -3.693271522157762221e-02 2.143445331513679220e-01 -9.829243984423336345e-04 1.074582391034263097e-02 -4.121127621482277847e-01
1.392260336228594020e-01 -6.393637965139191415e-02 2.146962917134628279e-01 -6.569430632842871006e-04 1.165441314544704045e-02 -5.808452242084160000e-01
1.201286292590788563e-01 -8.065840028485453395e-02 2.147610205500810610e-01 -1.242282106315809823e-03 1.156602923783213097e-02 -5.843700871063283175e-01
1.505046492947065551e-01 -1.507123171068172340e-01 2.149723001146078283e-01 -9.137648555752049366e-04 1.183690789538798839e-02 -5.808688885281766412e-01
-1.749258221741701591e-01 -1.478919122228101457e-01 2.058367762896474717e-01 -2.752053952212207485e-03 -1.711276657253433739e-02 -2.551749027287872340e-01
-1.921886671248149436e-01 -1.000515927055759535e-01 2.058791371509998691e-01 -2.763222080501245501e-03 -1.682573747078810675e-02 -4.188071052416681983e-01
-1.367691882990803853e-01 -1.292874040987345430e-01 2.059273920007490544e-01 -2.852643537746235320e-03 -1.696898604489733078e-02 -1.237908329991932593e-01
-2.117524718332125244e-01 -1.202671788315441415e-01 2.060203859693681139e-01 -2.613774148072044775e-03 -1.728298603550459250e-02 -1.019419431551225469e-01
-2.130019559803262019e-01 -1.102524942238099770e-01 2.060552039296888460e-01 -2.537372537336034153e-03 -1.720544835589822921e-02 -8.586849266934480640e-02
-2.044273202967287484e-01 -1.149560773125038460e-01 2.060158551657475523e-01 -2.575437609590350285e-03 -1.718836685387115787e-02 -1.076923934281689837e-01
-1.871594983796845413e-01 -1.246090446410629687e-01 2.060326268982053954e-01 -2.635646801682908595e-03 -1.694552996254278937e-02 -1.515590934898061459e-01
-1.923468484625540376e-01 -1.499088678733378754e-01 2.060816399315129055e-01 -2.503830303969428479e-03 -1.697082424393695638e-02 -3.346268754937033185e-02
-1.857488688029709234e-01 -1.317986124822076999e-01 2.060769470460137032e-01 -2.471703271781449784e-03 -1.722086146637710757e-02 -1.022766291308966069e-01
-2.326975989156228053e-01 -1.529986935144734272e-01 2.060745283484654022e-01 -2.368548446340975298e-03 -1.735196310428015892e-02 -1.093161984619922533e-01
-2.351591390854935182e-01 -1.021257092230135194e-01 2.060098819864386033e-01 -2.714830127456668157e-03 -1.687662855247005003e-02 -1.687782110890542198e-01
-2.146347758324696209e-01 -9.277748729178593445e-02 2.060343216088426632e-01 -2.686475625074173645e-03 -1.697063863588831392e-02 -1.006782667322281000e-01
-2.499250705401827588e-01 -1.144713859811338635e-01 2.061138322484225571e-01 -2.222388439351218655e-03 -1.752474510288598575e-02 -1.582076130627908805e-01
-2.021805929423533543e-01 -1.242753223687916297e-01 2.060344123412424788e-01 -2.485106810349884798e-03 -1.690674288797434227e-02 -1.013290750856265798e-01
-2.269072282433325649e-01 -1.110210577632526480e-01 2.060060499432317949e-01 -2.617236744182272878e-03 -1.709158301497795338e-02 -9.142214667877329726e-02
-1.839755018576491041e-01 -1.223691891653570230e-01 2.060524221705664627e-01 -2.543654607763545881e-03 -1.682278916824347589e-02 -1.256720624844513967e-01
-1.631469212142599989e-01 -1.324986036151655222e-01 2.060459707134876806e-01 -2.438327778493186698e-03 -1.718155683367102865e-02 -8.268932505453251147e-02
-1.954233326307345808e-01 -1.222363005212055015e-01 2.060488566984595149e-01 -2.508003959133205552e-03 -1.723864409423332342e-02 -2.019717383070216699e-01
-2.101187812590427084e-01 -1.240690992492727157e-01 2.059956338582295543e-01 -2.612412761439801556e-03 -1.706628076353793391e-02 -2.039607689613266439e-01
-1.570670500627694421e-01 -1.204855849348602653e-01 2.060249594468608336e-01 -2.692819425799184482e-03 -1.677002652313908104e-02 -1.998940465386328524e-01
-1.842601039821680220e-01 -1.483825996337005959e-01 2.060404638746061168e-01 -2.353764686246550414e-03 -1.729649709284349079e-02 -2.033036197165044023e-01
-1.709017305315527480e-01 -1.227345200466038594e-01 2.060067433519319757e-01 -2.810593651614401878e-03 -1.702566930247281091e-02 -1.026765162136734771e-01
-2.284828851370021841e-01 -8.384668707317012581e-02 2.060056210513842023e-01 -2.594182702991454977e-03 -1.715814248628678290e-02 -1.797442199455661360e-01
-2.197616841330254644e-01 -1.112325279864483235e-01 2.060361974999026513e-01 -2.616347009948338798e-03 -1.703183634606240948e-02 -1.245113282176031483e-01
-2.103706269139139218e-01 -1.164023314836586942e-01 2.061696361762807572e-01 -2.347763375287052843e-03 -1.701698644197374363e-02 9.649231847291925290e-03
-1.745978479209069900e-01 -1.249485888080917179e-01 2.061145664474037797e-01 -2.557870262389184014e-03 -1.703830412217694976e-02 1.853509588580048301e-02
-2.182234778564073885e-01 -1.177566224658920385e-01 2.060473292683226432e-01 -2.437446009042161348e-03 -1.741312458446038491e-02 -1.920959967229886323e-01
-2.295239647513447057e-01 -1.080873928023229069e-01 2.060506401256213538e-01 -2.734385478583505492e-03 -1.673882573189134151e-02 -5.730322082215173751e-02
-1.706084168215339925e-01 -1.019653624288000687e-01 2.060442945818037885e-01 -2.648323069864650693e-03 -1.700454421065308169e-02 -1.036541790547331754e-01
-1.704366099772202936e-01 -1.066981212011675617e-01 2.060440396816072273e-01 -2.557011542757471438e-03 -1.689380833250613348e-02 -2.705400975333601687e-01
-1.734399798998899622e-01 -9.185295876801760628e-02 2.060760397318636139e-01 -2.367506749124663901e-03 -1.728177673934670061e-02 -2.968017017031046034e-01
-1.596707629136033257e-01 -1.144864674241419938e-01 2.060887277985849475e-01 -2.482634294769794133e-03 -1.712738651891034664e-02 -1.413419957175767461e-01
-2.069164528447687557e-01 -1.176492171965908273e-01 2.060398002506129700e-01 -2.521588493230747432e-03 -1.735772991433131435e-02 -1.743413940428625297e-01
-1.847150021661847774e-01 -9.631919624588421158e-02 2.060869551819202172e-01 -2.522630067993549257e-03 -1.693257020873404489e-02 -2.831892374136805723e-01
-2.376535242816268378e-01 -1.027575846611461369e-01 2.059920447892273354e-01 -2.616956117953063692e-03 -1.714383654910168683e-02 -1.866418415879176618e-01
-2.126467442664322083e-01 -1.126391427542664525e-01 2.060659461713628127e-01 -2.595708231379785947e-03 -1.698200370295665021e-02 -1.282640654672171088e-01
-2.028085917709560315e-01 -1.239590811250072949e-01 2.060246862038801474e-01 -2.630312006281796365e-03 -1.694232201898775159e-02 -1.961920941614879177e-01
-1.646919959263073441e-01 -1.204907190307630688e-01 2.060293895512323448e-01 -2.609412328134692351e-03 -1.714420245672719154e-02 -1.727615505423092113e-01
-1.885484802945245897e-01 -9.190265534284931814e-02 2.060282238402999511e-01 -2.784776720864646712e-03 -1.681835113140600288e-02 -1.835979991816283907e-01
-2.005362889960203288e-01 -9.977674028832067554e-02 2.060564412399174539e-01 -2.605558782373084293e-03 -1.703454970504276328e-02 -1.186299629813537537e-01
-1.836841626118100035e-01 -1.171386005303939465e-01 2.060436458578574492e-01 -2.560536818859592955e-03 -1.704494268704373483e-02 -1.678268551613258108e-01
-1.840598823219837532e-01 -9.442135374579732621e-02 2.061076388391757108e-01 -2.459948778989438922e-03 -1.716247842425448061e-02 -1.602132928738482509e-01
-2.023097283346167452e-01 -8.662617769776526089e-02 2.060098261350227222e-01 -2.600209358716304518e-03 -1.721259077686245961e-02 -2.226821270860400714e-01
-1.503325280033944167e-01 -1.141017289109639704e-01 2.060579277588019953e-01 -2.660778426286759292e-03 -1.692661432916063233e-02 -9.848412399213966884e-02
-1.854292087874029882e-01 -6.544470790519464620e-02 2.060741195923589952e-01 -2.511352045783028959e-03 -1.727936834974044128e-02 -1.987248563463700768e-01
-1.946861098773290111e-01 -9.470919666043793594e-02 2.060730230830148946e-01 -2.443899404010024898e-03 -1.699228085111172126e-02 -2.195746995000938673e-01
-1.990050465842233551e-01 -1.135351780489549933e-01 2.060636409363832966e-01 -2.440232464378626776e-03 -1.739514981353369044e-02 -1.543189186250244760e-01
-1.842023249903253224e-01 -8.973286872108808543e-02 2.060732366832639384e-01 -2.703422984518860130e-03 -1.681410129131833547e-02 -1.093268056678993044e-01
-1.637706867071277994e-01 -1.214313024468773594e-01 2.060295503787761828e-01 -2.587564350683333163e-03 -1.684422062205543844e-02 -2.175652539649721995e-01
-1.792123176118714523e-01 -1.192484734824128534e-01 2.060334320776460726e-01 -2.458803091682837828e-03 -1.743899111835481297e-02 -1.638566767922933487e-01
-1.891559742684980894e-01 -1.290953485871428053e-01 2.059899260813018440e-01 -2.682891379521761856e-03 -1.692009584508120251e-02 -1.924160809645918679e-01
-2.430303167027704214e-01 -1.262045037218763044e-01 2.060811203879732711e-01 -2.463367134457514294e-03 -1.724916973976454992e-02 -1.184323660482857060e-01
-2.385009814584063692e-01 -8.919518838435191999e-02 2.059760166314639207e-01 -2.638350347794802316e-03 -1.695308632444107386e-02 -2.312621985760878740e-01
-1.898500967625542379e-01 -1.240577062972906819e-01 2.061240315519081157e-01 -2.311623747087983988e-03 -1.719194200791954175e-02 -6.103322826668661910e-02
-2.244194534191277235e-01 -1.132718327387822882e-01 2.060247604606961769e-01 -2.556265514470417062e-03 -1.700906001712294488e-02 -2.473248176613290772e-01
-2.020070161783705798e-01 -1.189235029479699529e-01 2.060538547582506097e-01 -2.417523117589108570e-03 -1.735315801150362144e-02 -2.172209963466019134e-01
-2.065665975921615327e-01 -1.312863318273952418e-01 2.060898538724111884e-01 -2.579136719411463663e-03 -1.688653348655323391e-02 -9.347731944897513801e-02
-2.042144000254067504e-01 -9.551297134303478320e-02 2.060328970570516893e-01 -2.604271312155415248e-03 -1.699731961985593426e-02 -1.694359989203461925e-01
-1.659630898023076451e-01 -1.178382402800256107e-01 2.060761499068369251e-01 -2.474505921788760013e-03 -1.708541634151103383e-02 -1.579598655475877023e-01
-1.629233506895414463e-01 -1.165064522114359902e-01 2.060184889403056663e-01 -2.728695865930389191e-03 -1.700955042394115130e-02 -8.840499639825832867e-02
-1.832915844445494602e-01 -9.067692429805387921e-02 2.060251137496540985e-01 -2.672928659929856617e-03 -1.723275672802159972e-02 -7.541080032207117534e-02
-1.904383575653612604e-01 -1.049071539873151215e-01 2.060917595023565863e-01 -2.457411173911649462e-03 -1.705332339561580618e-02 -1.341259004122532794e-01
-1.778527069223467261e-01 -8.536616298708432637e-02 2.059920019604701835e-01 -2.917845752480888004e-03 -1.670432776926995821e-02 -1.728833187533574400e-01
-1.680054547027555745e-01 -6.761863658778605179e-02 2.060928790604110161e-01 -2.774126324134573371e-03 -1.665262646490514239e-02 -1.349671083907667268e-01
-1.585744043625684496e-01 -6.616428319593416207e-02 2.062976698354671568e-01 -2.164425443877484884e-03 -1.700600229404767780e-02 -1.510437731963081009e-01
-1.233001204708075033e-01 -5.000093804331866287e-02 2.063958144299343211e-01 -2.436772235747971735e-03 -1.629734504296484823e-02 -1.893925142838855935e-01
-8.084653297331592658e-02 -3.233282942428777201e-02 2.067148421008538350e-01 -2.122022568960180069e-03 -1.588039998326348443e-02 -1.811985840611385068e-01
-1.430840833494003983e-01 -1.665471534191535763e-02 2.070508064747074162e-01 -1.891749309356634138e-03 -1.520652621618742532e-02 -2.541603768024537913e-01
-1.289073228366988122e-01 -5.781384398621645243e-02 2.076204872707081983e-01 -1.363245386878209064e-03 -1.427963728430486912e-02 -2.632698406576596817e-01
-9.337912882697772810e-02 4.984479871844488957e-03 2.081952712107716374e-01 -1.316417703907078740e-03 -1.289447317244182996e-02 -1.751452980215688349e-01
-1.204890540246244812e-01 6.155079690812430629e-03 2.088381685287997169e-01 -1.172959821195043066e-03 -1.121014200050604939e-02 -2.767823826776546481e-01
-6.733909439778626438e-02 3.400978809118336554e-02 2.097701797593832240e-01 -6.314362236609512812e-04 -9.339227006828706296e-03 -1.932031304902010471e-01
-8.877752082332759920e-02 1.892511001157393818e-02 2.107776276083562772e-01 -1.307876952983724457e-04 -5.908382246607032755e-03 -6.174954574841888533e-02
-2.947238195916011827e-02 8.919945038712838448e-02 2.116631856231838693e-01 -1.149069170878224994e-04 -1.604066484102460504e-03 -7.569540260719735680e-02
2.465909289951231931e-03 1.072260392851579619e-01 2.127249056761544854e-01 -1.554852144881224327e-04 3.639412801596586707e-03 -1.166137547317359913e-01
-1.070121047299142647e-01 1.947548731231733554e-01 2.077575370194447157e-01 -3.961713465267489853e-03 -2.063268802423075948e-02 -1.162631648697911163e-01
-8.746075409571596460e-02 1.578028411941700682e-01 2.088356305698648163e-01 -2.018568863803377883e-03 -1.413464928117118789e-02 -7.448389188630602509e-02
-1.197177555867924292e-01 1.701894417238731805e-01 2.098129332726855756e-01 -2.913520269409474502e-04 -7.160090266270078933e-03 -2.261711621171161313e-01
-9.072183854353577104e-02 2.593293218707064529e-01 2.109830822694755970e-01 1.941925645042920254e-05 1.265206578554614646e-03 -1.971315934235601530e-01
-1.584065934840374612e-01 2.810387813425090919e-01 2.122510475369436267e-01 -6.456051897516800224e-04 6.793376601009041421e-03 -7.451422719957158380e-02
-1.746477669721462345e-01 2.260664087902825026e-01 2.135882741830241738e-01 -1.444912375087845785e-03 1.394215781035004244e-02 -3.443084720474844096e-02
-2.609258312609543107e-01 2.789026850853711936e-01 2.059450920301596488e-01 -9.221274438215199161e-04 -1.050941381828909144e-02 -3.616807623661140621e-03
-2.058059742721579377e-01 3.250407793501911002e-01 2.073164061094085464e-01 -2.908092948815117328e-04 -4.555703111681381513e-03 -8.954923650327803464e-02
-1.968298302046893045e-01 2.855217135123290229e-01 2.088237567565128239e-01 -1.077079856018381578e-04 3.245714849622414327e-04 8.197599790064531711e-02
-1.916998764191505111e-01 3.134506296881006127e-01 2.105766842565991448e-01 -1.741844274932904122e-04 3.813473346637829935e-03 -1.263053650940398030e-02
-1.814941473477731104e-01 3.700509779182923342e-01 2.120550733523357545e-01 -9.304332218428174863e-04 6.478121436080768597e-03 -2.113445513600773207e-01
-1.331833714569816141e-01 4.340009022467547495e-01 2.137902783243816329e-01 -4.570763208188106442e-04 9.162008847685941537e-03 -2.175672770894201413e-01
-1.162579160065534134e-01 4.425799531681499643e-01 2.157189588196004038e-01 -5.463225775676198341e-04 1.058440853405121646e-02 -2.423171917000720432e-01
-8.301568896559741173e-02 4.004290332496452942e-01 2.176300808604585968e-01 -3.558221730446824746e-04 1.172203856839343188e-02 -2.567020012355250569e-01
-4.258826283981907990e-01 3.502508344976930088e-01 1.990477838401487620e-01 1.906730354186930796e-04 -2.121548327910402834e-03 -2.430201356781618305e-01
-4.048498499446853138e-01 3.506845577142608805e-01 2.009044411627725069e-01 9.796430901469242801e-05 -2.173732477648357767e-03 -2.261379605043040142e-01
-3.009973558543319605e-01 3.731136303361213269e-01 2.028028965983262877e-01 -8.390244792704059298e-06 -7.083115209165394928e-04 -2.361818650792990859e-01
-2.809779729186403507e-01 3.266252430345813473e-01 2.048435574269147907e-01 2.475998833688649128e-05 -1.494783933106981456e-04 -8.292886615827424479e-02
-2.412689863102076004e-01 3.437031796682898932e-01 2.068555715341500179e-01 3.829045550415696361e-05 5.383658618130202122e-04 -8.260941628566381700e-02
-2.068250915342162433e-01 3.728258402165522956e-01 2.090222246915076632e-01 3.698822256020968795e-04 4.545724448640274897e-04 5.297043402751616670e-02
-1.615571952698574287e-01 2.981488316367753577e-01 2.109295354953519830e-01 1.778462892988760379e-04 1.419490185041512309e-03 -7.945613608678613049e-02
-1.094227305193036376e-01 1.963653529292890554e-01 2.130569100943210947e-01 6.012372132584098633e-04 1.751063498409787152e-03 1.052448062202587971e-02
-4.000131312130529582e-02 2.336013742005220162e-01 2.148228256396217950e-01 -1.158069613584267529e-04 1.615284313928583250e-03 -1.603710001475509850e-02
-2.835682216440675238e-02 2.013630656904728533e-01 2.166841317673952605e-01 -5.745018689056227804e-05 1.884821885836864214e-03 6.782528997840650553e-02
3.723530587787741986e-02 2.330674499919698772e-01 2.184551754770408527e-01 8.355258342132564368e-05 1.715310488998123949e-03 -3.775448779102766328e-02
-3.528107967916331855e-01 1.523231647302033254e-01 2.000768891518172610e-01 2.155066617982833495e-04 2.166027266944213318e-03 -3.853961146363769907e-02
-3.352915079400711762e-01 1.125635952373664067e-01 2.016184787885583196e-01 3.468347201352418776e-04 1.925359907931103965e-03 -2.536346828782839458e-01
-2.180845489438889562e-01 2.162741985835880260e-02 2.031420585294689274e-01 1.804125266264493103e-04 1.406677900166884666e-03 -1.506904484205098815e-01
-2.671635047868478052e-01 -5.810978769418755074e-02 2.044007257255571197e-01 -7.232450935120350209e-05 1.165736612356265420e-03 -2.146515297981747283e-01
-1.764191182282416337e-01 3.557071985343629797e-03 2.056340381880742418e-01 -2.411188594740612480e-04 1.006512427037490644e-03 -3.522767574742385888e-01
-1.904138745392824628e-01 2.296614969592878502e-02 2.070172754121546443e-01 2.906285016000318246e-04 9.329877649539504740e-04 -2.653268893818825913e-01
-1.394479862612035270e-01 2.119910524239113775e-02 2.080095595923395768e-01 1.414575522660486994e-04 8.369485374265400214e-04 -1.966493101364269191e-01
-1.043500608321651785e-01 -1.090099177587756374e-01 2.088455647575198082e-01 6.050749171250070495e-06 9.258208724888083562e-04 -1.566622488715298522e-01
-2.311069381054595140e-02 -1.042375120009426080e-02 2.096236834212430455e-01 1.481941039905664371e-05 9.478300806728830706e-04 -2.405455033276034382e-01
-1.247322856771063311e-02 -2.670560960879045376e-02 2.104243131235584152e-01 -1.271278512305485385e-07 7.729209553946975652e-04 -2.302121092496079990e-01
-2.825354289662980814e-02 -4.946876020536950663e-02 2.108988690295206525e-01 -7.629604188254424265e-05 1.147682242223612824e-03 -3.414524668258922535e-01
3.165571016448893993e-02 -9.922371384354278234e-02 2.115005764928787890e-01 1.323949502888125177e-04 1.050511623050358985e-03 -2.748536191026892950e-01
5.021139890140575990e-02 -1.305049868166841542e-01 2.117394854689380601e-01 -1.247348484331092277e-06 1.137145346637789866e-03 -3.016215445952995511e-01
3.155933874736405187e-02 -7.340417489220314728e-02 2.120880296854638636e-01 -3.538677557252202689e-05 9.263495454213691244e-04 -3.753813901624387661e-01
7.452556288287814912e-02 -1.169448547181420467e-01 2.122340488417585047e-01 -1.120576780015743930e-05 1.227315750447134212e-03 -2.881703339229487182e-01
7.718175579385994078e-02 -8.980005670442897658e-02 2.125221431861299970e-01 2.809302789070468266e-05 1.077087387367301006e-03 -2.850241299013163698e-01
8.174016987219870356e-02 -6.198994295719913172e-02 2.126612970244973200e-01 -1.307775375458230377e-04 1.053532813176077726e-03 -2.321534388085426115e-01
6.619503161363406163e-02 -1.040174395686212921e-01 2.130449675356411166e-01 1.598089184724879781e-04 1.020040941754584308e-03 -1.176649992494984004e-01
6.849408805371101638e-02 -1.582413138409016484e-01 2.132645232739653895e-01 -3.734600644560635526e-05 9.505282457884339483e-04 -2.380881207693184495e-02
2.628117806665760878e-02 -2.026322042100127951e-01 2.136649165778130022e-01 1.211095376321657516e-04 1.025401098721426870e-03 6.028890915268649703e-02
5.987988874773939735e-02 -2.112684118588167292e-01 2.140926685182559241e-01 1.903860132928873695e-04 1.113323229632601609e-03 -8.008020295969936475e-02
1.749743276411975246e-01 -1.300141744374227193e-01 2.145766671818103433e-01 1.501376007149812330e-04 1.265506175078951780e-03 -7.339880972154325112e-02
2.069244545939036006e-01 -3.893199094594211596e-02 2.151771135689710124e-01 -2.172676295262454147e-04 9.455359366125405153e-04 -2.167891373245479647e-01
1.971235301726403377e-01 1.242422221548085057e-02 2.160917776061049289e-01 -1.047306207379833620e-04 8.092780258712049986e-04 -2.721680548815273992e-01
1.493163652099958327e-01 -3.020535157103335436e-02 2.169745152844435032e-01 1.185490969728973325e-05 9.751132291103113432e-04 -1.589436274240051405e-01
1.893600006340313835e-01 2.318599748553872020e-02 2.179366774815107433e-01 -2.790299032687101823e-04 8.300799401139268702e-04 -1.612906092838826966e-01
1.887899943361754374e-01 6.532821962600171561e-02 2.192614663730879099e-01 1.222387791395588782e-04 8.686546886195205177e-04 -2.474919601817041903e-01
-2.040579930373014883e-01 1.414215772581076114e-01 2.003843230401133324e-01 8.061439760639584409e-04 8.252737517831460010e-04 -3.545923799934800891e-01
-1.524842971967963479e-01 1.599882328051198954e-01 2.016942298789237697e-01 3.745338417916408693e-04 6.046576878345659781e-04 -4.897110677237595522e-01
-7.559403240948459057e-02 1.087284636545440691e-01 2.029704343491082197e-01 -2.341781566029553009e-04 9.254082529736601002e-04 -3.412780865301004996e-01
-5.320189443644326305e-02 1.885147834630844510e-01 2.045064281668980688e-01 -1.343310054592487335e-04 7.242403852960551704e-04 -3.350983253033100739e-01
-6.469438605019653399e-03 1.391842368997680546e-01 2.061801782102420932e-01 1.554939344399681490e-04 2.044330599499865296e-04 -2.999814895767822787e-01
4.835471826515475025e-02 1.263549526041404802e-01 2.077723012765488320e-01 1.517705325942308894e-04 4.310544668803420010e-04 -4.806812212221614478e-01
1.765551354091391967e-01 2.407062913779544067e-01 2.094625215482716629e-01 3.655046106969700334e-05 6.776090992134221154e-04 -3.870489881672947718e-01
1.858214102633142240e-01 2.165960499396445971e-01 2.112872508262774174e-01 -3.794272184779829359e-04 3.120673409354318695e-04 -5.842937246499386728e-01
1.905816126602914995e-01 2.880759633820235144e-01 2.132430920017484577e-01 -2.260147595394879398e-04 2.454286970864157265e-04 -3.791688866775991262e-01
2.638165630473044976e-01 3.064823912939714790e-01 2.152518163806981244e-01 2.269992844997202499e-04 2.710544607811135793e-04 -4.908914425766369716e-01
2.563447372940403923e-01 3.444359545226296504e-01 2.170130755318301352e-01 -2.900554568872378957e-04 6.559175255242117144e-04 -5.971577672432789585e-01
2.754960186387408472e-01 3.074959983470220148e-01 2.192622476073415316e-01 4.884427691138425566e-04 2.614137117468485236e-04 -5.457357002390945677e-01
-1.832977573386669612e-01 2.743933197561013171e-01 2.010763004905326556e-01 4.886515777880926469e-04 3.417849014076523298e-04 -4.677622498165588949e-01
-1.413199522841044053e-01 2.794194811513893706e-01 2.034056408887523482e-01 -4.023374738211392323e-04 -2.438533102221644017e-04 -3.789131783795702813e-01
-1.127463923914744232e-01 3.562494224370159057e-01 2.056216309981208634e-01 -3.848858487674583473e-04 -2.292209867844426823e-04 -2.798408120931084597e-01
-5.269688768492251235e-02 4.085843497553440784e-01 2.078027833200955521e-01 3.206379606392016223e-04 -2.864129380261404810e-04 -3.901729382651581424e-01
-3.270749535623768134e-02 4.272562200109227271e-01 2.100052860529681986e-01 -4.695291369170054670e-05 2.818950080803834190e-04 -2.445397269906222637e-01
2.623704134116689596e-02 3.860140522774776484e-01 2.123991628068445103e-01 7.818493455138446281e-05 -6.129323671996005118e-05 -3.653495724123952959e-01
3.596121621521554401e-02 5.637619137560372362e-01 2.147851578583598320e-01 -6.850917164807971945e-04 2.125760599712554657e-04 -5.810404257671674122e-01
6.284923888033855377e-02 5.648714700879736705e-01 2.171926800386312917e-01 -2.592596871266183051e-05 -1.229614067039519194e-04 -5.382464310737136159e-01
5.984728392475702208e-02 5.571665825660422344e-01 2.195899971184318011e-01 -2.820272886495767497e-04 2.879494091579764043e-05 -5.112339111419151871e-01
-4.768397995179687876e-01 6.743949867775076434e-01 2.018069759794874352e-01 5.755652926161086399e-04 -8.282598286554658865e-04 -6.376621947189233808e-01
-4.027339119751213170e-01 5.561351510444531021e-01 2.043008804028368930e-01 1.294241353630427280e-05 -1.117941516468823338e-03 -5.684578408179555842e-01
-3.088319849235973691e-01 5.006233677708764596e-01 2.065782887510911325e-01 5.540158153819579575e-04 -3.890201611278791723e-04 -5.450674273514811707e-01
-2.186855158123767184e-01 5.276020369022809131e-01 2.095158304698023222e-01 1.446232391430243368e-05 -1.448795605450401303e-03 -6.815168799564098601e-01
-1.153824270890901754e-01 5.026568187981438340e-01 2.120149632148061181e-01 4.163791539110556455e-04 -8.344451056323312892e-04 -4.938073926749053655e-01
-1.857981669176294107e-02 4.761755336952740447e-01 2.146978789958668421e-01 4.043513452037292137e-04 -6.045415989310703184e-04 -4.519031743891456787e-01
1.112557993296488523e-01 3.907146473284017762e-01 2.172136753772518913e-01 1.749709956070235684e-03 -2.428688939742571493e-04 -2.237886990836426560e-01
-2.234990214993381741e-01 3.387249023741189524e-01 2.002124802342028498e-01 4.135210944768817490e-04 -6.247110646602164607e-05 6.079847546709060691e-02
-2.039955685132046337e-01 3.874370488090141951e-01 2.030030827552373740e-01 9.758750274645171415e-05 -3.825247335507713669e-04 -4.015468888248979740e-02
-1.783124241428291901e-01 2.886261520929827018e-01 2.058608896264374488e-01 1.183961976488963775e-04 -6.303906802502403468e-04 1.325251344715034918e-01
-5.742663790449027694e-02 2.055239762648285451e-01 2.086224300042555102e-01 1.438696799300789831e-04 -3.475666898024552267e-04 1.890393732898953405e-01
-7.561847814609973240e-03 2.604574294862315176e-01 2.113094905205304963e-01 3.468422098813167911e-04 -1.134014903692740162e-04 3.220597842196312732e-02
1.676426926812291107e-01 2.466439608805157391e-01 2.141297933586688851e-01 2.657845326064030270e-05 -1.395651489882945438e-04 1.659113006282806335e-01
3.061474638017532279e-01 2.250464809750692408e-01 2.169536364872604040e-01 5.718408017263337047e-05 -2.923397436082550167e-04 3.059431478882410071e-01
4.388353738358597989e-01 2.409745161301542205e-01 2.197548656796460831e-01 -3.028519220461420079e-06 -2.703699374529145707e-04 -3.284619210767159708e-02
8.493751596626551020e-03 3.333416172383034670e-01 2.015180010274216782e-01 3.506082452974441693e-04 -2.378293936321042095e-04 -3.252684010705441664e-01
1.628529952444957019e-02 2.558590343175756177e-01 2.043828384332809223e-01 7.488768690068465074e-05 -1.981158986806955439e-05 -3.059663675304449271e-01
4.913474046522198213e-02 3.547493849170076929e-01 2.072141114915963533e-01 6.846329992373090939e-05 -2.480496322454181523e-04 -4.320360458944382254e-01
1.808876872193523888e-01 4.781270382544314246e-01 2.101759178400312011e-01 -2.064441292151991594e-04 -1.421630619538934051e-04 -3.641261635529309815e-01
2.000828240382932222e-01 5.183264585750839704e-01 2.132346426000203410e-01 4.797148480367905928e-04 -1.287610783033733353e-03 -2.171659966832148181e-01
2.747178414409767733e-01 5.023332978609373889e-01 2.160195206899543918e-01 6.951111928623298318e-05 -9.217973952006674630e-04 -2.906417156021213200e-01
3.081973835511961357e-01 4.528700183779130195e-01 2.189640344892382906e-01 6.488081346281978441e-05 -1.075476291219784305e-03 -4.348291800043130317e-01
-2.536228591111442388e-01 4.918282204296736126e-01 2.010385576746153702e-01 -4.542966407619976354e-04 -1.915397510522721860e-03 -8.062424625161790370e-01
-1.728627713376604258e-01 5.405354698598344720e-01 2.038740625643422621e-01 3.069318372567602662e-04 -1.490884905842173452e-03 -7.818384760083137985e-01
-7.139646522036521836e-02 5.399834669621123018e-01 2.068376995523926176e-01 -3.802749746129762049e-04 -1.651532735624291559e-03 -6.100859305693820955e-01
2.866805490010876714e-02 4.625627941883081462e-01 2.095504830981932964e-01 5.689894803102353744e-04 -8.549059818249363360e-04 -4.821986477041760866e-01
4.242549199726248360e-02 3.967975902694790280e-01 2.125882278164986094e-01 7.797572075638881507e-05 -1.820911329131732212e-03 -4.673037046677201989e-01
-1.574697302273671620e-02 4.679226294204740788e-01 2.155111032336737842e-01 -2.763103724778341553e-04 -1.839215533868157528e-03 -3.449701608282287890e-01
-1.107230072346065616e-02 3.745238412930526062e-01 2.182936872766420566e-01 2.243787652817153433e-04 -1.267657105414199663e-03 -3.464000679421570528e-01
-4.036107708205183275e-01 4.205079558143615115e-01 2.010501587536062118e-01 -2.108917800455187893e-04 -1.324734884956137388e-03 -4.273232776353527718e-01
-2.534694525189558623e-01 4.283216239549000881e-01 2.039228188159461497e-01 -9.963652226700426748e-05 -1.286032611777976255e-03 -4.791498415672987288e-01
-8.650899082835633580e-02 3.624917299447036334e-01 2.067985754705206625e-01 6.198830131244692043e-05 -1.259133176641156950e-03 -3.977410436487862078e-01
2.164472320117120929e-03 3.555038021526466530e-01 2.096450204099753467e-01 5.999958216657036881e-05 -1.119775147791615254e-03 -5.810602604824312012e-01
6.475710770823706053e-03 2.387434198442192068e-01 2.124849954517544770e-01 2.858121705462704184e-05 -1.187445056289262177e-03 -5.563356039819163934e-01
1.110352161168194490e-01 3.013730218555058515e-01 2.153882667203809720e-01 2.371920931802440401e-04 -1.290915253176896232e-03 -5.902174229515045889e-01
1.320021292209118124e-01 2.994833369518036248e-01 2.182925867506807505e-01 2.022562126648603002e-04 -1.046903266332542028e-03 -5.544965184751812215e-01
-3.081600977713437328e-01 3.686081029590434488e-01 2.007825002794005331e-01 -8.142109871391310693e-05 -1.966572975712635397e-04 -6.411766619741128270e-01
-2.218529240977470951e-01 2.770262337214928205e-01 2.037595106286604341e-01 2.485897699196028049e-04 3.149100911262567331e-05 -6.672032935909127938e-01
-1.375543538739301512e-02 3.611650714346997249e-01 2.065463263943064232e-01 6.673848117220858474e-04 7.292617830582466456e-04 -6.807807349557178922e-01
-6.189930955664024737e-02 3.175864610045037173e-01 2.095384778779793566e-01 2.999447821402582808e-04 4.135821300586526618e-04 -5.573071481670519578e-01
-1.103692697002421064e-01 3.240529069823376851e-01 2.124606898841731595e-01 -6.546698283332024609e-04 1.931310685945373357e-04 -1.222505311435983649e-01
8.656698624870320935e-02 4.784188085460217565e-01 2.153918660643469596e-01 -4.631376376221424439e-04 6.529272521196686531e-04 -4.319607854296942696e-03
2.566923998406164809e-01 5.433537670197793323e-01 2.184142590656977800e-01 -2.705907243988998293e-04 1.162229144367865185e-03 -4.905670533478201367e-01
-2.456201364300584222e-01 3.876821192547537653e-01 2.010753736748757126e-01 6.031150219944303534e-04 2.007399153121771436e-04 -2.811815059854094745e-01
-1.829166371399375268e-01 3.423989325772771042e-01 2.039715129283062311e-01 3.883203453587501111e-04 6.314408373578920489e-04 -2.923441323826390659e-01
-9.005415348582705704e-02 2.865948008003145198e-01 2.068082150638827499e-01 3.721378846767840645e-04 1.024906147989546089e-03 -2.642942026953051249e-01
-6.069511793393585208e-02 2.955725721765007918e-01 2.099802629070915971e-01 4.662616361257534861e-05 3.859692190886111350e-04 -4.713801570038063105e-01
3.157778321656895537e-02 2.785852120996344938e-01 2.125754400981390568e-01 1.828202431961693266e-04 1.283095461256468072e-03 -5.698587378039103868e-01
1.249894961778894031e-01 3.162709503289385382e-01 2.155036065345784513e-01 -4.229659232322597256e-05 1.316083400533276694e-03 -2.157308349463018804e-01
2.428959727011831549e-01 3.267068856833313939e-01 2.187121702627207731e-01 1.444559711599866154e-04 1.223314029147326131e-03 -2.682113588196908815e-01
-2.740400142971345376e-01 3.504954112508351649e-01 2.015529922269302388e-01 -4.547006455267902183e-05 -1.263359153772317502e-03 -4.481047966267791560e-01
-2.420136188468266225e-01 3.717644076956504451e-01 2.042955062613620032e-01 1.827886685413546803e-04 -4.793407573034081629e-04 -5.053319936509058641e-01
-2.862331111607268053e-01 4.359032687875254997e-01 2.072638386759168005e-01 2.447425653788084360e-04 1.604556808367336919e-04 -6.144825582706862077e-01
-1.978595366214127849e-01 4.258777342108606145e-01 2.102508733351713954e-01 7.289271972891559143e-05 1.140494332620343521e-03 -4.813911026380358060e-01
-1.236642351046747662e-01 4.715477549538567570e-01 2.133133093428670191e-01 -2.029354886576860190e-04 2.206369982358603443e-03 -5.583185778294483814e-01
6.973073744334295360e-03 5.942801294365586129e-01 2.160770291462468795e-01 -2.304475605069134501e-04 2.964339768898485977e-03 -5.364528993587082129e-01
4.188911513128410619e-02 5.784330376613162628e-01 2.191205751078822983e-01 -8.578567524900641502e-05 2.800036754581362777e-03 -6.749183493840054116e-01
-3.242644309536947822e-01 6.217557314069834806e-01 2.019954416512956263e-01 1.259722409491521636e-05 -9.085861143870209780e-04 -4.559622152110355819e-01
-2.199904313415967927e-01 6.369488066981364716e-01 2.048388692635083053e-01 -2.021759651998076331e-04 3.898454788193306394e-04 -5.981528154375369555e-01
4.523708477048235532e-03 6.548543704072261606e-01 2.079792520387346855e-01 1.141802791400522808e-04 -1.982200277281579955e-04 -3.919580328831777649e-01
-7.326723121928994942e-02 6.631615406239226296e-01 2.110492481333688386e-01 1.443654389879807094e-04 4.899039441673856340e-04 -5.398637511062047700e-01
8.539164537175664149e-02 6.115552554379432015e-01 2.139281107848420294e-01 -3.447477301851564909e-05 1.166929989152729269e-03 -1.717450812048741671e-01
1.884651495869444360e-01 6.052065063584877169e-01 2.170750742292838487e-01 1.128725631268020244e-04 1.619299453037592292e-03 -4.764203693261288008e-01
-3.211257378432852416e-01 5.499589008269113455e-01 1.995862954552323210e-01 -1.835773050858666321e-05 -2.149741134222412633e-04 -3.851767554427455442e-01
-1.683228614340246954e-01 6.345593169378652698e-01 2.025932927840186082e-01 -1.010577035859321424e-04 7.388475376966194838e-04 -3.893842383565529388e-03
-2.808997637443831352e-01 6.365257256939527153e-01 2.057752804367724009e-01 1.325058266842819485e-04 5.778419623579207284e-04 -3.989647637235285704e-02
-2.630015348551285048e-01 5.962492220384723041e-01 2.086467517679745365e-01 -7.107776022318554776e-05 6.047877033938548483e-04 -2.232644940850780912e-01
-2.043759648271190610e-01 4.956665796435076876e-01 2.118416725474077111e-01 2.981166734867931527e-04 3.228728986193072563e-04 -3.262239326467423206e-01
-1.818906871290987270e-01 5.098311337079471928e-01 2.145455915334862906e-01 -1.130535285921937822e-04 6.302650610477866962e-04 -1.724226962175739175e-01
-4.737681905914184477e-03 5.696270038628019616e-01 2.176229993535374607e-01 -4.780060719847024502e-05 6.453519655457046504e-04 1.295996586280056539e-01
-4.035717143694574349e-01 5.937615015202726276e-01 2.000698373549475995e-01 -1.957256708510605753e-04 1.038861082060990463e-03 1.533262374359482538e-01
-4.323168014255909242e-01 6.358638100358473544e-01 2.029979602317774079e-01 1.637076552683029663e-04 9.371236553605084754e-04 2.466208551129313864e-01
-4.645711322945531574e-01 6.575308142342697337e-01 2.061247665894404557e-01 3.779237310820228620e-05 7.441042033356647014e-04 4.365935244470429966e-02
-3.279034942685851162e-01 8.597993157380833251e-01 2.090501543729547662e-01 -1.631302163160242480e-04 7.267458164042399967e-04 2.535828624431113454e-02
-1.174347203654822480e-01 6.705936742687418350e-01 2.124355146000995176e-01 3.130333268920137252e-04 4.120365630681306515e-04 9.304594975385208078e-02
-1.923427942642665922e-01 7.296154337661677758e-01 2.150380436509056747e-01 -3.760710453899862690e-05 9.857350255838069446e-04 3.062022065911383928e-01
1.348741198987496170e-01 8.102903151755660449e-01 2.183750877495206355e-01 1.446555523872486505e-05 3.118850477196353447e-04 -1.318048672097229396e-02
-3.711031792503994287e-01 4.352097476117731678e-01 2.005942367007085281e-01 1.405441457105439061e-04 5.435483723932440971e-04 -1.023877033229219219e-01
-3.317280008296026317e-01 5.716891158842949405e-01 2.035483908238412964e-01 -4.625656132737003507e-05 4.218565219866728198e-04 -3.051882604941834609e-01
-1.565754366118879692e-01 4.977433690522339305e-01 2.065859751751003004e-01 -6.979599091090552649e-05 3.904801676391641218e-04 1.187742684118528735e-01
-4.984825031839043574e-02 4.916328746801483796e-01 2.094417989394125046e-01 7.091156789544015876e-05 3.509329243916897473e-04 -3.621316699915330117e-01
1.488571938434541386e-01 6.243479970520703359e-01 2.122184404808852287e-01 2.365219968420383654e-04 3.273215784066402299e-04 -1.979336610242210803e-01
1.699196025112781616e-01 6.065080304427588054e-01 2.154680739286852775e-01 -2.839162828804377668e-04 4.788471983487933002e-04 -1.471597239981215777e-01
2.968596042252450440e-01 5.766885423542432720e-01 2.183571664175802951e-01 -1.444364242399169703e-04 4.089824952164019655e-04 -3.393423009417012026e-01
-3.722257488638982537e-01 4.764747886979494029e-01 2.008895573099492293e-01 3.753326750728359332e-04 -3.988442362581712621e-04 -3.851138305631615633e-01
-2.893703000736854714e-01 4.003714382376611924e-01 2.036370963849047366e-01 -2.591045993082162989e-04 -3.140447604782295194e-04 -4.134912040279838941e-01
-3.245900144300814527e-02 2.614993485637248649e-01 2.064358258078764496e-01 -1.445218345740178998e-05 -1.261057453677636310e-04 -3.701099081949634217e-01
-4.086575523815423605e-02 2.341713414971469120e-01 2.091821442175020307e-01 -1.894653515778504807e-04 -3.367497478650902337e-04 -4.256214067129594492e-01
6.048281075995326495e-02 3.172860462569713769e-01 2.119908995558262843e-01 4.539759420504146283e-06 -1.947942650751644065e-04 -3.438347495217803917e-01
1.524373098609275445e-01 3.295749478610585648e-01 2.147504664936164542e-01 1.275013760527048427e-04 -1.224224532313569194e-04 -3.262788755187572276e-01
2.894461889244805963e-01 3.195370891349991194e-01 2.174381704861922948e-01 -2.159794285388053124e-04 -2.365591122954797281e-04 -3.406815654339988009e-01
-2.491632455720646788e-01 1.693734139600883148e-01 2.000954686812384531e-01 5.779065184824962956e-04 -1.146561254606219288e-03 -1.511520377236034995e-01
-1.560321157402492775e-01 1.075868606171432318e-01 2.024595387965862914e-01 2.665216203500634936e-06 -5.014476800982980162e-04 -7.109544248418990520e-02
-1.292092631369051725e-01 1.107494408738476793e-01 2.050962260785028080e-01 -4.236832673841926431e-05 -4.045387549666066142e-04 -3.713782269187132501e-01
-1.009986315032731230e-01 8.348263282601675606e-02 2.077490600039207380e-01 1.601404772892392947e-04 -2.399557543032856946e-05 -3.064284977961228007e-01
-4.079816049042970377e-02 1.156182536102593333e-01 2.103049507534971996e-01 9.247752061160830991e-05 -2.238379680160563427e-04 -2.812715751046547807e-01
-7.424988062956486279e-02 -2.762075284597972913e-02 2.127585568625543488e-01 -1.227520737768780323e-04 -3.529144288224184004e-04 -1.256250342387872643e-01
1.904676696261204880e-02 -1.853829048238159541e-02 2.153121264189695183e-01 8.516756580655807942e-05 1.725927255642555449e-04 -2.483243033753993190e-01
8.665396440551031976e-02 6.013659830841841525e-02 2.178294285118855256e-01 7.941755464991211491e-05 -1.539366916373244504e-04 -3.689851326779771123e-01
1.684288549405972557e-01 -4.106084758315510508e-02 2.201861531551890794e-01 -9.197592481924181699e-05 -9.181558407864615383e-05 -2.867592865470715568e-01
-2.061388256749352721e-01 -1.087366578662695218e-02 2.021064165993429196e-01 8.929317130373626537e-05 7.616666630959092717e-04 -2.488859162471652176e-01
-1.811815133584648851e-01 -3.086364204396431846e-02 2.043676911366584248e-01 -1.388191741411231933e-04 3.105753433073731983e-04 -2.008200125047276963e-01
-5.690077268409751698e-02 2.989576947171974225e-02 2.065602675497364427e-01 -1.185940085133530372e-04 3.210564916123978280e-05 -4.553559111379466562e-01
-4.556364507312563733e-03 -9.982316571159059737e-02 2.087884286626686126e-01 1.881748649899678814e-04 -2.674105733173633538e-04 -4.064877870766133716e-01
2.135786187286782545e-02 -4.689507668898927617e-02 2.107957492017300538e-01 -2.037007629620397832e-04 -7.597317668449778518e-04 -2.095337167549647939e-01
2.008327194129121140e-01 -9.189088874463817447e-02 2.127471013640699904e-01 -1.439435752112735783e-04 -1.328299115235077790e-03 -5.078065379139096169e-01
2.018615283368660751e-01 -2.922978305191021448e-02 2.145924049154944169e-01 1.169754084427882690e-05 -1.682343411046636388e-03 -3.978553887829947566e-01
2.139555336967733923e-01 -2.483595897056201790e-03 2.163002873519277447e-01 -2.134780750928282685e-05 -2.114708406864809504e-03 -4.904241852719252726e-01
2.015080622661512555e-01 -3.170787122801652785e-02 2.178227232379568723e-01 -5.231086104666435375e-05 -2.639179283032938843e-03 -4.234233621972857686e-01
1.556890071595067315e-01 -9.167465966980128944e-02 2.193168720996161447e-01 -6.648937703337483740e-05 -3.035904052099388031e-03 -6.091882966156336038e-02
-1.504551979489030522e-01 -2.351975207260378203e-02 2.009481975797872133e-01 -6.235941372123803396e-04 5.192240848664766810e-03 -4.151281796125332879e-01
-8.573786317599643714e-02 -3.186274678555701956e-02 2.016743816848520221e-01 -6.658440350590410450e-06 2.918162056506884428e-03 -5.120992319816295435e-01
-9.748895246030958583e-02 4.313964759147670414e-02 2.027231756105580818e-01 -1.076220005023275028e-04 2.491736040158230945e-03 -4.187442961779348494e-01
-1.101613945950555284e-05 7.159077508276585899e-02 2.035913457246293912e-01 -2.745403411873927209e-04 2.223153488855488490e-03 -5.434217764519763127e-01
3.518130427552990103e-02 3.719336610237584939e-02 2.044640929467717583e-01 -3.101887858486087127e-04 1.698983742990414899e-03 -5.801939407293926765e-01
-8.785139042101552248e-03 5.060700423389116742e-02 2.050226722830678083e-01 1.745011034262834086e-04 1.187301006477121555e-03 -4.964640188838349566e-01
-1.635460361335299567e-02 9.705448686610685174e-03 2.056016693032400866e-01 -2.077497519080381849e-04 1.434418295340122822e-03 -5.968473535957672382e-01
3.205957176094566957e-02 -2.801789974992132184e-02 2.059632991134413005e-01 1.878771585341408969e-04 9.859627790785069519e-04 -2.194990292639674434e-01
-4.641210085919885570e-03 8.102725249300955779e-02 2.062349639185075412e-01 -2.904432350630364564e-04 9.929651367732140153e-04 -4.930871078850192490e-01
-1.603323649831486439e-02 1.679162197244025989e-02 2.065175491278740671e-01 2.037386249256449639e-05 5.941086643862365487e-04 -3.824508321438123137e-01
-2.703326926227720556e-02 6.944004819524310368e-02 2.066203329430351676e-01 -6.504347233306051904e-06 7.393945866102074466e-04 -3.103280156570356607e-01
-1.504016890193732477e-02 8.145779335036397450e-02 2.067661906268186689e-01 7.465050310712591816e-05 7.997547960591770873e-04 -5.302873905811110733e-01
4.128447500981462237e-02 7.807010732870753311e-02 2.068329521680839500e-01 -8.087570915367469073e-06 7.830992489546855255e-04 -4.538690083565687927e-01
2.301279167753933486e-02 7.431558150332100154e-02 2.071095701656142096e-01 -3.097515897072919866e-04 7.177659182923310476e-04 -4.022801159065081400e-01
-2.496731055437071550e-02 6.115650822820192095e-02 2.073409979507924716e-01 3.589812212253528940e-04 4.959715142385025819e-04 -5.537521758742668387e-01
-2.967235499395711948e-02 -6.554992174842778907e-02 2.077163704187527382e-01 5.021439809264932781e-04 2.129070161920424439e-04 -4.893046598366331268e-01
-1.123392609768835565e-02 -4.246754048092845485e-02 2.080796968668287006e-01 1.352065106953708319e-04 2.225081851966347253e-04 -3.691604059759486245e-01
2.531893098830234959e-02 8.175755180287694324e-02 2.084208195610895986e-01 -2.847508518020588561e-04 2.212689200167919400e-04 -5.836272811524743087e-01
6.195694435823990293e-02 1.684503098268133325e-01 2.090956498383899631e-01 -1.107819637983420880e-04 -1.425229735318339866e-05 -5.812030982310860683e-01
5.571915241390114348e-02 7.942935880749374400e-02 2.098404595945267959e-01 8.521284858957390738e-04 -4.914555643163597172e-04 -6.860796473233519155e-01
1.413179645791922956e-01 1.573938287566847560e-01 2.106492843743119070e-01 -1.673491802635398941e-04 -3.990713506486765188e-04 -8.154755509661567592e-01
1.206152925002553500e-01 1.146340692741038558e-01 2.117093516996018665e-01 4.499185706762450811e-04 -7.869167548999482422e-04 -5.947432247616725176e-01
1.949430841986317386e-01 1.184737855405050555e-01 2.127456286715175837e-01 -3.448567493061416360e-05 -9.487872718134440211e-04 -7.821777521212602835e-01
2.046811820665561110e-01 1.557357856724616574e-01 2.138017595070284549e-01 -2.451623075303426577e-04 -1.120125379194145945e-03 -8.379028579005366462e-01
2.558619584905175159e-01 2.485174564780457118e-01 2.151803580495051382e-01 -1.647274642326943699e-04 -1.482271425697129523e-03 -7.412143781256999020e-01
2.418973648774885021e-01 2.132947728630076867e-01 2.165989074231098876e-01 1.593254915292666803e-04 -1.887535179822798009e-03 -7.599713709244092508e-01
2.798985008560488374e-01 1.496152973812052422e-01 2.179665592516144557e-01 -2.811752500756751241e-05 -2.136795937860997557e-03 -6.502067409871647996e-01
2.568767790060506595e-01 2.081854625536935788e-01 2.194473659899578988e-01 2.577000273821498813e-05 -2.718994475600537437e-03 -6.902328001565389837e-01
-3.837924622052846235e-01 1.840546618522695688e-01 2.002510180517841909e-01 1.051045680745683853e-04 1.456637917952956262e-03 -6.411542284498210620e-01
-2.867020056738971423e-01 1.656576487703201594e-01 2.018386234640807131e-01 1.360024641489951749e-05 2.512371108075163624e-03 -6.357501715311929535e-01
-1.938102766981453784e-01 1.448089671103102438e-01 2.037924008684829924e-01 5.686255031456639652e-05 1.052251734483186651e-03 -7.160059887312648641e-01
-1.602643350163111546e-01 2.633724495961015655e-01 2.055385604913849140e-01 2.743271118180860314e-04 1.228526235352694332e-03 -6.904021467286427516e-01
-1.057344039141319969e-01 2.240128246712476123e-01 2.073541623479044915e-01 -8.790516565801395111e-05 5.501739742141804022e-04 -5.481306283548140756e-01
-7.928063405693065724e-02 1.977578576863286142e-01 2.094466048890214482e-01 2.701277066363806461e-04 -3.327803520975630285e-05 -5.611332377504925084e-01
-2.322682570232596083e-02 2.211985203481114659e-01 2.110816274299566753e-01 4.769461902306587641e-04 1.397427818268784459e-03 -5.039872664723711315e-01
3.178933148316560875e-02 2.390340291477403012e-01 2.133340103810080768e-01 -1.616911815080863328e-04 -9.402003254436594112e-04 -3.812707298596743066e-01
6.117777192373999307e-02 2.059834373118901441e-01 2.155857059516491092e-01 7.462740620588699829e-04 -1.087572305845574102e-03 -5.118893194894605925e-01
1.395859588375094051e-01 1.292957881918690988e-01 2.176366543437164847e-01 1.472296881465533539e-04 -1.952146156875905801e-03 -4.499980896726032964e-01
2.196073285334938230e-01 1.451116069159655020e-01 2.198888809152099721e-01 -5.296988538623665098e-05 -2.707581019483206852e-03 -5.724229621450224181e-01
-2.734013037264857449e-01 9.358633447505697311e-02 2.016985645379879566e-01 3.238667062051447834e-04 3.145857874356498829e-03 -5.188913917151768418e-01
-2.527417682096289586e-01 1.094832101642332356e-01 2.038370545098688869e-01 -2.510964629214237106e-04 1.284216807568808183e-03 -3.148304960465297953e-01
-1.625819074784801976e-01 2.066817161475678344e-01 2.064159349017465339e-01 2.066933823826299082e-04 5.391342494003328835e-04 -3.990207709815142834e-01
-8.678362913605774942e-02 2.105968141338577793e-01 2.086597127657550677e-01 -1.470183105525878578e-04 8.215456840989983920e-04 -3.736711994544771320e-01
