-2.338533990223243542e-01 5.423826479705763648e-02 2.040380928333077604e-01 -9.563417666202364597e-05 2.823385945840987000e-03 -7.396596785628511972e-01
-2.709258770831328711e-01 6.733757352040388444e-02 2.040661701574486009e-01 -9.624751220206028128e-05 2.796555038312815641e-03 -7.502065714314472000e-01
-2.407879618118111964e-01 5.680740019674428154e-02 2.041424676892545365e-01 -8.784196397382253326e-05 2.696043654342625186e-03 -5.073685630704453109e-01
-2.709799979395663416e-01 6.917825864302062921e-02 2.042268415369116741e-01 -7.285175562169680236e-05 2.538758772759296123e-03 -4.929063498134401144e-01
-2.244062219845388839e-01 1.218377306937108995e-01 2.042932355871207584e-01 -5.424143136386128848e-05 2.237650663006467318e-03 -5.062410044994976044e-01
-1.903570481529488490e-01 1.246097813828464657e-01 2.044836333227272873e-01 -4.279475726210881745e-05 1.860357635091119434e-03 -4.300293080053151362e-01
-1.713506329011023066e-01 1.658177538611074753e-01 2.046951145246245773e-01 -1.181814751531902402e-05 1.295790172538870784e-03 -3.884296357929498122e-01
-1.665561416825534491e-01 2.085701252305680875e-01 2.049013914939586400e-01 7.732627965871166604e-06 6.958715770993379682e-04 -9.092360952092588822e-02
-1.616767640356789049e-01 2.033027786154085470e-01 2.052250894984785079e-01 2.452389563455554942e-05 1.481033365681133263e-05 -1.947629669603866132e-01
-1.679507781971411318e-01 2.463109529661452746e-01 2.055234203221045775e-01 3.400852752277878607e-05 -9.212932313357663017e-04 -1.622900045177930739e-01
-1.846848633181593924e-01 3.129968063225280206e-01 2.059435567245815890e-01 1.823868513590187022e-05 -1.774523664783438873e-03 -1.838679004955527940e-01
-1.694311772233016156e-01 3.755631056509470822e-01 2.064635932880211078e-01 -1.414105026108672252e-05 -2.625373570479332900e-03 -1.247460976260287777e-02
-8.362747381191927565e-02 4.823436803178044463e-01 2.069506245615733708e-01 -8.115694764836661843e-05 -3.506632080449026325e-03 3.987918165932465842e-01
-2.314898254510816197e-02 4.801781355697945508e-01 2.075771931332938691e-01 -2.067459355060209431e-04 -4.646334291306539015e-03 7.461422592583872859e-01
-6.312988064880005468e-02 5.051758129720692603e-01 2.082326609128454242e-01 -2.785975481878145889e-04 -5.475824465877360790e-03 6.982259599375014725e-01
1.179397525738426142e-02 5.346930764471854447e-01 2.089554097602810967e-01 -3.645388334287607093e-04 -6.260978154156890754e-03 8.353055207465922560e-01
1.705268569632474931e-02 4.757985856360220644e-01 2.097387036997541698e-01 -4.632595766970452520e-04 -6.783032204157588008e-03 9.609449038257443787e-01
-3.911666410083254608e-02 4.810077312277799555e-01 2.108080456857441831e-01 1.418807703340987892e-03 -8.716182142180489006e-03 7.986060952704299165e-01
2.238916350646754858e-02 5.311329628220264887e-01 2.092775044651398186e-01 7.005310032374826613e-04 -2.623274492745382349e-03 6.358516244021713559e-01
-1.064972677246235969e-02 5.304751269298786376e-01 2.091547869972598672e-01 2.477182783230199963e-03 -1.873850133658644520e-03 9.987211324061586737e-01
-8.348821701244943383e-02 5.701726303283201069e-01 2.099409062861989361e-01 4.112577267970551204e-03 -2.871888871065766350e-03 7.570134490537433480e-01
-2.267750489843693013e-02 5.933140815559929671e-01 2.095434114592972796e-01 1.018016082458627036e-04 -1.563634518746554770e-03 3.728614153515025786e-01
-2.507009021303533911e-02 5.269425457359817599e-01 2.093066581217032929e-01 6.781808649495656540e-04 1.851853467643239763e-03 6.401506110197711097e-01
4.656955199469732520e-02 5.472829549620997769e-01 2.089130539279054344e-01 5.181889747033591957e-04 1.867956817149055712e-03 1.227109200179592463e-01
-1.183325618525974884e-02 5.432267025161510166e-01 2.087832406987925049e-01 7.152504148200866576e-04 1.054290192205871923e-03 3.363043572886550425e-01
1.864568272935411899e-02 4.442261855423126349e-01 2.079501868584753832e-01 3.270463176827152242e-03 1.128949276667247197e-02 4.421978031134869425e-01
3.131290242910236832e-02 3.984099724657387820e-01 2.088389610284520082e-01 3.162422422902071237e-03 6.189757678613209621e-03 3.418731222443162632e-01
-2.096886818069589389e-02 3.827842828265252129e-01 2.087795720861093662e-01 4.542375522337456679e-03 4.653060246460441127e-03 3.160256874308960962e-01
-9.376070633250663949e-03 3.020796685644339674e-01 2.087423451205588365e-01 4.068285574647700562e-03 4.631697340364193151e-03 5.242501547938791528e-01
-4.510366207476754208e-02 4.035844912563484321e-01 2.086939571145555172e-01 3.245194315698500618e-03 7.832917207511610330e-03 2.518228268552664684e-01
-1.128810542667140482e-01 4.396416535122626978e-01 2.091308513533742253e-01 3.348225161360497259e-03 1.104660110539078775e-02 2.509633526641337764e-01
-5.966418720208097048e-02 4.955416631911795378e-01 2.092417338503537727e-01 3.088075306474368474e-03 1.021126664065929480e-02 2.030264528979587313e-01
-6.250469770824505777e-02 5.363612246856918064e-01 2.099915408744699175e-01 5.823760168285890956e-04 9.871385208507178419e-03 2.631198856654935470e-01
-1.145921689964486678e-01 5.790398676356101060e-01 2.088520898615194854e-01 1.601736600137339652e-03 3.712204691741481568e-03 -2.531051355431825772e-02
-6.567643233372644218e-02 6.242788428282629587e-01 2.094358754244240450e-01 2.330342900352239111e-04 1.960989737331338134e-03 -4.344172948458947109e-02
-3.076650097910172202e-02 7.316297378825672437e-01 2.094549944618637194e-01 3.826867920161741363e-03 5.144725330844444021e-03 1.218798864990903175e-01
-3.658852990742644806e-02 7.670471113555761278e-01 2.090102775707568528e-01 -7.582538790549979207e-04 -7.923458183666171658e-04 1.472420680137818683e-01
-2.485687089231688671e-02 7.644808723257600080e-01 2.074893623472707782e-01 4.645543481716174136e-03 4.368250211497282098e-03 2.524106495355233903e-01
2.020249860532650696e-02 7.702783480500006164e-01 2.070817623641622029e-01 7.037603053066320349e-03 3.832485287116876773e-03 2.146891446285956184e-01
-1.433003036452600541e-02 6.950056872839492916e-01 2.082093998689567016e-01 5.499012541666741145e-03 6.820412683784654422e-03 2.283863962025384775e-01
1.705815743523404066e-02 7.436239772682847748e-01 2.079855192868896863e-01 8.159503247451824898e-03 3.989740745990759049e-03 1.267918651606426417e-01
-7.327793289324185250e-03 7.646353108980257218e-01 2.090417151824918718e-01 2.664085386481603295e-03 -1.210286817399015965e-03 2.533405672549835647e-02
2.998052823263461925e-03 6.587342464163388200e-01 2.090676129838698882e-01 3.089091900181587663e-03 -1.585791907482011652e-03 -1.881343837642000458e-02
-9.598445665677721866e-03 6.893224535737811909e-01 2.096274992472166865e-01 6.931462136526681016e-04 -1.967675764354567217e-04 -7.468557486676348500e-02
6.238818684972339407e-03 7.313188674189325944e-01 2.097820888257572181e-01 1.416249865579080917e-03 -1.519908635122950045e-03 6.639086952073650072e-02
-1.270109186170456997e-02 6.530811330176530261e-01 2.063858154560858638e-01 8.671937927728296316e-03 -3.991805005774754118e-03 7.264096836942031399e-02
8.023046674766537434e-02 6.646008937420115892e-01 2.078578836175642985e-01 4.806922802581453484e-03 -2.228083588570234277e-03 2.281763784618826008e-01
1.575595981763257825e-01 6.302811565299570873e-01 2.081658370461411112e-01 5.500318114131257964e-03 -4.379539891798296669e-03 2.932578739049566119e-01
7.910274549016456380e-02 6.153398598208844605e-01 2.081093588254052107e-01 5.236950540865616816e-03 -4.167223095301158739e-03 -7.572236172282886812e-02
1.377318039881031686e-01 6.996993900724928217e-01 2.083963601476919725e-01 1.691091393919062118e-03 -1.868833248452153898e-03 -5.272819007641437600e-02
-3.071973966584505208e-02 7.456414623581529844e-01 2.077718675226974954e-01 2.499145703626307318e-03 -1.509114534093034324e-03 2.997256261429546639e-02
2.034628549828688959e-02 7.881539029337358837e-01 2.077320026504753114e-01 3.892077692845003888e-03 -4.066950459650033045e-03 -4.732588003553729883e-01
1.059673032317822450e-01 8.493395179386680205e-01 2.110553604408238471e-01 -8.733767442071069178e-05 8.367234938240445275e-04 -3.393674922314801057e-01
8.901279562400934986e-02 8.791064754269839465e-01 2.074820007794095922e-01 4.917889292843348470e-03 -1.411899673905641674e-02 -2.698187822412665970e-01
1.623273987711546240e-01 9.020060761473116528e-01 2.080185967221322429e-01 3.302978252548478041e-03 -9.807465213358887435e-03 -5.279342321674058702e-01
9.178861749263521330e-02 9.589248205342618681e-01 2.080435841130672814e-01 3.174508094344869955e-03 -1.115415803992391743e-02 -4.768120131046734156e-01
-3.809581206184958768e-02 8.935461700732126866e-01 2.085451111524980750e-01 3.344726807261212426e-03 -9.827423472273204980e-03 -3.783049678239641667e-01
-5.241657963792675790e-02 8.915254256713771586e-01 2.099607939077596797e-01 -3.288323782998109498e-04 2.001912868427605657e-03 -4.617703927435105049e-01
-1.256547463450679268e-02 9.697258533724102403e-01 2.093764843753322946e-01 -1.308104324929727476e-03 7.264861005656971914e-04 -8.824550264213745221e-01
-1.188635918843986700e-01 1.012935398039133572e+00 2.075565229346226781e-01 -6.838887731032158943e-04 -2.341945728832411314e-03 -3.707933352286593709e-01
-1.391683897104295520e-01 9.946264188262374795e-01 2.089417995034461017e-01 7.280445041914851770e-04 1.363123096475796908e-03 1.047926312023075429e-01
-1.557964943812059910e-01 9.924555243048535091e-01 2.093597979900189698e-01 1.205733010275097678e-03 3.205674486302823901e-03 -5.422885933366082822e-01
-1.578609823634595233e-01 9.200091306856955642e-01 2.080826738185899139e-01 -1.407759868183942236e-03 -4.489233173725168391e-03 -3.546893409814104725e-01
-1.233864532935915748e-01 9.000989677220497809e-01 2.084150797992413429e-01 -8.275740115040836845e-04 -3.973196269466509022e-03 -1.897163402756469885e-01
-8.676350807029079015e-02 9.179390884255220762e-01 2.090910806307494929e-01 -4.308130021610565409e-04 -2.669297153907099034e-03 -2.318679194421567336e-01
-7.998061881978831000e-02 8.572756854511033309e-01 2.093697292949592281e-01 -1.919844175059983848e-04 -2.262733111724962894e-03 -1.281135196648842955e-01
-2.394534004559700432e-02 8.390667811543790489e-01 2.089642133690602921e-01 -1.700979980668184224e-04 -3.083696156631246955e-03 -2.626306305914060876e-02
8.166256319795946877e-03 8.486811951416843858e-01 2.088966447077034161e-01 7.536362175500153481e-04 -4.432956241554414541e-03 -6.681079302015809074e-02
-3.276426364411521436e-02 7.351054353936609109e-01 2.082219388207699473e-01 -1.033006344186024241e-03 -3.071913823645699721e-03 -4.526455323546531018e-01
-5.127384376137997246e-02 7.257396351992118078e-01 2.083548417006344522e-01 -8.511000009581930854e-04 -2.242146747785665403e-03 -4.208957125924895348e-01
-1.932761752970026115e-02 6.193729439726335384e-01 2.085100256093420090e-01 -9.344022221108655912e-04 -1.917343943489058754e-03 -4.160751341157244432e-01
-9.856004344325522415e-02 5.587499438196034118e-01 2.088584760233492821e-01 -2.315081384869322693e-04 -8.140935430808773606e-04 -1.807853835922940411e-01
-8.366675489587516168e-02 5.696058341191697627e-01 2.091155471987820036e-01 -5.283159984657579824e-06 -8.019142848360707792e-04 5.907697412210326238e-02
-7.653499982490014064e-02 4.837684239124392938e-01 2.096732316161012966e-01 7.658956594334654592e-04 1.473471576086974417e-03 5.456571613994558312e-02
-7.710385077552428523e-02 5.097705334565690860e-01 2.093540335118769802e-01 3.716117752663759886e-04 2.222397171344744687e-04 7.325530881163430652e-02
-7.054834263529660698e-02 5.253597942238715790e-01 2.095461182332248873e-01 5.222612706072440707e-04 -6.504721222318519481e-04 6.772558762113684017e-02
-3.010990744881551426e-02 4.778455833734691627e-01 2.098352501187742969e-01 3.582041934552844807e-05 1.113909951488789617e-03 -6.667962712255719182e-02
1.331369522539429390e-02 4.372363677453092179e-01 2.101649700080427952e-01 -4.894177835115184894e-04 2.087066483103490206e-03 4.900685231800589597e-02
-2.734317037095269215e-02 4.568449759197306115e-01 2.096998467482588113e-01 -8.406347255693169377e-05 1.093244226928346934e-03 -3.403048870141824889e-01
-7.278482483338133413e-02 5.097109878055029464e-01 2.101712202323969270e-01 1.132785508559179636e-04 1.363764393423634114e-03 -1.424528931282279531e-01
-1.124557330913970588e-01 5.402380304825266100e-01 2.098319953416334371e-01 2.585785069871379574e-04 1.322814003656512223e-03 -3.197135596073139019e-01
-1.633114393890899851e-01 5.849649332216345643e-01 2.092227275282069199e-01 -1.351819987933586536e-04 6.234615354267679203e-03 -3.014158654933876691e-01
-1.090268295506371526e-01 5.300282029685348117e-01 2.093903923540764711e-01 2.787593591868036509e-05 6.064051201727249478e-03 -1.438979853359412253e-01
-1.276187765107677230e-01 5.247731108482532880e-01 2.095209675243177028e-01 -4.227979515595809519e-04 6.448057532876820021e-03 -3.484582456217793361e-02
-2.706440225697823720e-01 5.319264207324306826e-01 2.083443769708048232e-01 9.107278116804538165e-04 1.579549039281345291e-03 -3.438959483513509552e-01
-2.908274872199773098e-01 5.452514177071784429e-01 2.079579335196456991e-01 9.133086069553540774e-04 -1.103822029834843543e-03 -9.166480834929144339e-02
-2.420941217223504249e-01 6.082352186535939786e-01 2.081061075809203520e-01 -1.663077298998580237e-03 6.044883567003670822e-04 3.389714666674231019e-02
-3.226039330977216180e-01 6.131332305958314688e-01 2.087137103130205507e-01 3.234038416735111540e-04 -1.954084133790866002e-04 -9.637758880637026238e-02
-3.860448110628970086e-01 5.525609697555319277e-01 2.095295587617436728e-01 9.264409206583014384e-07 9.692733904642072875e-04 1.854422224382322459e-01
-3.835170106446458282e-01 5.785931318074872820e-01 2.104581441672351838e-01 -8.206006305921051142e-04 3.570845025381712366e-03 2.063700392112540957e-02
-3.351247569324254383e-01 6.742204921160922515e-01 2.071147266705977708e-01 2.123416639991832465e-03 -6.378492350643092832e-04 8.935274391258886395e-02
-4.339039968984788054e-01 7.699403513872822291e-01 2.094112779069824404e-01 1.009858767412424142e-04 1.529340631593372997e-03 1.155535957291585897e-01
-4.760704706966311095e-01 7.997396904642332105e-01 2.093371727646306524e-01 1.361975986511348817e-03 -9.662242506894493533e-04 -1.493308931849530834e-02
-4.878481176394928176e-01 7.342692295505393041e-01 2.096787585841181634e-01 6.350990173369507486e-04 -1.377451005710563338e-03 -2.591807074803345046e-01
-5.094524734270958755e-01 7.143598123284489176e-01 2.097448337093451576e-01 1.953095327411606685e-03 -5.349791019087247199e-04 -1.192217705186911780e-01
-4.366572046018049602e-01 5.609118190322025521e-01 2.099846170975259718e-01 7.643025780345893928e-04 9.332361015790986963e-04 -2.478857797784399242e-01
-2.877942579471761686e-01 5.540537171937772731e-01 2.107893107941317679e-01 -1.129085380272706413e-04 4.521208862180706688e-03 -4.268318405348571765e-01
-2.948918990151820352e-01 5.468980692776983510e-01 2.115292348670657074e-01 1.087649326405736635e-03 5.575248035156880541e-03 -2.147126916072545633e-01
-2.892378713904951715e-01 4.631304409165719616e-01 2.103249524447223795e-01 6.049580082645346227e-04 -6.964594054384872206e-04 -2.366800825131597230e-02
-3.200434111872565435e-01 5.415059702816736875e-01 2.119921197049212669e-01 2.229890245127839465e-03 4.448188771990698419e-03 -3.037777480932690177e-01
-3.083762609054910842e-01 5.395465932787605334e-01 2.113532134601330270e-01 1.753284571045093726e-03 2.975933730895953620e-03 -4.588037313753761531e-02
-2.841436348426453762e-01 4.395238619047737161e-01 2.111594277861365554e-01 1.257172768550998210e-03 1.693030055250442775e-03 8.391536222916277238e-03
-2.958622399164103633e-01 4.433038647874970595e-01 2.116803578253725338e-01 1.348169082590491711e-03 1.887711001155396992e-03 6.614986483499234182e-02
-2.694993013787611580e-01 4.388521056762286765e-01 2.109452768706459036e-01 3.922524956458870154e-04 6.748834749750067907e-05 -2.358207454839055667e-02
-2.999133455040073892e-01 4.755980350222965281e-01 2.097863700130653264e-01 -1.031059940686470283e-04 -1.620819685166598493e-03 7.094401009660564195e-02
-3.331305136462625049e-01 4.160385139793210119e-01 2.102856534584259252e-01 1.566524519098213327e-03 -4.355256804327490195e-04 9.774250594240135870e-02
-3.697955525432762847e-01 3.811279332868574010e-01 2.106292313657030513e-01 2.767762441832533667e-03 5.700310656530545306e-04 -3.869427588184182892e-02
-3.406932061617883312e-01 3.020819385032686433e-01 2.099924009779950418e-01 1.905261919828522919e-03 1.529087790432400460e-03 4.951397911356927167e-02
-2.586035874100767185e-01 1.962452180460953766e-01 2.125849830928440154e-01 4.893535980388728605e-03 4.628133913863336120e-03 9.624250411588583520e-02
-1.096439454818092657e-01 1.943710262768231223e-01 2.094852888926651557e-01 1.444407390030665245e-04 -1.075729750680063778e-03 4.523443335514772123e-02
-1.421270450823874654e-01 2.791235269577460598e-01 2.101111634163698172e-01 -2.285360039277422413e-04 -1.654696723817596343e-03 -3.864643092301638105e-02
-2.524042847609677537e-02 2.152418790434451057e-01 2.093683069695283505e-01 3.400537329968321681e-04 -8.114191479805782760e-04 7.693321366955084561e-02
-6.327048250980801813e-02 2.349688407335510654e-01 2.099027605646858752e-01 6.354671642887793235e-04 -4.837125259908846568e-04 8.899116619206731693e-02
-1.421730593464658188e-02 2.247338915216577915e-01 2.101592300293013693e-01 -8.371308886726887711e-04 -1.247686067790667631e-03 1.870570459213182490e-01
-1.344760174747246066e-02 1.856978178905474008e-01 2.090539003382038130e-01 -9.404246648580086613e-06 -2.547962615522434207e-03 2.446343341968938989e-01
-2.439016762214772649e-03 1.536486321988290438e-01 2.095365246027187656e-01 3.355000566377443769e-04 -1.245336553424936403e-03 3.045466837197441379e-01
1.071631726993629852e-02 1.673986340812288476e-01 2.096060697136556406e-01 1.483721851353409448e-04 -2.022696096953688176e-03 3.968494422301250268e-01
3.441913567967453541e-02 2.037797443042867196e-01 2.100073372358305934e-01 4.431424043644533730e-04 -2.038472191252695045e-03 1.534788009465583580e-01
4.769574306527539498e-02 2.313702228119803861e-01 2.102508087512826029e-01 -1.453703857973427476e-04 -1.880045274114676814e-03 -5.307020566302231290e-02
1.155721759082932454e-01 2.447328064494762867e-01 2.092897652129283026e-01 6.045030218655512896e-05 -2.443278579110164453e-03 2.613442948100758861e-02
9.689598109488739563e-02 1.636408460393616593e-01 2.102262368005586302e-01 9.050802762817191293e-04 -2.227617612174661536e-03 -5.369210307578193425e-02
1.457486503493122809e-01 2.168712790157696080e-01 2.104645376637573340e-01 -5.393017739978126487e-06 -2.657495239575209667e-03 -8.137842788887954260e-03
1.225116670087362247e-01 2.384419311484314574e-01 2.095473143324883547e-01 -1.548323556804646656e-04 -4.133191076088177894e-03 1.891469275599505506e-01
1.427393627426798706e-01 2.817482694400233467e-01 2.112439139049163139e-01 1.083854177263531959e-03 -4.276288419378453456e-03 6.232868001953454501e-02
8.879673596793843937e-02 3.326988662517838535e-01 2.099457324757235677e-01 -3.470267930527995990e-04 -6.631073939243875733e-03 -1.286147961475028190e-01
7.646778407530603616e-02 2.281662633257327821e-01 2.098790391927944365e-01 3.955856889943338097e-04 -8.357571552468254575e-03 -2.696636264658616722e-01
7.738335782700048182e-02 2.699272786668032720e-01 2.106359952369441513e-01 -4.171800648096462704e-04 -7.881358950621241213e-03 -3.376531619308342225e-01
1.106870169268342474e-01 2.306171256425698091e-01 2.097289918949078458e-01 -8.518603084363686418e-04 -8.797226043706623394e-03 -6.158411180823939457e-01
1.004265881478864642e-01 2.816394689896919434e-01 2.095682973916007663e-01 -6.430807324914628595e-04 -9.531670101174206933e-03 -5.535822302733505174e-01
-4.068730453129348890e-02 2.584254265306303866e-01 2.093146372208082306e-01 -7.158816455270719265e-04 -1.037632307751417370e-02 -3.154175930563922203e-01
1.009176573319949255e-01 2.413354411752695050e-01 2.104449331718811766e-01 -9.374218674161168214e-04 -9.700225230275265689e-03 -4.604641850790064384e-01
-3.768508569842984879e-02 3.521132376950875664e-01 2.100819285131289571e-01 -2.146521085778959215e-03 -9.859459833186385441e-03 -4.554113678763819228e-01
-9.853832895340929043e-02 3.639506086379077354e-01 2.095447971360553940e-01 -1.494634582228562348e-03 -1.069708145847819529e-02 -3.900403281538457056e-01
-1.133540032735498443e-01 3.288340169658128254e-01 2.095587769611758078e-01 -1.921840359018125955e-03 -5.994117506762650267e-03 -5.123364722222890633e-01
-1.714965816038348245e-01 4.338131528853500507e-01 2.096678695530392877e-01 -9.289177889791384478e-04 -9.043760632840290234e-03 -3.690025961047728176e-01
-1.809012306471480813e-01 4.563533346358644160e-01 2.092779295337882095e-01 -2.404707886048508287e-03 -8.113845452163540722e-03 -3.892404830420563289e-01
-1.776705796960745543e-01 4.138630278972913468e-01 2.095092447995045015e-01 1.012017423014661803e-04 -9.057512049727824491e-03 -1.814804393013300099e-01
-1.444498474763799556e-01 5.000310643378426123e-01 2.094826989358898328e-01 9.136526323996190403e-04 -6.548937458362746530e-03 -1.818369394650897475e-01
-1.562274255556926894e-01 5.195180634562397426e-01 2.092232988932420934e-01 8.451871453202177299e-04 -4.527087094587351791e-03 -7.272220672920261253e-02
-1.355962272287204728e-01 5.701722930457251426e-01 2.090123295096871225e-01 8.664829872155503177e-04 -2.892139112920813493e-03 -1.499874490110033043e-01
-1.748361791501856499e-01 4.989886261679275514e-01 2.103422697807339481e-01 1.210832084060231009e-03 -3.163720835884109724e-04 -2.245927013721491783e-01
-1.426288933021572225e-01 4.420941026887214020e-01 2.101296574673128248e-01 1.086476992502898292e-03 1.611483754466925059e-03 -3.411950895207944146e-01
-1.973016139527357105e-01 4.680337896488450666e-01 2.094291573171648269e-01 -8.356034359432329851e-04 4.341506425764141142e-03 -2.340345969591895448e-01
-1.797164581585238285e-01 4.079541512386831159e-01 2.091155928814662501e-01 1.810906244175726227e-04 7.494315008084314993e-03 -2.786700586545030056e-01
-1.261339870627801729e-01 4.207940284465672698e-01 2.087593849305054983e-01 -6.401747034484989683e-04 7.852781969129104742e-03 -2.078562346094156854e-01
-1.354324075566119834e-01 3.430546511611176630e-01 2.083001218592913095e-01 -8.622445526780175753e-04 7.934555155041867619e-03 -2.306133413225608109e-01
-1.566071013431869496e-01 2.854166487276985631e-01 2.088188955001941682e-01 -1.439484774003479137e-03 1.121980458688390421e-02 -2.184250747113145319e-01
-1.343081445422507070e-01 3.830765709478723968e-01 2.091133457515945704e-01 -1.386133907379421496e-03 1.519856220755642570e-02 -4.870345893013661720e-01
-1.338388832387005511e-01 4.583098154980739247e-01 2.081750561858599080e-01 -2.957674248935044433e-03 1.366960803501448933e-02 -4.064240945855840392e-01
-1.964387471612101810e-01 4.325869737328228437e-01 2.091137629596134251e-01 -3.982587120291957057e-03 1.881259796279740118e-02 -6.141808956846704914e-01
-1.899525136364386968e-01 4.653882133764007945e-01 2.086870222676395770e-01 -3.701350978787269069e-03 1.782377252058657199e-02 -7.192510857858550599e-01
-1.614015090652257955e-01 4.585085072812327134e-01 2.071929210061818627e-01 1.638306716110148140e-03 7.198678025982602376e-03 -5.688605132269305420e-01
-1.669076166144568552e-01 4.713156767779700940e-01 2.069363409236711360e-01 1.130922645051377464e-03 3.134322079232206449e-03 -8.666130885238387815e-01
-2.529141832826477532e-01 3.974959186855340221e-01 2.069493396890856318e-01 5.821656406066089313e-04 -3.512777926983979941e-03 -7.683155438893460865e-01
-3.594074947536398112e-01 4.295766135288562881e-01 2.083685566855414395e-01 2.653415979002362365e-03 3.501978162001919900e-03 -1.105416521563540755e+00
-3.510093938539793346e-01 4.350618743176983272e-01 2.076021144499867743e-01 1.680755230056872130e-04 -3.838540267127020115e-05 -9.339739803543711805e-01
-1.666861243747884413e-01 5.202621875660642381e-01 2.076236717907268270e-01 3.820907495775945431e-05 -5.708011210085515638e-03 -1.017198619000505788e+00
-2.390035994628480764e-01 4.627140910215102321e-01 2.090273774949456542e-01 -3.601438386666495797e-04 7.452654929853776188e-04 -9.535977701889708502e-01
-1.183626095764898356e-01 5.340894092352588274e-01 2.089905013625383279e-01 -4.156362213238998975e-04 -4.373425288892804005e-03 -1.025441174235148356e+00
-1.361750515114240057e-01 5.413489947454891427e-01 2.102099849885459837e-01 -3.596973106326011526e-04 3.455185361852820651e-03 -1.206125369808866976e+00
-2.129002541279860147e-02 5.754340586323002382e-01 2.103311528942109487e-01 -1.560869245487714677e-04 -1.220485627458017287e-03 -1.355117103598112438e+00
4.065696877367623585e-02 5.636036974635881824e-01 2.105523238250093798e-01 -1.148970788983969113e-04 -6.635121159291580695e-03 -1.265181875592872540e+00
1.219057859182738623e-01 5.264687961428400342e-01 2.109615306464774354e-01 -2.150163471371839097e-04 -1.147954549021118660e-02 -1.356133618235344507e+00
1.146252891907475757e-01 5.567386784532679656e-01 2.121255835792291711e-01 1.279927114768223935e-04 8.586166901423922704e-05 -1.256974281843240782e+00
1.450176840816478352e-01 5.101617110511428299e-01 2.125074713887015743e-01 -7.252680965996247250e-04 -5.198334743452531076e-03 -1.145407555572793390e+00
1.018296347865842305e-01 3.759920909264342082e-01 2.097125398438567379e-01 -3.783790260315878212e-03 -2.431864110042710261e-02 -1.203404426326569965e+00
9.264309650715610300e-02 3.398123550047190133e-01 2.094113805785822735e-01 -2.747050575456363563e-03 -2.003793957755422780e-02 -8.481283619488125813e-01
1.020894431790531631e-01 4.076160643336030898e-01 2.093062805915208990e-01 -9.209474041353929875e-04 -1.474772219420057012e-02 -7.880418865889431412e-01
5.248337465064864538e-02 4.451772713573052820e-01 2.093231406212389123e-01 -4.798893457611160809e-04 -1.000713522340520266e-02 -7.152316254668120710e-01
7.473266397724878662e-02 4.382805432069841745e-01 2.092491156312886735e-01 -1.775741947893226969e-04 -6.182635393446270916e-03 -6.897731732034096952e-01
8.208833945983581848e-02 3.485995017858634082e-01 2.086627727321204717e-01 1.315153786914725334e-03 -3.510050252859786297e-03 -5.820419167517125736e-01
5.431421552542170517e-02 3.799537011744700821e-01 2.104863075827427266e-01 -9.204683902284087468e-04 -4.886138058318855327e-04 -3.771472804952743507e-01
4.996135249785201016e-02 3.780944612775871128e-01 2.099346354446237628e-01 1.304409855079295807e-04 9.087675417750127596e-04 -4.917939918130589394e-01
-2.272948328483233998e-03 3.577349766962959476e-01 2.091638865922818558e-01 3.306712462102142855e-03 2.169650281827844879e-03 -4.392463783814815614e-01
7.833014098171149631e-02 2.730516541752089910e-01 2.092345618990083533e-01 2.555556302586438171e-03 2.962053372952450688e-03 -3.248353271668452669e-01
1.282116193355470335e-01 3.191570362687121687e-01 2.097570965089646244e-01 -2.446419411686605078e-04 2.863476487743684849e-04 -5.697741127321650501e-01
1.123240000564901808e-01 2.980293329718422535e-01 2.101301640137180349e-01 -1.084737556762407776e-03 -2.653886386548499204e-03 -4.886090649878170877e-01
1.891189593409521308e-01 3.737273180950440588e-01 2.092701612996019089e-01 1.268716289594476899e-03 3.060504327649677270e-04 -4.515411816979332249e-01
1.882604729450707559e-01 3.120214208716183268e-01 2.078823368250999892e-01 4.236181004342331503e-03 -7.852970005188343919e-05 -4.398363465766996216e-01
1.801220201761176420e-01 3.018910747017997664e-01 2.085650440283600693e-01 1.049846243875416502e-03 -3.496011968596953769e-03 -5.336250693747017770e-01
2.112333601878487177e-01 2.504308868074432426e-01 2.082507018520491915e-01 6.301432888551924787e-03 2.795254176336136286e-03 -3.987850362778166402e-01
2.756013835886708674e-01 1.878129101459499462e-01 2.085334487580737250e-01 4.037807538530288967e-03 4.608059905607926826e-04 -2.871986778309987276e-01
2.427505992413469538e-01 2.138860334070936953e-01 2.097620610324693602e-01 -7.824966531914553621e-05 1.574983966219989069e-03 -2.886900941227956707e-01
2.499702303054418262e-01 3.030108628491972045e-01 2.099686819158944617e-01 -1.432251636768263605e-03 2.836929778172296319e-03 -3.349673601115143451e-01
1.423220351750897894e-01 3.829173397324813766e-01 2.106775158960818017e-01 -3.247675540864547808e-03 2.370299964891294658e-03 -3.721330637278222331e-01
7.418506400300833858e-02 3.981289552609694748e-01 2.101141091931581495e-01 -2.518347751746732345e-03 2.588862475143736356e-03 -2.323983930456272606e-01
5.198573826025039424e-02 3.611929617064445486e-01 2.122364205032202245e-01 -3.396208773774215661e-03 3.006770847012795269e-04 -1.952904747701578458e-01
4.169723960521096173e-02 3.470166778965635968e-01 2.101221396483456405e-01 2.329027356101819805e-04 1.909627693024092219e-03 -2.419970509042860540e-01
-2.760886249520653341e-02 3.469908216784308164e-01 2.095743825330532162e-01 1.185994949357859147e-03 3.006418059140477522e-03 -1.937848852646089082e-01
2.274771359865206122e-02 2.911687270317543375e-01 2.088096103874594323e-01 2.251099307701861715e-03 3.849507290045571170e-03 -7.474158010212732239e-02
3.780544855925981051e-02 2.475395850809613829e-01 2.090954289048026493e-01 5.838296900949616541e-04 2.771327932639837833e-03 -2.449757803777567189e-01
-9.341033319281083491e-02 3.558157725357871115e-01 2.106948193295569705e-01 -2.173073991762581973e-03 7.792244870196700542e-04 -1.756452397353126249e-01
-4.764127416403041160e-02 3.372935308763403972e-01 2.100428974466576060e-01 -1.709929415233422739e-03 2.723124183140282831e-03 -2.166124414209513183e-01
-2.166968444222021339e-02 3.541286362525372100e-01 2.089082644293270841e-01 6.131224431287354360e-04 4.839638269788792274e-03 -1.981173606731604642e-01
1.355416452914594283e-02 3.467408357939154584e-01 2.087524420117754520e-01 5.537172548668507934e-05 3.903642637202474515e-03 -2.391030040147511249e-01
-3.055011368715566597e-02 4.040647254769311192e-01 2.083134679162655933e-01 1.363332745733825688e-03 2.677625583114082511e-03 -3.510020159677436080e-01
-4.625389192748314421e-03 4.717726276160676968e-01 2.091397866527426874e-01 -6.200737905338786580e-04 2.248250527490642560e-03 -2.547318411606706023e-01
1.239034569145512771e-01 4.063972579014675235e-01 2.081146441208133746e-01 1.257008695250942535e-03 3.152577434803754790e-03 -7.782374709270292734e-02
1.229735005167724438e-01 4.631960015229388827e-01 2.073388011446973267e-01 2.736560506882385752e-03 5.643910379759487991e-03 -1.591159676599127604e-01
1.805438105243132030e-01 3.542810412313841528e-01 2.098836598361432104e-01 -1.783778589748796859e-04 -1.152340599256484674e-03 -7.667333309124778340e-02
1.521647567595181827e-01 2.714371739765429337e-01 2.111340221657734828e-01 -1.107005709501291584e-03 -4.041633519748286281e-03 -1.134872779044708568e-01
1.339067853361362026e-01 2.914396301534095679e-01 2.102593328514745785e-01 3.606004767260362885e-04 -1.176510631173953783e-03 -1.647797538908351289e-01
1.387911617919442564e-01 2.691734596490855669e-01 2.091882029192581594e-01 8.895895798617608043e-04 -8.682666848397864673e-05 -2.221319090739470037e-01
1.308753841738568013e-01 2.507367915503243561e-01 2.089703898294510975e-01 3.647094819138670552e-04 8.475818219606402054e-04 -3.797839839891031799e-01
1.966545874167963115e-01 1.886425086056282563e-01 2.090894610039138457e-01 -6.035961612795915417e-04 -2.250844708538655699e-04 -5.396197502778983246e-01
1.856316599748031315e-01 2.548158265701933045e-01 2.096124819261029892e-01 -7.589351705067599397e-04 -1.812686629367662788e-03 -6.817050861943471096e-01
1.577621178249722922e-01 1.821065217929012381e-01 2.098516191794821961e-01 -5.178307694403173493e-05 -3.523971198875147127e-03 -7.295009310635023336e-01
1.654513399869131929e-01 2.655479847012400807e-01 2.104949105339214421e-01 2.009703327873372603e-04 -6.725815536754873626e-03 -7.017743262363100865e-01
1.982548603856354175e-01 3.064515007304196570e-01 2.099250606116592199e-01 -4.553998864284517401e-04 -3.806488839810812704e-03 -6.092763254172020027e-01
1.967360781877534603e-01 3.179721539327072799e-01 2.082261256524359228e-01 8.431284919887916752e-04 1.678366315958616187e-03 -6.092926493486723327e-01
1.619162742154599544e-01 2.758114470437101340e-01 2.093232636951887216e-01 1.030855642519070726e-03 -1.757007231014619210e-03 -9.529873331923596202e-01
1.746640756691320018e-01 2.377490753666708367e-01 2.110775416949982053e-01 1.736996968835092213e-03 -7.363689068027525972e-03 -8.700995373229203356e-01
1.825097727762286237e-01 2.229060293106907287e-01 2.090070546065550539e-01 4.567922314946350117e-05 3.577833051583932103e-04 -8.609381950067239719e-01
2.174559844689185062e-01 2.452518288468338858e-01 2.088354340056989833e-01 2.755773311527116376e-04 1.599156536896572355e-03 -7.466607693770717091e-01
2.909061852767693690e-01 2.515871240556121213e-01 2.083140386476982076e-01 -5.603417564861327494e-04 4.302225929943358229e-03 -7.959167315218943495e-01
3.340511059908656821e-01 3.625928519727878441e-01 2.081957901607525696e-01 -6.079406623080346522e-04 3.830831333135117835e-03 -6.808102363438381932e-01
3.373647894920579482e-01 2.358238415928386733e-01 2.097573480955701730e-01 3.744111132384924799e-04 -2.275511369007952693e-03 -6.183338096122851235e-01
2.625513634791324380e-01 2.456982192614055593e-01 2.101017475173163063e-01 3.006903756997752683e-04 -4.403915796360962850e-03 -6.560078123466820399e-01
1.939038181429479368e-01 1.338654774963150274e-01 2.093178686262327504e-01 7.250145241252773124e-04 -1.846591541453406491e-03 -7.824912436392172932e-01
1.466854535333443066e-01 1.139846940817238058e-01 2.092623636756447136e-01 2.872745103163251278e-04 -2.891705321032706551e-03 -6.833997360709825886e-01
1.809390697831338435e-01 1.599220613922828216e-01 2.101114536554175016e-01 5.387040279052415781e-04 1.248802134035889187e-03 -4.746721903307877799e-01
1.605109274537351027e-01 2.008902064191421255e-01 2.105913479742424488e-01 4.088747711658108851e-04 -5.038474025484777083e-04 -5.406718241713313056e-01
1.741513009630006881e-01 2.491911287373115291e-01 2.105618213778303049e-01 -4.140123902640651570e-05 -7.975470577131452566e-04 -8.163407506085896825e-01
6.970214219270298717e-02 1.873280654846247173e-01 2.108321613065233802e-01 -1.791042860664153458e-04 -1.211486743529506744e-03 -3.994625398274665451e-01
4.300223451136676173e-02 2.429670547635911504e-01 2.107983711851596498e-01 -5.158949368741616148e-04 -1.705998856967385095e-03 -2.940122482261047221e-01
5.627316194705819785e-02 2.838711191825070146e-01 2.111123799043678750e-01 -1.236977785489200374e-03 -2.109635452633905946e-03 -3.209014220936519113e-01
-9.406261094993201288e-02 2.301113945280345574e-01 2.112016836630178918e-01 -5.554629647796485888e-04 -2.328191530878460837e-03 -3.686105672212629525e-01
-7.061396270971576072e-02 2.889413098505101418e-01 2.100445502625204464e-01 -3.566003234832476425e-05 8.455004561343704064e-04 -1.495827975908858298e-01
-1.020305254045963117e-01 3.530940305138154933e-01 2.096146217343887730e-01 2.823404692912064918e-04 1.122275738668168351e-03 -9.740163985672853353e-02
-1.204519192886211038e-01 3.226338460890965654e-01 2.097319059778717798e-01 -4.675753141351529705e-04 2.990827179827437344e-05 -2.157877924797833025e-01
-4.376691795165520843e-02 3.088833629240270717e-01 2.106941417500183267e-01 -3.530003144892069895e-04 -3.249686082927891011e-03 -1.617719124207739612e-01
-1.546583802146268560e-01 2.190812505615806205e-01 2.089006973444429427e-01 2.382870434171678684e-04 2.420458809770290650e-03 -1.008017713080976152e-01
-2.380408759216767062e-02 3.084380562173857920e-01 2.091809150239960502e-01 -3.743038250686778591e-04 1.078067681635429135e-03 -4.288064482747234174e-01
-6.515426673052580886e-02 1.792479323052323381e-01 2.088906673660398394e-01 3.661835110748005496e-04 1.270703141022415080e-03 -2.458717545322108011e-01
7.775884860037659413e-03 3.098253277312709164e-01 2.090529626525576834e-01 8.704831462329788445e-05 -7.933297030755684202e-04 -3.927635555330792894e-01
2.609065662899610200e-02 3.868632902681478636e-01 2.087606292649271111e-01 -5.537936500361648846e-04 -2.107492011833632199e-04 -2.108681588571602039e-01
8.701080639438089209e-03 3.576336898179028889e-01 2.107899375951878818e-01 -6.539135556122144385e-04 -2.340974417511912202e-03 -1.604052627867279257e-01
5.758521535804531077e-02 4.307012619721725666e-01 2.100028914337796482e-01 -1.924878092237431381e-04 -1.236413656058711055e-03 -2.103855423662876201e-01
8.017283723388331923e-03 4.626580071928456661e-01 2.095275556784234050e-01 7.285244470282684938e-05 -1.296953120190595318e-03 -3.650571540690854544e-01
-7.243556403726256199e-02 3.090336617114018414e-01 2.098907759151258934e-01 -1.017709203746836348e-03 -2.453833757589708297e-03 -1.869968894705308082e-01
-6.029087008401257802e-02 3.463818402360663851e-01 2.091280489017807165e-01 2.072559395343162526e-04 4.887708917509591246e-04 -2.150279537318988410e-01
-7.199704200397946674e-02 3.845072599513690292e-01 2.092497181807333462e-01 -2.351799933327498686e-04 -8.784762603004475342e-04 -1.474474150875371425e-01
-7.850156400909194532e-02 3.202790448279630997e-01 2.096579933831717590e-01 -1.112582573330827022e-03 -5.378752591357339498e-03 9.726602027004421780e-02
-8.290307911853626865e-02 2.650128434192758897e-01 2.108478013197472856e-01 -1.144430049531924669e-03 -4.991569133182674478e-03 -1.370226646770009160e-01
-1.662425315018911665e-01 2.370912959759266525e-01 2.093453745332947702e-01 3.962090883788296053e-04 3.359967139855905664e-03 -4.736249962418970783e-01
-1.027211331243930437e-01 2.704398383200166678e-01 2.097946535105971178e-01 8.030117292814621102e-05 1.526064548416551691e-03 -1.844584003212591528e-01
-1.578171565483611205e-01 2.511725262882151255e-01 2.106947449772808012e-01 4.787642121183035524e-05 -4.969869030730075625e-03 -2.764636677901149420e-01
-5.384883303891456474e-02 2.412005766601733880e-01 2.091269742448360613e-01 -3.927881822933076538e-04 3.570254985505859780e-03 -2.443673841334763064e-01
-1.040845727961998979e-01 2.233248604962684847e-01 2.094177914068452440e-01 -1.392371723100532788e-04 3.170628608977771410e-03 -2.867560143946811801e-01
-1.550998021481971023e-01 2.240865109574230463e-01 2.096633627345633744e-01 -2.975474818941957196e-04 7.407005277667533748e-05 -8.975536994656198309e-02
-9.236373957333190998e-02 2.610134461414926887e-01 2.094174935484954259e-01 -2.168734783709598806e-03 2.691340807330229435e-04 -1.241703311809572302e-01
-6.966408617412614412e-02 2.617819624730338135e-01 2.112170175172678466e-01 1.045400479713668812e-04 -7.880274961955244239e-03 -2.178836514667475133e-01
-1.430600839366109045e-01 2.956723799104448713e-01 2.118334484109539173e-01 -1.415549361944757906e-03 -1.136090447530042381e-02 -4.746991514084855646e-01
-2.485323351762353805e-01 2.158275316177184766e-01 2.104151243308778341e-01 3.105536776577826237e-04 -8.880974496325792777e-03 -4.264092278335915309e-01
-2.762023642956880076e-01 1.835467224254882790e-01 2.100405385348029785e-01 2.651812320576829324e-03 -6.980208003033392880e-03 -4.071126265345481610e-01
-1.985631985684965517e-01 1.840487345600844427e-01 2.088054015034827571e-01 -1.398918221142731811e-03 2.333592292331175544e-03 -2.039085122386153914e-01
-1.641591019408876195e-01 2.039081446794671626e-01 2.084091671193348261e-01 -2.990936634189720299e-03 3.359927959138267906e-03 -2.386840120994626058e-01
-1.504359957110487922e-01 2.616215992381150102e-01 2.091890261103503401e-01 1.451607154208825771e-03 -1.999159323626905575e-03 -4.424720416142080004e-01
-7.273601875109020343e-02 2.683333967567783085e-01 2.087781283499925977e-01 -5.752468460493071790e-04 1.692972890203311889e-04 -2.893586872095119111e-01
-1.004201387530930314e-02 2.975295123519440255e-01 2.079625759540946195e-01 -5.239083333907962325e-03 1.408274219564657845e-03 -1.464668365761244428e-01
6.347015925901712541e-02 2.863037330599852992e-01 2.080004226235221965e-01 -5.782209135002942813e-03 2.336773234898400966e-03 -3.312996076224891673e-01
5.424514539647852518e-02 3.047195052914496438e-01 2.086160291035911163e-01 -8.218767626541854943e-04 6.272189095275950820e-04 -3.570437670339294822e-01
2.163457044447124333e-02 3.309263799842677711e-01 2.094537939887481381e-01 1.246059932232147695e-03 -9.067803823749548756e-05 -3.961513048431244410e-01
2.606309390016527117e-03 3.218796801743366576e-01 2.100381447187085193e-01 3.887300596440648390e-03 -7.363721675694054032e-04 -6.929732484653415847e-01
-5.122588131093012281e-02 2.871203275999307802e-01 2.094852023651156969e-01 2.356116859689015401e-03 2.553569474766485131e-03 -6.727746131587672984e-01
-1.024431820353967626e-01 2.479819758763898430e-01 2.096168009004902300e-01 3.795052900301317152e-03 3.580249667909578097e-03 -3.345361133529594078e-01
-7.582376915182353905e-02 2.257691930416610981e-01 2.095031862761575492e-01 -3.776830856459904850e-04 1.457274261497964064e-03 -5.000120215909169552e-01
-1.031935637911458870e-01 1.850773351444849057e-01 2.096671906256381557e-01 2.947294354954636906e-03 2.268409560537357293e-03 -5.122617824448154611e-01
-6.873898558729461816e-02 1.421466945397481807e-01 2.106555525372759141e-01 7.509987986754541878e-03 5.810045133389991553e-03 -4.373122514109463177e-01
-5.490976369352405795e-02 9.491972366060653921e-02 2.102116738835873577e-01 2.669599978089937098e-03 1.862251027060049394e-03 -3.988448031753694667e-01
-1.435721426210512797e-01 9.569389105227324444e-02 2.102101734324221538e-01 3.657313762142870659e-03 4.264783055981919910e-03 -4.236356183721943225e-01
-1.595252387968949248e-01 1.517227561716470996e-01 2.098211096710155821e-01 1.390062107329118534e-03 7.048276949573701808e-03 -5.975139039060876067e-01
-1.710536880384850023e-01 1.301497176187963734e-01 2.094835467369317583e-01 -2.381272058895831170e-03 3.535369349810505227e-03 -3.376826623039288489e-01
-1.033295727241334422e-01 1.703543921599871558e-01 2.098933091841176379e-01 -9.836776213073229400e-04 4.307521587389737464e-03 -2.349389808991320105e-01
-7.804609730671827061e-02 2.949904656776656808e-01 2.100657055066035284e-01 -1.998052019892242962e-03 -6.300578954607654898e-04 -2.553044115371566614e-01
-3.613438372884868882e-02 3.809297414249188662e-01 2.101076524909993859e-01 -1.160921754882035875e-03 7.355571072726249920e-04 -4.074065005202975320e-01
6.968932348769889262e-02 2.465437237152944272e-01 2.097767035051096296e-01 -3.993774795685924549e-03 -3.485262984086861734e-03 -4.991648545215556787e-01
8.421701831727734788e-02 2.831916211031592634e-01 2.105739370428640345e-01 7.762024189733274194e-04 -1.787510430145469991e-03 -2.851194260214992005e-01
2.062327465041372543e-01 2.150261943925002306e-01 2.110810903239245806e-01 -1.489989059449581049e-03 -4.827590352530398846e-04 -5.954164444599313599e-01
1.927335828909470250e-01 3.003811999424682577e-01 2.100631369950486937e-01 -5.709166033327335793e-04 -1.281616413019195629e-04 -5.731700323882347181e-01
3.022314337289338515e-01 3.631026903766917946e-01 2.096965431645137490e-01 1.593743028386128847e-03 -5.174491665821049149e-03 -5.769049513969887188e-01
1.721891751336568077e-01 2.760997263522393386e-01 2.104315602893565562e-01 2.086317511265211883e-03 -3.108195882884712182e-03 -5.519896881211682205e-01
4.362637657906472122e-02 2.160767334305160325e-01 2.104930915548608450e-01 1.632506423731538720e-03 -3.616875805225776112e-03 -4.542714866324606415e-01
-1.538680852854755650e-02 2.508578680509382375e-01 2.105626965077770363e-01 2.141434383683385196e-03 -2.846214832641472386e-03 -3.769309762781561934e-01
-4.015562971696921835e-02 2.483568528440033563e-01 2.100622164577677364e-01 -8.617450580407232932e-04 -1.294143171610836638e-03 7.340252391070838101e-02
-8.412766087464410014e-02 2.288559857162273392e-01 2.098166247368619119e-01 -1.149125650849715241e-03 -2.448900812937347161e-03 -3.052282155420160334e-02
-1.318832096135957865e-01 1.824807113159034877e-01 2.095063891837722347e-01 9.338239316733971430e-04 -3.453560465922476432e-03 -4.468440918877866763e-02
-5.685861057076815189e-02 1.891559237022511220e-01 2.086584831657841144e-01 1.237011482597189307e-03 -4.120600995469674119e-04 1.588264312314399962e-01
-9.107134528488930458e-02 5.404185217567536448e-02 2.103144623864384721e-01 1.348241623779784359e-03 -3.541412788834812867e-03 1.549672071166598997e-01
-1.420605010390760814e-01 8.918428737170197573e-02 2.096369543622482734e-01 -5.871644687355056418e-04 -6.171610417821778649e-05 2.055689854613043377e-01
-1.144996320533826356e-01 7.556652614898863585e-02 2.106988295165345138e-01 -3.978351808757435567e-04 -1.293647407892477156e-03 1.663223015477967026e-01
-1.047895968079132767e-01 1.009085044488548244e-01 2.099429115915371069e-01 -6.255948619066792078e-04 1.015272297579144275e-03 -1.252007324755428355e-03
-8.979784373003764364e-02 7.606367632526084277e-02 2.104274984397758175e-01 7.470434402566350452e-04 8.044878581145655135e-04 -2.342048164117466746e-01
-1.088670409328812427e-01 2.437529219209729620e-02 2.095076306600467397e-01 -2.989021228737306999e-04 1.177199044608323412e-03 -4.564252662365173019e-02
-5.472731641113567913e-02 -6.211903900954317270e-02 2.105065868636590287e-01 1.225104349091994324e-03 -5.800265396362852890e-04 9.701496822870403491e-02
2.523580796752234942e-02 1.444239663701774902e-02 2.111462034272307831e-01 -1.002264433381679825e-03 3.506435811212187722e-03 -1.739572637578224168e-01
-7.177753448016181703e-04 -2.386971883878533790e-02 2.095702326348545252e-01 -3.945077097626427517e-04 9.736577550811044727e-04 8.638627984498925549e-02
9.091340817654509909e-03 3.335673435450792548e-03 2.099337147412193572e-01 3.052684303786428041e-04 2.305371479220128493e-03 -2.411282654425177530e-01
-1.318812735772750301e-02 -1.420009722657480586e-02 2.103787773221141855e-01 -5.032809213000681288e-05 1.410259418296839302e-03 -2.079114962584132920e-01
-5.244637087775835815e-02 -1.150226028147135864e-02 2.107006227657984287e-01 -9.354226467436417851e-05 4.832220832245361520e-04 -5.554859988251987790e-01
-5.511111471472566331e-02 8.608631042383589616e-02 2.107588492392879487e-01 -5.673637871789805097e-04 2.128944026073404630e-04 -7.312266162260866453e-01
-8.453012948886497180e-02 4.418096616456745895e-02 2.092657595186628861e-01 -1.564589503643423968e-04 3.252184632450738459e-03 -5.331357249617906247e-01
1.374486131143457315e-02 9.387902275540654928e-02 2.095949069573200818e-01 3.175642151682855842e-04 4.061630131692030646e-03 -4.888857506759120009e-01
9.329111245668500474e-02 4.413084495668459506e-02 2.100821022898146095e-01 1.928110252007447269e-03 4.428785857268530655e-03 -3.166115408643981333e-01
4.174590553638551221e-02 9.586384842607448276e-02 2.108693968703393984e-01 2.192888531242716092e-03 4.420896764686354716e-03 -4.146610804365243874e-01
-4.784604123623113076e-03 1.873150466817963544e-01 2.095793481780461320e-01 -5.499174296500143784e-04 1.832428759255244708e-03 -6.030595518294525892e-01
-4.869311618851700219e-03 2.219307908246224981e-01 2.103516497126806661e-01 6.244125682215293427e-05 3.137109979401299549e-03 -5.002659080135065661e-01
-5.546767167237078022e-02 2.397716919591979245e-01 2.095192806539345476e-01 6.445354907956701721e-04 5.951856810737683745e-03 -6.093058725949674903e-01
-1.430492700806772731e-02 1.458398223610073985e-01 2.104348085394591727e-01 2.977871306575587606e-04 4.615676780444081737e-03 -4.434675444439092895e-01
-3.958069637463008938e-02 2.577280955899434178e-01 2.090213169493635448e-01 -9.692356868704653846e-04 3.266402740976492684e-03 -2.353678546339531275e-01
-4.799403651111568136e-03 2.289763775522901668e-01 2.101641043686703347e-01 -2.700820219555592067e-03 2.354836352538110592e-03 1.384206547490521300e-01
5.218862196235268813e-04 2.898412298775183138e-01 2.097648803628762715e-01 1.429158611160557960e-03 3.260672995548238081e-03 -1.015098829709215056e-01
-4.060779670087745485e-02 3.718420764598528439e-01 2.086859681303238068e-01 7.006202187997893731e-04 2.977162912026139717e-03 9.010305180393234081e-02
2.300969878712354200e-02 3.384862276260485192e-01 2.098886018530736197e-01 -6.201522861726169698e-04 5.521236158038815220e-03 6.267966469784756744e-02
3.517324543294410993e-02 5.027207472596482152e-01 2.102021467460575832e-01 -8.809167588977321250e-04 3.588591055269880169e-03 -2.037127847582420326e-01
