-4.465620120011065675e-02 1.185227086383504186e-01 3.650974865968303895e-01 2.937482196559573300e-05 -3.261234212371575086e-04 2.157927389901430001e-02
-3.558801404439673050e-02 1.199614499950416718e-01 3.653831248901561191e-01 -2.878206279820512263e-04 -3.542537449577716460e-06 -5.584099468683429573e-02
-2.825835114638245230e-02 1.261106331048136853e-01 3.648639973254926283e-01 1.703064546897047299e-05 -8.418099517997392877e-04 -3.026933215822297935e-02
-9.708881821317520006e-03 1.131881741483331677e-01 3.650940434288894587e-01 5.279718942025040523e-04 -2.400973636156389975e-04 -7.461972885478973527e-02
-2.858490735620774006e-02 7.442356175051309530e-02 3.652112159540958358e-01 -5.246290840847503195e-04 3.185567862314660854e-05 -8.546368058637228426e-02
-3.891428204786740591e-02 1.189372462099851646e-01 3.654191018118987389e-01 -1.138630440182180487e-03 -1.527439183745517510e-03 -1.136961073506469883e-01
-6.395756039208580490e-02 1.270688009668138330e-01 3.646918172478933462e-01 1.835172489003096357e-04 3.853314207314080335e-04 7.047528750473992798e-02
-5.155702180310908767e-02 1.396833256178210969e-01 3.649704021753700234e-01 -1.363714362531369807e-04 2.923627858159327277e-04 -7.527158775213325936e-02
-4.183526897525217947e-02 1.578082444117788752e-01 3.651320236740560610e-01 1.796355442772367350e-04 -1.665391575723576133e-04 -8.849313386665193237e-02
-7.698374155516707340e-02 1.461948322394774902e-01 3.650904443265517441e-01 1.152243181555409581e-05 1.113277198201833445e-04 -4.340723578822958811e-02
-6.007755282579255868e-02 1.849249903996597610e-01 3.651987955442449474e-01 -5.524008679329537892e-04 8.441771562965057858e-04 5.145514514702757142e-02
-7.415168788445765380e-02 1.901623884915978335e-01 3.649534502908841072e-01 -6.842920269346689205e-07 7.152447092577518930e-04 3.240070431017282038e-02
-3.422025109938345994e-02 1.736982710604331737e-01 3.649041727179700434e-01 -6.016188915484454200e-05 6.319332419161550725e-04 1.031241437945213391e-01
-3.240949435961961583e-02 1.506935427044455988e-01 3.648650861706116411e-01 1.598166931551254344e-06 3.742456980029545814e-04 8.004408317505963544e-03
-5.262840369418508163e-02 1.286653597097371371e-01 3.650415227644238647e-01 -1.066298549420585933e-04 6.068412511447177603e-04 -3.908861686268226554e-02
-3.040226685003202811e-02 1.319680107496604693e-01 3.650054006294981557e-01 1.212576724872506677e-04 6.433902765133398720e-04 -6.806100185996381835e-02
-4.633508853250459941e-02 1.693021862743493144e-01 3.648697480351836830e-01 -1.231088236166977014e-05 2.147056547918922090e-03 -2.996778155978040495e-02
-1.733320737091204392e-02 1.660500424044170642e-01 3.649961554914369355e-01 8.113662318522537828e-05 2.974943996412922082e-04 7.559663362320999391e-02
-2.011059306964950097e-02 1.742786578889352067e-01 3.650202968342360355e-01 -2.503082827665108656e-04 -5.908490088290270623e-05 8.497214281378945647e-03
-3.279892550074219731e-02 1.478289836346680097e-01 3.650014803791699070e-01 6.614911279294486638e-04 5.693634668693205777e-04 -2.565902369865637883e-02
8.661352517471517659e-03 1.520229161968679465e-01 3.649499011079426758e-01 -3.858767321452328983e-04 -5.466766298590846566e-04 6.211117792140422034e-02
-1.147879547141417156e-02 1.041355920970275378e-01 3.650568666277047569e-01 -1.296788801959123999e-04 -4.371874103450728221e-04 -3.827078304162469941e-02
-3.630890190688731284e-02 9.163374513600419657e-02 3.649616324152241131e-01 1.409291994242211471e-04 -2.270742799482159909e-04 -4.054421000269388398e-02
-4.202647394120797436e-02 9.698431752202271716e-02 3.649660062548371053e-01 5.872587375421894521e-05 1.996630192800377874e-04 -2.817182367256551578e-02
-6.428007449973155429e-03 6.053764146623408920e-02 3.650194048885937459e-01 3.061537119922804894e-04 -2.976612359596704106e-05 1.793130851266618309e-01
-3.189026211660932891e-02 1.895930639938172430e-03 3.650205017170989885e-01 1.684409710326638634e-05 4.302295554634943367e-04 1.741585032036191694e-01
-5.910746004353847720e-03 4.943157864572398502e-02 3.649850744449204543e-01 8.647768909558161386e-05 -8.094305317478988943e-05 5.397624239992691864e-02
-5.589690132561477877e-03 7.728272850956521833e-02 3.650101218080730736e-01 -6.692805785185274717e-06 3.588823092657892309e-04 4.215272101094577617e-02
-1.412539205800326415e-02 6.744872436469574739e-02 3.649885966846756480e-01 -9.463381794340358720e-05 -1.015191863640031023e-04 -1.007412379660099777e-02
5.820850904424195067e-03 7.771716353673993605e-02 3.649745430809394620e-01 1.160621184979244324e-04 3.438738893719644942e-04 -4.722991874852903310e-02
2.313244419059323070e-02 3.402237255859608817e-02 3.649150622024409651e-01 2.207513679204123314e-04 1.118848222511346132e-03 2.666105835395597354e-02
2.654319801396046175e-02 8.993585344977636509e-02 3.649591820595136094e-01 -1.067091112275149890e-04 5.126475805007685207e-04 3.923866225382092315e-02
3.445753457020006572e-02 6.914821408341759179e-02 3.649703812091671384e-01 4.099211379701784078e-04 4.558438840079957581e-04 4.421489018293513901e-02
3.915433439818870320e-02 6.743040140015436890e-02 3.649954821171266794e-01 -2.284554492799747116e-06 3.560480581660246398e-05 7.327478192174416427e-02
5.404891514797394159e-02 5.646150153590381859e-02 3.650236749722737817e-01 2.069236954808508855e-04 -3.222333942561282356e-04 -2.548300374920901140e-02
1.226562841039022071e-02 -9.129562134639893772e-03 3.650801289716243403e-01 2.167731121635654292e-04 -3.645796382246789644e-04 2.353859743864219686e-02
3.322564503270199199e-02 2.487469776249324679e-02 3.649810684672802896e-01 -2.122606837727971762e-04 -6.773815757470279188e-06 -7.352092226730848334e-02
1.461976271271583742e-02 2.097959330750728477e-02 3.650251490256293252e-01 -3.446130378110751416e-04 -5.383486477885853763e-04 -7.388782089610380910e-02
1.124772922781497493e-02 1.816859287883387103e-02 3.650043184849086630e-01 3.421283744164395043e-04 4.124006062300824053e-04 -9.698372476974186085e-02
-4.608061242259525910e-03 7.214689703177681705e-03 3.649709290864092681e-01 2.084358755702745466e-04 9.072957439076573911e-04 -1.854555924503279440e-01
-1.253414309550283760e-02 9.406010262990050982e-03 3.649791080277619559e-01 -2.120450856361966814e-04 -8.785536121034713325e-04 -2.149621193401161090e-01
-1.669519533529286240e-02 3.184077501246175557e-02 3.650022907048590115e-01 1.214258034211768199e-04 1.946312522213856369e-04 -6.190637352945072003e-02
-2.945138912739596933e-03 2.652998817720645525e-02 3.650150446105190349e-01 -1.655672216379126761e-04 4.571572563677337104e-04 -7.573376466827051734e-02
9.297383679448455174e-03 5.941241989078300395e-02 3.650358426097837228e-01 -3.486395171204767366e-04 -2.400247817169578253e-04 -2.372109076934058106e-02
2.875000556287088394e-02 8.629758317052055316e-02 3.650229341538007155e-01 2.835015521683718659e-04 -3.137608029527884650e-04 -7.943889023833353158e-02
-4.134868360449320962e-02 9.581081603694922844e-02 3.650582687576161556e-01 -1.845443099607981311e-04 -2.411363089596272810e-04 -8.779622266053160873e-02
9.429800475788920749e-03 1.314845857581730115e-01 3.647535602715921144e-01 -2.908278265395108919e-04 1.088112074812265344e-03 -1.250156479066386328e-01
-2.619823011783158507e-03 1.041332980294660260e-01 3.651277001650413689e-01 -5.096386737923143439e-04 -1.029606450837252047e-03 -6.458567136111090234e-02
1.110208471868704382e-02 1.198847663677658354e-01 3.650414723268199935e-01 -4.889277582368497751e-05 -2.258078568711704959e-04 -8.460208937464104920e-03
-1.768041138052630148e-02 8.778236895964765252e-02 3.648771954490361846e-01 -1.803148281822807789e-04 4.355009226243196775e-04 -3.983705224311619858e-02
-4.049887225627717829e-02 1.321815834785428911e-01 3.649140580066729811e-01 -2.549166956618673552e-04 -1.791927087484345088e-04 7.062368645646484311e-02
-5.199612961870097444e-02 1.621118716265046167e-01 3.649411496062164861e-01 -1.759284359774105320e-04 -4.682143767439337929e-04 1.244109292743305062e-01
-5.674306799168830906e-02 1.799714274192965591e-01 3.650667384324715048e-01 3.906891306700014028e-05 -9.261529905357434537e-04 6.498726506837059110e-03
-7.280706679011351989e-02 1.579584248961153903e-01 3.650262890705209262e-01 1.887213554794474031e-04 -5.449379611581647810e-04 9.564827330876524147e-02
-5.838312847823847601e-02 1.546075035069018333e-01 3.649355183498346200e-01 4.458828475733722565e-04 2.315024759865015703e-05 2.470686231770997943e-02
-4.849062752683092059e-02 1.984193665705794585e-01 3.650126865168550339e-01 1.264947791064667049e-04 2.193460272817671336e-04 9.146430090507259858e-02
-3.803940728424059364e-02 1.676038500185654812e-01 3.650183790471296374e-01 8.348547236650313277e-04 -2.410561658813358931e-04 3.974663682399397907e-02
-5.141807319412785432e-02 1.566190114293091185e-01 3.649494294134206784e-01 6.157910252675040993e-04 -7.400594050607479067e-04 7.157559143860778295e-02
-5.865119983234890616e-02 1.523565584793024341e-01 3.647491302042807915e-01 1.329658871842179344e-04 -1.651535946494473491e-03 3.991282448121819676e-02
-6.879119467826572132e-02 1.161840104704016940e-01 3.649160269480257179e-01 -2.571351945113551263e-04 -5.793173223444082253e-06 5.038454093672019990e-02
-6.139479488120999640e-02 1.497373263929018261e-01 3.649860214662207780e-01 -3.998260280289082859e-04 -7.712947081250957296e-04 5.710058940851162057e-02
-9.952001946354369077e-02 1.871284461041958780e-01 3.649399100728002443e-01 -1.079890900993186542e-03 -1.059723714879108212e-03 1.790228600373821796e-02
-1.046670030191766271e-01 2.034568090891075709e-01 3.649789027118006679e-01 -3.746772189638351456e-04 5.760224471202731334e-04 9.174565465658317265e-02
-7.144603193459334034e-02 1.935087382586189175e-01 3.650400074373842951e-01 7.391784718336046880e-04 2.339092324926118644e-03 2.641539112331066710e-02
-7.649140981237255443e-02 1.906525650219226264e-01 3.649881533679044665e-01 -1.904646931602502246e-04 4.608145165076947786e-04 1.939622495376864750e-02
-6.285305717030939543e-02 1.385852500037571267e-01 3.650285385310827468e-01 1.267240970158708133e-03 9.272078594973865535e-04 -6.745706013185835681e-02
-3.006290415456799869e-02 1.209576431184155032e-01 3.650388037114186690e-01 5.694292592753871698e-04 1.188660974604924129e-03 -1.156358877022137938e-01
-5.524430332029769963e-02 1.185821586336913563e-01 3.648540334588877831e-01 -3.726917146749534671e-04 2.333637953154065988e-04 -6.448406003622920990e-02
-1.314631740458892251e-01 1.264326109369793005e-01 3.650935061164946038e-01 -3.264650155003849508e-04 -2.005773242248977146e-03 -4.817833956403955870e-02
-1.468635135873237740e-01 1.104594046386096623e-01 3.650649766801530305e-01 2.222336065100809395e-04 -5.462617552663917792e-04 -2.535115000591120493e-02
-1.494637936460213590e-01 1.254158042361070147e-01 3.650331015524814204e-01 -3.845428143675543270e-04 -6.597680334945505332e-05 -8.692118163595174973e-02
-9.371593125741085883e-02 1.349441743089368761e-01 3.649699293803777556e-01 2.067011390088901990e-04 1.336528973842083818e-03 3.490821144802238631e-03
-1.303347423314994424e-01 1.692508410945600117e-01 3.649256428585450074e-01 -4.654850079252907604e-04 6.636335604762803571e-04 -9.720638282248399153e-02
-1.101254013615537847e-01 1.834994784446167537e-01 3.648661354693434333e-01 -5.334691287979301776e-04 1.987141183117249277e-04 1.542425296870508604e-02
-9.301476256327159686e-02 1.827734640361975971e-01 3.648361423268176029e-01 -1.369086404818303164e-04 6.396754747132488844e-04 -8.115601227974642007e-02
-4.850934545207814114e-02 2.008132342893480249e-01 3.650828061467248364e-01 -2.418562796799002073e-04 1.116816853532472641e-03 -9.847979338582181497e-02
-6.241090267796409186e-02 1.553509493511144868e-01 3.646515010323349015e-01 1.125574770881188373e-03 7.163512131084353576e-04 -5.200010092911852566e-02
-1.952026896756981975e-02 1.897286791003659212e-01 3.645529472414882344e-01 -6.202144106598176830e-04 2.988581092495692232e-03 -5.332684009906120404e-02
-3.319209186551651952e-02 1.456316480124321411e-01 3.645183791334571377e-01 3.343881283075883742e-04 1.805527435872964154e-03 -2.082793116620085434e-03
-3.555365886878800868e-02 1.410381358386601225e-01 3.648202122703653183e-01 3.471494917459522190e-04 1.556033747028877628e-03 9.979912104640978332e-02
-3.220337130677553700e-02 1.311099874209903371e-01 3.649832103049496235e-01 -3.975198727839149408e-06 -1.141414007147508814e-03 1.232918608120172899e-01
-2.760977012782353870e-02 1.489049655369980296e-01 3.649188769580894443e-01 -7.491675434152123697e-04 4.289028965421200516e-04 -6.454198232761262921e-02
-4.390158013892121736e-03 1.600081249393850158e-01 3.649175180316928668e-01 -6.215564867430359557e-04 7.808536577180503514e-04 -1.102651849090800912e-01
-4.857274433446844702e-02 1.349383609262702899e-01 3.648817525723285771e-01 7.237185713740395925e-04 9.230707729072236932e-04 -1.574505084797211962e-01
-6.228936971060285849e-02 1.387477515246761661e-01 3.648844933525037804e-01 -5.501594452234370386e-06 2.863807722636024919e-04 8.101040546367812428e-03
-5.420506432339224773e-02 1.347963586938491776e-01 3.649619381942730278e-01 2.341546495367789174e-04 4.875540584472447259e-04 9.933337024937222148e-02
-3.876005219946999925e-02 1.440136584312131374e-01 3.648196228046646783e-01 3.279800819108157637e-04 3.196258545703795518e-03 3.780533706118185955e-02
-2.167699940691171154e-02 1.473904372199428825e-01 3.651359442225380891e-01 -6.596668097352442924e-04 -1.064776274127161425e-03 7.110932373621355572e-03
-6.838348283998177402e-02 1.314868607145107116e-01 3.650303767516867026e-01 -3.500910278597274029e-04 -4.033442017047850149e-04 -2.397944148965989661e-02
-4.525648397365100023e-02 1.211879588005900094e-01 3.649181942473537221e-01 6.344050762715148150e-04 7.802236336616551844e-04 7.295073943840635344e-02
-3.011538539578257137e-02 1.174605284765935925e-01 3.649368863702125987e-01 -4.092691594482408395e-05 -2.638702603094000452e-04 -7.622800040745334078e-03
-3.160043012623792169e-02 9.915102664082144079e-02 3.646898945264160918e-01 1.349587167123560616e-03 3.951561175582864790e-04 8.771243775265755160e-02
-2.109185383943175743e-02 6.630824164589563252e-02 3.650436508169886407e-01 1.059859275639106040e-04 8.957488949679380053e-04 -8.243402923421318251e-02
-7.883243534231290650e-02 8.790824264635019314e-02 3.651751694951711480e-01 -1.202495459090815750e-03 -1.532853596596867431e-03 -2.508521581072247764e-01
-8.531951440887253213e-02 7.458953371834489698e-02 3.650331976606178142e-01 -2.177354255351011085e-05 -1.384113059395144152e-03 -3.154225064122068156e-01
-1.139298721819030358e-01 6.416675555723722058e-02 3.651925579270416944e-01 -5.211867055981164818e-05 -6.800468926946426134e-04 -1.912607943010020406e-01
-1.053685816572164508e-01 5.375839618366565209e-02 3.650252397297755191e-01 3.105249927454979735e-05 9.141399967082725671e-04 -3.032843993573849928e-01
-7.747900423347656162e-02 9.157319357700222096e-02 3.650714982624199689e-01 -1.738431904501258260e-04 -1.147688347478762188e-04 -1.331347445151589426e-01
-1.041475374057795056e-01 1.031169261882281807e-01 3.651673879177697590e-01 2.140954165477796701e-04 1.117857191924818581e-03 -2.888148177759529700e-01
-1.011206685196266997e-01 8.784966370589053497e-02 3.650273935643987278e-01 -3.451544640611169221e-04 1.137332091137086389e-04 -2.842474599694617132e-01
-1.050335368244194878e-01 9.101186069001165890e-02 3.651045173749669637e-01 1.406952729786076076e-04 -8.528451548313435715e-04 -2.894122872368353194e-01
-7.088099562724969882e-02 6.810600182323088558e-02 3.648741001952421348e-01 2.718748412821545826e-05 1.771678819270684118e-03 -3.498588492667329408e-01
-6.641394438977962777e-02 6.437775627019161340e-02 3.649845788448639050e-01 8.535057924332774791e-04 5.949501228110205906e-04 -2.536219170091658093e-01
-5.522516455466716656e-02 8.456222289934473002e-02 3.647716243064672570e-01 3.473858990144468935e-04 5.401121838691885736e-04 -1.918051233413566314e-01
-5.168945386758346666e-02 4.162710736604130490e-02 3.647019110986309265e-01 1.387761033163814519e-03 1.130159343618991489e-03 -1.839682713953722515e-01
-9.313085688097461068e-02 2.843759324672852015e-02 3.650761238428972266e-01 9.693152860178231125e-05 2.520902400386249839e-05 -1.297277113375912561e-01
-8.206134696538482098e-02 4.423290588845760901e-02 3.649933630949139252e-01 4.470342099827540066e-05 9.298909044213574159e-04 -9.334485860553222436e-02
-6.721090607253479843e-02 6.018164961756131831e-02 3.650626248834077936e-01 -1.337050067977041043e-04 -4.366716456771811217e-04 8.694868745130618359e-03
-4.804123107476764021e-02 1.048999761748207610e-01 3.648650805068961445e-01 4.048173676872475891e-04 7.578813161876516531e-04 2.172507582545685906e-02
-5.963310513564663851e-02 8.766605773406783986e-02 3.653054982573376019e-01 -1.883224904636876117e-04 -1.353915954971567992e-03 -1.746191960577397895e-01
-3.068067563235989809e-02 8.393247392253053163e-02 3.649016257069692681e-01 1.944739667119924856e-04 -1.934266189624466733e-05 -1.814507178597623005e-01
-8.788984117639470073e-02 8.472158026809806231e-02 3.649007816296764850e-01 -7.944066719359287694e-04 -1.299102874396699039e-03 -1.822253812952008278e-01
-1.225076478102664346e-01 6.776696189645044222e-02 3.651131652132381111e-01 6.423692905743432890e-04 -5.445287240176965599e-04 -1.355867391856714621e-01
-1.023020269453461806e-01 7.824184140709533608e-02 3.650682169914363229e-01 3.482518689323622582e-04 -4.590883659876410244e-05 -1.234557947714331194e-01
-1.054469913315173452e-01 6.279866028998652705e-02 3.649017699214195387e-01 1.692852113618207081e-04 5.901536941330373437e-04 -5.967363277172781089e-02
-1.220536881509163840e-01 9.177459474578879284e-02 3.648526429045517716e-01 3.254414533303758321e-04 5.961857786812918081e-04 -9.625554362912672191e-02
-1.485714696113591970e-01 8.632815219111525384e-02 3.635611233441445322e-01 7.603003412615582865e-04 2.502065724289460370e-03 -9.271596412935127762e-02
-6.581268809415041776e-02 1.096617300313835475e-01 3.646007615687490988e-01 5.944255938640459263e-04 2.801562973942829660e-03 -1.693205392484824212e-02
-1.058458192730948183e-02 1.011772552000532732e-01 3.648961633590853126e-01 -1.203046607897942529e-04 8.224122902737504700e-04 -1.199496880819505423e-02
-5.023722951322909941e-02 6.905072765220773845e-02 3.649795376472516062e-01 3.795479111853641298e-04 -3.301409316054556138e-05 -1.475638432498467822e-01
-2.250801067519939830e-02 1.272718827666172170e-01 3.649083081624938663e-01 1.103862534145997700e-05 4.003492260390159943e-04 -9.645012279202194727e-02
2.235380325038076668e-02 1.783328119793534949e-01 3.643766345488836933e-01 -6.288568122561334585e-04 1.721008769581538686e-03 -3.641659624286133767e-02
-2.719268783164703260e-02 1.903840389658873478e-01 3.650748440148594010e-01 1.711718370675099975e-04 -4.732366478580974983e-04 -9.508609131934191161e-02
-2.881170666708344000e-02 1.777738432466396956e-01 3.650411304203190488e-01 5.298131426079153491e-04 -7.826423845485983195e-04 -1.438209918068822368e-01
-5.633577000346642188e-02 1.679094501165683817e-01 3.651916876738177109e-01 1.993293400362163492e-04 -5.680305910592599880e-04 -6.661861979379911369e-02
-3.376182067574178686e-02 2.028206147459159225e-01 3.649241782402485312e-01 -2.408732028659472761e-04 7.282780074439481905e-04 4.659187363281254435e-02
-5.851174045524519529e-02 2.253856580455542713e-01 3.650639088688677480e-01 -4.462286301953521852e-04 -5.539185393758982523e-04 -1.228306811210096161e-01
-4.790223060504722463e-02 1.539458394301182753e-01 3.648890548002918788e-01 5.197122935595289810e-04 4.409081164758326147e-04 -5.827647842417966323e-02
-6.393908201411782621e-02 1.135959245414450980e-01 3.650805897741115635e-01 1.479067474681337781e-03 -2.669798384038900210e-04 2.026393907397441851e-02
-5.143956006569149614e-02 1.213757957506280821e-01 3.649623573954464684e-01 5.168078765961718309e-04 2.126635916387696124e-04 -5.661672744228262583e-02
-6.590491640465380441e-02 1.095005814728206295e-01 3.650075631862963466e-01 -2.641406201293782972e-05 -6.186303848440882422e-04 9.537625622142179016e-03
-7.101976776437146643e-02 1.161527719932423236e-01 3.649383865140043426e-01 -8.441017449530294810e-04 7.060882775852322317e-05 4.072822464990404068e-02
-8.296921687960766290e-02 1.171103524916915634e-01 3.650191013951906149e-01 1.837785930696789530e-04 -1.429032424643822820e-04 -1.979004845110414468e-02
-8.155231262820882010e-02 1.517215793082038466e-01 3.648327622915928936e-01 -8.754605514306771589e-04 -1.029486918574006114e-04 -4.837251957725065277e-02
-8.233418241190400277e-02 1.489629245358788656e-01 3.650469999038584712e-01 5.974181422109447939e-04 -1.905222361253388079e-04 5.782612188328461328e-02
-6.232784491769569057e-02 1.344223182920518400e-01 3.650228086911798120e-01 -1.105382485512639528e-04 1.384354687082051810e-04 -1.108403859382432605e-01
-1.537486297346582764e-01 1.153836545963493887e-01 3.648039790074885103e-01 1.122847222792277308e-04 -2.518948998447771096e-03 -7.158491389709115138e-02
-7.536762401541517720e-02 9.491532109513717286e-02 3.653777543741353329e-01 6.434158403406471573e-04 5.884189275252809216e-04 -7.068533267299138834e-02
-9.018529170495721836e-02 1.117103637824522905e-01 3.647896897928207260e-01 -8.693371810199472700e-04 -2.012729943281119874e-04 -9.382555480101689716e-02
-8.267613208794517832e-02 1.349567969474868290e-01 3.649526574005255153e-01 1.036379374853191218e-04 -2.990589171475777682e-04 -2.419577680233594985e-01
-6.520595916512601786e-02 1.308501874480600402e-01 3.651394101954121840e-01 -3.365853817354179378e-04 4.748313137523047845e-04 -1.039028727205683761e-01
-5.352975952783754765e-02 9.383334030509321577e-02 3.649926330186423762e-01 2.667871348315864802e-04 2.722720553249380966e-04 -5.359357506563581369e-02
-2.424754733144260724e-02 8.660851977527517231e-02 3.652066161537497191e-01 5.515575947355313762e-04 -7.955274402309711178e-04 1.467034642833940916e-01
-5.691784052977309077e-02 1.197001503499543207e-01 3.648715034528999812e-01 -4.199982148654081123e-04 6.193255120590455531e-04 1.275174262234217426e-01
-2.631982059375497993e-02 1.004077205739066780e-01 3.652411398061348180e-01 1.207907972431361597e-03 -1.842418622727423193e-03 -4.952349847900520269e-02
-5.111850940804008731e-02 1.309658736484837493e-01 3.651098528847921409e-01 -4.629335159939076028e-04 1.170960820202772857e-03 -1.678654796528662729e-01
-2.198791201112053340e-02 9.553551556047583382e-02 3.649254392055653051e-01 1.243859403976021408e-03 5.292589016244437323e-04 -2.342512527908380271e-02
3.981563499865221727e-03 1.122308472308520266e-01 3.649683482310092097e-01 -9.969835175929234151e-05 8.140434579567998406e-04 -2.545465137712271328e-02
-1.738207332296319227e-02 1.629552378251404310e-01 3.649180603940891388e-01 -6.680944501890673844e-04 -5.387961557143171147e-04 -1.858984015458963468e-01
-6.027771977217417226e-02 1.694136496139982684e-01 3.649995100327240172e-01 -1.640927354275231688e-03 -8.035987208209051207e-04 -2.159514766016178700e-01
-2.367635707290969421e-02 2.407719888256790175e-01 3.650312000040695226e-01 -1.346337381521195463e-03 6.255180101797296012e-04 -8.663285580505901418e-02
-6.286162547702950354e-02 2.421567141289744374e-01 3.650854056582257812e-01 -1.354028039692476695e-03 -6.943083644034238116e-05 -1.048386955775045676e-01
-1.060431092207577974e-01 2.477509362723196440e-01 3.649362720370888935e-01 3.144230225582277821e-04 -6.730246606726299251e-04 -7.655751036260689812e-02
-6.125830241808420673e-02 2.467003680489905093e-01 3.652538422019243614e-01 -6.788053771264631860e-04 1.323116277264052261e-03 -9.146061775079299128e-02
-2.208574065810954556e-02 2.304773991505476294e-01 3.651910679082453481e-01 1.616137778187694751e-04 2.574418914319689597e-03 -9.081489208552684378e-02
1.488755407047410995e-02 1.914358073896994528e-01 3.653480324119978695e-01 1.810456619322347964e-03 4.871524059569917048e-03 -1.570561056522953025e-01
2.183593594456014961e-02 1.973392072317504131e-01 3.650865185816116187e-01 1.110461993311986570e-03 8.743130826459537090e-04 -1.987338753912880340e-01
9.933249596026948181e-03 1.523351570481615569e-01 3.649265578217383288e-01 3.020761690711620991e-04 -4.646078136637445274e-04 -1.961028486922301584e-01
9.488306907677327567e-03 1.419573242116370926e-01 3.649082581659411906e-01 7.899389082251729503e-05 -1.876813815177881973e-03 -2.893438174835679180e-02
-2.294878837199663957e-02 1.466082368946994285e-01 3.648516600476005012e-01 1.808288093830559768e-04 -2.235668966089897867e-03 -1.868640567143134423e-02
-6.331736101962393004e-02 1.480101355240708572e-01 3.649707571723604937e-01 5.853340416926086111e-05 2.738730274088179437e-04 -8.972832378302102174e-02
-4.450224211356477305e-02 1.589092893802458994e-01 3.650205011831852975e-01 2.586163037021235950e-04 7.405367938101703462e-04 3.719855376179249939e-02
-1.693975261190326306e-02 1.733731815668607124e-01 3.649818486024233311e-01 -1.876492632069299844e-04 1.556889454903565169e-04 -4.100017495917444160e-02
-8.092805453216442291e-02 1.570979913156450858e-01 3.650254040945069001e-01 -1.271064869902684363e-04 -5.991237671087195531e-04 1.288788278111655250e-01
-6.057011716768184728e-02 1.659559403544133005e-01 3.650830268656820032e-01 -2.006156772076447278e-05 -7.737696580305525979e-05 6.586733823415918954e-02
-6.881987253482790834e-02 1.804552566652463941e-01 3.649797589448690038e-01 3.431705814009359222e-04 6.697058526796735448e-04 4.470482327016115504e-02
-6.438872855142352414e-02 1.716742608311877527e-01 3.650263025751768753e-01 1.554365326805818209e-05 -2.058225565762939867e-03 9.424559714119139231e-02
-3.004123788618224752e-02 1.417490642828816427e-01 3.651458313946384648e-01 8.619453659740329001e-04 9.587035647507795473e-04 1.260193138114483816e-02
-9.705746456622960094e-02 1.375424548397372604e-01 3.649834455921809884e-01 -3.150975995787618248e-04 -4.895176892610199728e-04 -5.816521420898095734e-03
-5.147960482201566212e-02 1.724866973527257596e-01 3.650757190234470428e-01 -5.108388218952284203e-04 -2.743844786549919112e-04 -1.348271922561051495e-01
-5.094643666789899078e-02 1.915605610022181327e-01 3.649957453434378163e-01 -6.119990164056356998e-05 1.457250005348868370e-04 -3.152221105138265644e-02
-3.433631290548317533e-03 2.087295442256066613e-01 3.650331800340965716e-01 -3.382456020760461757e-04 -9.364713744119004086e-05 -5.412972023804648453e-02
-2.038676831959947491e-02 2.188651000243962697e-01 3.649605450851556299e-01 -2.907337372350490601e-05 -7.788744722277582909e-05 5.874283223710862617e-02
-3.555888083280277917e-02 2.148275573856967824e-01 3.649770771483638598e-01 -3.913581160798897623e-05 -5.826596278493142251e-04 -1.808285105100668200e-01
-1.660623557161260491e-02 2.049302615462103017e-01 3.648195562100506328e-01 -3.270537430386248785e-04 1.554189281807827165e-03 -1.299189119308267679e-02
1.661344809245006091e-02 1.251199502190408208e-01 3.651110046895844619e-01 2.250811175604088043e-04 -3.794490917244109631e-04 1.783960825563561670e-01
3.811360581765216304e-02 1.325153875280541127e-01 3.649801097425495744e-01 9.473134378902606744e-05 -8.130920718808948592e-04 1.100776308081336946e-01
2.105236285957078068e-02 1.031430779659054803e-01 3.650036883556612155e-01 2.283172998539977950e-04 -4.163244458315917850e-04 1.816508111851672935e-01
-1.914063800302433921e-02 1.399530258725031895e-01 3.653789864329232140e-01 -4.796044567525679621e-04 -5.453101517484565744e-03 2.777736653573473213e-02
1.850103924586986260e-03 1.517860027538098233e-01 3.648951082356003961e-01 2.559101931040234207e-04 8.234322992901820740e-04 1.116148726392921994e-02
7.455915532873272009e-03 1.682761810860312068e-01 3.650808898559436133e-01 -8.162873543254248621e-05 6.972859954810405525e-04 4.246481613759262030e-02
5.840509935771449716e-03 1.222028362684658420e-01 3.649826644769537110e-01 4.751094031708332876e-04 1.055715781509805910e-03 3.827022510453961107e-02
4.015430723184105349e-02 1.618877838672133918e-01 3.649683866177314551e-01 -1.975022083440034339e-04 -6.343235498232846709e-04 1.460596531699534240e-01
4.955984387762451399e-02 1.755777037141607599e-01 3.650493273653201420e-01 8.478666556497880931e-06 -4.499340506013122898e-04 7.901587596606285402e-02
7.342473011614836231e-02 1.490161800553477245e-01 3.648502594376375474e-01 6.489113537944891019e-04 2.280472071229845774e-03 -1.000137860412971078e-04
1.083399612304197096e-01 1.100902832847370089e-01 3.650212863419482479e-01 3.494501750031805227e-04 1.686667166224758551e-03 5.982872010370009902e-02
6.126896210132216219e-02 1.387343051461662480e-01 3.649966442904712949e-01 -5.126409598125371454e-04 -3.455316164779071841e-04 -8.261351899514541739e-04
7.145930076619190496e-02 1.510653365634505585e-01 3.650786618779083836e-01 -6.505329305055456877e-05 -3.607228241564107668e-04 -1.410596189840601367e-01
7.322770357039684597e-02 1.524121468200342611e-01 3.651582008576793048e-01 4.279890025268011269e-04 -3.799855667155692222e-04 -3.172934375898122522e-02
3.523435033687706552e-02 1.510828766738187556e-01 3.650349437272918385e-01 -3.643941902285835173e-04 -1.696894092339182531e-03 -5.435095752438819094e-02
2.877265938031748835e-02 1.237571733633708593e-01 3.650182038248422911e-01 4.154873095801406313e-04 2.652546156760352512e-04 -8.254939248757432735e-02
-1.291087287840828567e-02 1.314489004494970859e-01 3.650511557648443151e-01 -1.147367441204345351e-04 -4.261027676382834312e-04 -1.102613711690250409e-01
-7.011157297058843519e-04 8.267836097472415491e-02 3.650205441001526108e-01 3.543323122326707706e-04 -1.056877077415212924e-04 -1.400800270126354719e-01
1.090918444924718865e-02 7.749112828816392962e-02 3.650231590605343968e-01 2.699989909548746077e-04 -2.884661108753002867e-04 -3.387614307304566419e-02
-1.956149178797025531e-02 9.839216859257945980e-02 3.650461131773831136e-01 -8.530571703204834670e-04 6.191019386346557256e-05 8.991298905098535355e-02
-1.460521745059380726e-02 1.515015031062002526e-01 3.651464554699233034e-01 -8.433981169085075918e-04 -1.442724751747063625e-04 1.266052755202536073e-01
5.842131508873429045e-03 1.678729755150730474e-01 3.650266155990803396e-01 -5.581007134065940937e-05 -2.360665173508254549e-05 4.280455863844979253e-02
-1.496039505842216048e-04 1.160859638924330584e-01 3.649915325541379651e-01 -2.774299655839143012e-04 2.149384101706559684e-03 -1.338017961299931002e-02
3.146174475727952363e-02 1.428294381971591809e-01 3.649567621377028948e-01 1.947943322036314507e-05 -6.868665202430055284e-04 -6.597353110648407348e-03
4.186915818427707631e-02 1.196722718926489931e-01 3.650190881028522183e-01 -3.024016673837336112e-04 -4.645825288295643454e-04 -1.202058424577125140e-02
7.267927571701722489e-02 1.625317965126865383e-01 3.649662153647124097e-01 -2.204955854997933922e-04 4.221091363329987031e-04 4.022626692247027735e-02
5.158946550652752927e-02 1.160792777785715629e-01 3.651179838205872441e-01 7.776209034143952929e-04 1.060910372188585268e-03 -9.429930857734517002e-02
3.300684432407208213e-02 1.332649269607779074e-01 3.649178397340050450e-01 -5.688352748347804333e-04 6.915406611063357276e-04 -9.654982712360984931e-02
4.122355262947602350e-02 1.532410307552242446e-01 3.650599251287649505e-01 1.141621384903455163e-04 1.428488979292824406e-04 -7.737699364232221433e-02
3.755969082960783356e-02 1.423057378686671537e-01 3.650590528127947154e-01 5.368751750302269644e-05 9.403946068591230618e-04 -5.440203366640736227e-02
2.725566328906742913e-02 1.054410330168265852e-01 3.651892777028521997e-01 9.045752056878216115e-04 -1.942370188445157169e-03 1.426295487262159434e-01
-2.479583546647769633e-03 1.255946849632494922e-01 3.650005459073295544e-01 -2.829982849642655803e-04 1.044994029000458546e-03 1.241916233314526580e-01
2.910448532501212077e-02 1.586295505182918619e-01 3.650022767374741517e-01 2.932533480652762463e-04 1.352434542182298638e-03 1.004557022668258748e-01
-1.973675089127855254e-04 1.450173992337495943e-01 3.648511994209688303e-01 2.047716726556066927e-04 -3.538929262588446549e-04 1.157845387997037262e-01
4.347896865283462642e-02 1.304126675944416169e-01 3.650287730851355938e-01 5.129333877779697180e-05 7.482308530577319941e-05 1.397132335933962410e-01
5.143742028541289230e-02 1.296869887275652611e-01 3.649473966985025131e-01 -3.394542528221196234e-04 7.272819335262623464e-04 4.646793595334062360e-02
8.409661857439770793e-02 1.080983792635901025e-01 3.650457560461440321e-01 -1.435409865050821839e-04 4.678846271595959658e-04 1.479134749094507262e-02
5.414768907551455179e-02 1.135509603632390285e-01 3.650607499120731014e-01 -1.193388270789093357e-04 -1.160550540446212732e-03 -1.159471344060458882e-02
7.876871761837549168e-02 9.254674487297984142e-02 3.649861665017926082e-01 5.001581595757923632e-04 2.137274070180715719e-04 -1.000176639488525587e-01
5.021610640126534381e-02 7.398693291957027240e-02 3.650067721335796822e-01 4.090962777642251011e-04 -2.479662732404258542e-04 -2.577632105278717112e-01
4.128417804761276566e-02 6.273430961723343302e-02 3.649532354180341498e-01 -1.814273366321453188e-04 1.212618469091385930e-04 -1.087660967833985193e-01
4.563611523398376779e-02 6.916566706411408916e-02 3.649938517449615172e-01 -6.671030684637270915e-05 3.943918895668142219e-06 1.513956383510970012e-02
6.841914354333523962e-02 5.651435188860903097e-02 3.650494120777063589e-01 5.309569652187199089e-05 -1.512489211929020827e-04 -9.813442362115154527e-02
1.516130001009060799e-02 3.429384975897706994e-02 3.650811502853048562e-01 1.079231319085396365e-04 -2.431253764590190830e-04 -1.335438785053878474e-01
1.188869172179694844e-02 4.090231386210814446e-02 3.649346906645268840e-01 3.970495144514320628e-06 -2.913730241448323367e-04 -8.730029596791876595e-03
1.782235029611597965e-02 9.854814034157539579e-03 3.650395078488842815e-01 3.248202003442112970e-04 1.249394684593475846e-04 -7.453443956983893393e-02
1.913165274196183818e-02 4.129144955010354695e-02 3.649077110651629541e-01 -3.560930936432363204e-04 6.405559631517772010e-04 -1.449978939422389979e-01
4.375088719884811378e-02 1.732691719935221947e-02 3.650034062853607097e-01 -4.602358222794155517e-05 3.820274923834889686e-04 -7.198404399637924056e-02
3.503805580843544903e-02 2.104848667685226341e-02 3.649413530581171461e-01 -9.819971725790907176e-05 -5.191983564548713825e-04 -1.134468025238138805e-01
3.799918188459881080e-02 2.159418856811142276e-02 3.649487812909135709e-01 -1.228273389963001284e-04 -4.097575895268090024e-04 -2.993244171010875365e-01
3.092462831834815948e-02 1.902474821745466990e-02 3.649784261861799273e-01 -1.303628726577106024e-04 2.136209976635026510e-04 -3.074635469132290799e-01
3.725696720545402379e-02 4.197356976802502776e-02 3.650406138219253194e-01 -1.686811934369629332e-04 3.726626039625282141e-04 -3.692717354888099823e-01
4.534614706913109999e-02 2.768073300122385338e-02 3.650090482050243890e-01 -1.434956961012423158e-04 -1.219163407917762850e-04 -2.500093203051622082e-01
5.384240736460307181e-02 2.262739117453142421e-02 3.649509754142484241e-01 -2.554322890074582544e-04 1.635232207233102612e-04 -3.061433764484742248e-01
7.652975756908678151e-02 4.158135489618864505e-02 3.650357178575243111e-01 -3.378271834233622902e-04 6.025157396667198823e-04 -1.356057641075749109e-01
6.474641231016552145e-02 5.139757019246641440e-02 3.649160418679550100e-01 -4.675358874522864507e-04 1.467356872248155712e-04 -1.901545116287333137e-01
6.493692452789077973e-02 7.215583010854043078e-02 3.650330030869820552e-01 -2.404846293752718257e-04 6.035013232297679235e-04 -9.636711123387683986e-02
4.789986274838400199e-02 7.529749673077251737e-02 3.650415982663129943e-01 6.982109737900691953e-04 9.706340579552805528e-05 -6.373628809255411920e-02
5.182404362148841648e-02 4.398686099577767128e-02 3.650692962194019842e-01 9.729434307972506133e-04 1.854211093128991313e-04 -7.722740598079232133e-02
8.518940910051067683e-02 6.695837266998827531e-02 3.650000251515074234e-01 7.698053501575473324e-05 6.858734927036202371e-04 -1.680231932461994648e-01
4.956379265306627008e-02 9.918834636454031128e-02 3.650232132120441730e-01 -1.376774643802914668e-04 5.271376969743119960e-05 -1.514128335875173925e-01
4.917601110151819527e-02 9.509864382616610434e-02 3.651466516179437405e-01 3.315382887583651832e-04 4.334552383805176531e-04 -8.338832338317064830e-02
2.433867144289654505e-02 1.001215173386093144e-01 3.649471456939751279e-01 5.117215227943801222e-05 -1.074567648325753339e-04 -4.818963651011255733e-02
5.563535767232656581e-02 1.471728348514884654e-01 3.649913703740831350e-01 -3.936719532866616374e-04 -3.147990863281265516e-04 2.443790001941404874e-03
2.646007517243044449e-02 1.154411591696948430e-01 3.651096807388786170e-01 6.832099949888793171e-04 1.858015940981198259e-04 5.149878030911562987e-02
1.721976639013011665e-02 1.226523432091611299e-01 3.649760655988715796e-01 -1.591000429862356018e-04 -1.507623819687990154e-04 -6.846382537264965318e-02
1.746579202968273625e-02 1.430406552124697250e-01 3.649260090367408282e-01 -8.529120122240046271e-04 -6.201944061068993212e-04 -9.418604114041866093e-02
2.885690667888631336e-02 1.612190607952856403e-01 3.650373116007212815e-01 -9.219331945101945966e-05 -1.208789146930096660e-04 -7.927467690554915181e-02
2.051491329085420798e-02 1.575995758816000347e-01 3.651762147921504553e-01 8.176465025608371275e-04 -4.996267687058648889e-04 -4.824974658321409121e-02
1.241476186413197763e-02 1.094904025881139192e-01 3.649552748032329763e-01 -5.265074688910163520e-04 -2.811458034192443876e-04 6.118829572271176215e-02
-1.254762984052404211e-02 1.547079183852969331e-01 3.649992875752013921e-01 1.165333385951183066e-05 5.153153888131585037e-05 -7.379643014110193883e-03
-6.385847708777024102e-03 1.352097554900833776e-01 3.649717727207789641e-01 2.026288076600199441e-04 1.836068863891599369e-04 3.288653240940256350e-02
-3.460685328525286292e-02 6.104892789895049326e-02 3.651670015799627911e-01 2.327425088039841196e-03 4.571266301629526088e-04 1.232440495574407407e-01
-4.107615586346514969e-03 1.653477837253083949e-01 3.651257925571946839e-01 -1.037805516484498983e-03 -9.544605418195756079e-04 1.083450586360253931e-01
6.522267446410085108e-03 1.290411880140162892e-01 3.649544524962377579e-01 -7.599332987126593882e-06 2.830030974577896013e-04 1.246350776274727790e-01
-6.109426119593989058e-04 1.251563278929172796e-01 3.650391157366222328e-01 -1.477788071690328899e-05 -8.397720657713618768e-05 9.872206732209477809e-02
-2.540332931318149625e-04 1.359718614865914887e-01 3.650274334069485982e-01 3.439643071571285912e-05 -4.310946372708082702e-05 -2.672159412184578909e-03
1.172179472714400018e-02 1.689918848474214474e-01 3.650856171847861043e-01 -7.832904387595090480e-04 -1.014254660208346783e-03 -2.300407247944141406e-02
-7.058130832843400281e-03 1.935163008397019768e-01 3.649970973524813145e-01 2.592486089797733017e-04 6.170675719778186304e-04 -9.361525283403297022e-04
3.607272359883163110e-03 1.972898757757443333e-01 3.650086906942685006e-01 -5.297895835805978737e-05 4.761731559471081283e-04 8.616294709985197406e-03
4.507486879450741529e-02 2.226631454308364289e-01 3.649753876376543582e-01 -4.726042034436720145e-04 4.177646845300311221e-04 2.959061310047699650e-02
4.595007012369198979e-02 2.102955336119851082e-01 3.650756463985556644e-01 -7.493440571093439332e-04 7.246450479948240422e-04 -2.546441948423431786e-02
5.238606607264388593e-02 2.121434279524727351e-01 3.650040590830669340e-01 -6.539122152362824203e-05 3.292450566879586175e-04 -9.945974743877343538e-02
4.323356159194224196e-02 1.693679166259066116e-01 3.649238764165338988e-01 7.971841422393758118e-04 6.523813157046099700e-04 4.714463971828115885e-02
3.221356368818424631e-02 1.932857082102464874e-01 3.650389690704240464e-01 9.193303338484244255e-06 1.142097858966584234e-04 -1.344172273596679346e-01
-3.388519066136482893e-04 1.549513803694214098e-01 3.649870637706550403e-01 -3.337988729858456182e-05 -1.000775675057419224e-03 -6.774159258012465989e-02
3.990735429296710622e-03 1.712822685054839200e-01 3.649409514114948516e-01 2.030887072370000609e-04 5.166458186979328362e-04 -2.915509071363157206e-02
1.211554569734588950e-02 1.537070355705560665e-01 3.650473438643904167e-01 -3.710125948911097800e-04 4.681739262539566504e-05 7.263803269285913633e-02
1.203156294637872104e-02 1.970884738641537071e-01 3.650853777531938293e-01 3.207449287654928218e-04 6.821213315650842502e-04 -3.725694142777020296e-02
1.180527075137410842e-02 1.755172022898938422e-01 3.649510076916983037e-01 1.762023842305067368e-04 -4.600552014063445227e-04 -8.574462446488641254e-02
1.869903810071120095e-02 1.535766593192721963e-01 3.650680834244947603e-01 8.075230729655039053e-05 -1.115311250707647908e-03 -9.520243099388706054e-02
-1.654707606073547999e-02 1.590473372298145116e-01 3.650901385026437684e-01 -4.477441554372560309e-04 1.919824295722395886e-03 -1.776529176179133251e-01
4.382447316816479033e-02 1.650456063239759685e-01 3.650762624480619056e-01 3.754220394117578044e-04 2.509725106777385630e-04 -9.484048889059393250e-02
6.819547160638633754e-02 1.463957651220433032e-01 3.653052369245417541e-01 4.114256296288998382e-04 1.315183681058986701e-03 -2.298753354534985582e-01
8.071088888009375628e-02 1.015589483916139318e-01 3.649325681477584848e-01 6.172737446978812659e-04 -7.786030306353058689e-05 -2.376895774585486565e-01
9.971128479998467298e-02 9.892623336270449375e-02 3.649749385008638214e-01 -2.266144177384009275e-04 3.557215207256275800e-04 -1.775885559944521130e-01
1.126322992105872889e-01 1.206674375086342621e-01 3.649944808516500938e-01 -8.184477991691364179e-05 -3.692534173823912866e-04 6.042009991399051490e-03
8.225285309890796592e-02 1.212541125516240353e-01 3.649729894971369681e-01 -1.084148385382195613e-03 -3.778758148664576317e-04 4.092171436136859269e-02
2.740130785138448349e-02 1.387771392248834113e-01 3.649699500302460153e-01 1.173251329225801751e-04 -1.106720957777282887e-03 -1.900954801774314695e-01
7.613280327410444637e-02 1.219137322426366021e-01 3.649145805199807135e-01 1.746445364429160318e-05 3.867723093433593756e-04 -1.899165726444518310e-01
4.753751581903063045e-02 8.293902082890890204e-02 3.649673444639393027e-01 1.106383359406472961e-04 2.106770069804913420e-04 -6.862101509784289399e-02
2.990150095923134119e-02 1.623171051301828538e-01 3.649432912397959639e-01 -3.680799399819201516e-04 -2.348613736044804958e-04 -1.463493069074424668e-01
1.772630416944359286e-02 1.274977877029020434e-01 3.649884287949818340e-01 5.354100221057340710e-04 2.733762413453511811e-04 -1.403858387929763918e-01
9.490674591654183270e-03 1.337409601828674632e-01 3.649549348487712841e-01 2.544546487644357689e-04 -1.647120909715584836e-04 -1.856080900584585747e-01
-9.121700940718516703e-04 1.265817580733240300e-01 3.648637520150951885e-01 2.320951839768795001e-04 3.520673709592105766e-04 -9.657605171511003672e-02
1.887699074269088987e-03 1.429855270481154572e-01 3.648599582507645600e-01 -5.891749179698180326e-04 -1.202040023841232974e-04 -5.753154273682514058e-02
-1.855815709398473887e-02 1.313510673812194884e-01 3.649735107126865219e-01 6.289769989497577421e-05 -1.735610415380980757e-04 8.849787449764605352e-02
-4.983226410681241940e-03 1.145701901244565168e-01 3.649482567770899744e-01 3.243211291346199086e-05 -2.382898397588868668e-04 5.513323525884298443e-02
-2.918888975437672686e-02 1.424383621057372373e-01 3.650186526812563281e-01 4.595531811393953765e-05 -1.309472472319341896e-04 -4.845925340506094386e-02
-1.464575089188413504e-02 1.569894081758718973e-01 3.652531540521888331e-01 9.232377420989764912e-04 1.318237912422568804e-03 9.394982773318290292e-02
-1.815537570472259069e-02 1.688673708135527141e-01 3.651053036446364475e-01 -7.600121436270729225e-04 -4.628485300449675501e-05 6.132167597955694854e-02
-1.745107911649095705e-03 1.493930887200146107e-01 3.649983957172407978e-01 5.558217363549733782e-04 1.770041455980719087e-03 2.059467044457351514e-01
3.195181948767859131e-02 1.117143660203155503e-01 3.649342887168928740e-01 8.006921572029557146e-05 5.489775015984564273e-04 1.888977495377306970e-01
5.208693161709290059e-02 1.289134416966379315e-01 3.649971476141186666e-01 2.897202151690303094e-04 1.174771962724688047e-04 -1.454338375538565160e-02
2.918083565160988976e-02 1.001520519827405059e-01 3.650022037711601608e-01 2.084982728103841414e-04 1.153279148545288809e-03 5.543071756859670185e-02
1.312455981019111130e-02 1.303450153179561144e-01 3.649561898307487340e-01 3.238961055312219485e-04 1.334801304733474175e-03 -4.471209395439586752e-03
-4.485022362587016281e-02 1.384108278737279929e-01 3.651050970562075282e-01 6.658355766361471811e-04 9.805857326222793208e-05 -1.788115483646047208e-04
-1.719305365965029600e-02 1.353130423589979092e-01 3.648300929725045716e-01 -1.812334697051895017e-04 1.339756148488894464e-03 -4.144086009140103555e-02
-5.484913119443459578e-03 1.502780969673631895e-01 3.649667444528413851e-01 -1.909244813053412348e-04 5.492676723492203369e-04 -8.115450672025664247e-04
4.200058273696607482e-03 1.353436955348507331e-01 3.649901936981521655e-01 5.314945067985668483e-04 -1.117644579352358562e-04 -2.023191023725795235e-01
1.185558538315582312e-02 1.152317366389128545e-01 3.650952535192656390e-01 -1.756733698364756229e-04 -6.162433541428616714e-04 -1.766757646282965388e-01
-1.457017735690415046e-02 1.302814562125597653e-01 3.653036905617412788e-01 -5.974475812842510673e-04 -1.023361723116750915e-03 8.237961598446827405e-02
-9.176890272500145759e-03 1.176900952497261510e-01 3.650625209869394205e-01 -2.730318708845087361e-04 -5.061363345431798546e-04 1.640491832241700032e-01
1.625586217842254697e-02 9.493311379792841731e-02 3.649919523441917946e-01 3.571796468161069177e-04 6.164889677149398622e-04 1.743245961123054966e-01
-1.914989296608705927e-02 1.123171018976343999e-01 3.649671237448364747e-01 -2.691553268902543338e-05 -8.644491745520502127e-04 6.462070013876158869e-02
7.449951208265591200e-03 1.388506900820153656e-01 3.649310646863938024e-01 -1.285443586747368186e-03 1.488812553798186727e-03 3.920649267531596538e-02
1.752834123310313685e-02 1.141526706451321399e-01 3.650340362854374021e-01 1.496449733389384507e-06 -2.892296520624697254e-04 2.101167575820378219e-01
2.979735839542358572e-02 1.278521743556017831e-01 3.652028639844449587e-01 1.195862501826437836e-04 -1.099584781122238961e-03 7.851520366650226179e-02
-8.245609232529127128e-03 1.098551884292238018e-01 3.650160394700940891e-01 -2.563972774888377396e-04 -3.281738470829685650e-04 9.190933757412877297e-03
-3.699552408891049193e-02 1.285370081114267649e-01 3.649685653668051644e-01 -6.018034592949115765e-05 -1.338574495304312249e-03 -6.164381534066400159e-02
-2.585095189031727525e-02 1.084475581449331760e-01 3.651772963375553016e-01 3.424145076511263003e-04 5.243488394718290747e-04 -2.380993301519608932e-02
1.774811138949878783e-02 8.760272725722077769e-02 3.650234695563602250e-01 7.004109877766009082e-04 1.964723818649085404e-03 -6.395836253478431876e-02
1.644045373713565183e-02 1.287273076435097863e-01 3.650356117790215515e-01 -4.529579625700964180e-04 -3.704431935527102400e-04 -1.037950979322337236e-01
1.344926742830260605e-02 1.279577787815684986e-01 3.650569598401504079e-01 4.926647289768176828e-04 1.610728690907817793e-03 4.062415481992130012e-02
-4.753067521311909256e-04 1.536343524046775710e-01 3.649847350115144051e-01 1.910642813076730503e-05 -3.797769560843867001e-04 -1.310055863128174736e-01
-3.095932361431618599e-03 1.648024757738442425e-01 3.648460504651176994e-01 -4.118136182554587871e-04 -1.326258594948450178e-04 -1.457138393913352259e-01
-2.646101019079386343e-02 1.774861521517140661e-01 3.649547350917118349e-01 1.476042865591082210e-04 -5.785176556214952082e-04 -2.179154520186230848e-01
-9.513427916693652925e-03 1.606006476155766582e-01 3.650614506083119659e-01 -2.208913618639392546e-04 1.516764840331874488e-03 -2.059355371175840554e-01
1.978261230923011003e-03 1.430768545649306889e-01 3.650519780722554231e-01 -2.633000619084649571e-04 1.576584710745412192e-03 -2.147081467026143997e-01
1.164766941165456919e-02 1.138814876502476647e-01 3.650041106733080687e-01 1.005111353702490412e-03 2.035686129943485318e-03 -3.058212075137977104e-01
