3.481388189870052163e-01 1.691148860819492172e-01 2.093470309963674225e-01 -8.102150497938128250e-04 -1.071494447633484712e-02 -4.178744533435784225e-01
3.296441318975383838e-01 5.874681362847672395e-02 2.096126353470471049e-01 -1.060737471404297290e-03 -1.072987857000885781e-02 -5.463108655084816245e-01
3.432610416784151464e-01 1.248119732797310089e-01 2.098357040207808333e-01 -9.035496160019762264e-04 -1.080355505645730352e-02 -5.357039502296948585e-01
3.470693449795720920e-01 1.184280019724221616e-01 2.099764382523593431e-01 -1.132243088366858977e-03 -1.058573062677999922e-02 -5.837274088830313179e-01
4.005481486620825482e-01 1.336605379333473120e-01 2.101420467170521666e-01 -9.174511215981595016e-04 -1.062716970684369697e-02 -5.165527837331581607e-01
3.298560274944564719e-01 1.229059780571522126e-01 2.102957021654918157e-01 -1.088265216502986481e-03 -1.069229642192435006e-02 -4.605629401560209502e-01
3.688309987786108080e-01 1.058327942061337706e-01 2.105006866613783334e-01 -6.350241184789699993e-04 -1.068743849451846140e-02 -4.329350173523746625e-01
4.016725024158648849e-01 8.166923620470821488e-02 2.104748457609736945e-01 -5.859622774309902749e-04 -1.055260739777137344e-02 -4.606282690732388940e-01
4.462378266246107006e-01 1.125818044470157792e-01 2.105615616462678252e-01 -1.220497374734911362e-03 -1.074143256708694379e-02 -3.523379331301149664e-01
4.260697857064194016e-01 5.293364258668888100e-02 2.106637662385237864e-01 -7.571287929556936528e-04 -1.072849506163099306e-02 -4.056536334305648750e-01
3.678745042560770950e-01 8.950737586582421801e-03 2.106221155297708925e-01 -8.847744647616763653e-04 -1.053608248499671336e-02 -2.892303361436212583e-01
3.906306407124702784e-01 3.040085980080231565e-02 2.105865759017211403e-01 -9.142261347574470341e-04 -1.061349186157885087e-02 -4.243966723421778164e-01
4.514055786622979127e-01 8.670543774409940341e-02 2.106555924908060651e-01 -7.187389073145310312e-04 -1.065650600573027178e-02 -4.033644257696871183e-01
4.033374102146988216e-01 2.057543948604645401e-02 2.106611807386245538e-01 -9.003474489973149319e-04 -1.078896284843353787e-02 -4.211019114603286595e-01
4.412220187941192084e-01 1.095683789715848622e-01 2.105493893995117327e-01 -1.170849929414081569e-03 -1.054825277690411151e-02 -4.953662558031441954e-01
4.087040152818363636e-01 1.082348757295132080e-01 2.106394740429373691e-01 -9.910838708526313514e-04 -1.071131642268706441e-02 -5.201600139863992167e-01
3.410048771145736124e-01 4.983720634749564532e-02 2.106504110426205001e-01 -4.689818990568882782e-04 -1.052802528802936066e-02 -2.751126179879714306e-01
3.557907606393624911e-01 9.872663616308061107e-02 2.106401435587177406e-01 -8.362056155829048756e-04 -1.067380311464405200e-02 -4.866894860922288402e-01
4.202592419403381463e-01 -2.123418227847609363e-02 2.106805347852579446e-01 -6.060244895701278559e-04 -1.074409886137031069e-02 -3.658489722893537022e-01
4.040318342714567801e-01 -2.692166235745645925e-02 2.105683617060332691e-01 -9.781829731812555998e-04 -1.053185412957567159e-02 -2.021034478332333351e-01
4.210317822504728857e-01 6.260249517980384648e-02 2.105874130945907252e-01 -1.109801287433692402e-03 -1.071988970492246916e-02 -1.774319993866881051e-01
4.772734012115809055e-01 2.145013108913739960e-02 2.106365594511269701e-01 -8.512885202344872828e-04 -1.069300088282005602e-02 -2.551053365205813717e-01
4.072469901136854253e-01 4.572781679718963127e-03 2.105705147199753990e-01 -1.007230845869331627e-03 -1.050146011055329807e-02 -1.441007251215773721e-01
3.304680396845643409e-01 -5.213733462297386045e-03 2.106025271452677261e-01 -9.848175253614312522e-04 -1.049640965136515100e-02 -1.662157334069190029e-01
3.512264926931195075e-01 -4.195631859941479497e-02 2.107168632533470976e-01 -7.698589037742040219e-04 -1.086372207991524209e-02 -8.362165830835582847e-02
3.568800508406719252e-01 -1.983147247420366521e-02 2.105910617076726665e-01 -1.089002037336611823e-03 -1.061240036621206688e-02 -3.299362820683999775e-01
3.581000850246982004e-01 -6.791722356887558432e-02 2.106152794220512159e-01 -1.096555990463548994e-03 -1.081578540952830673e-02 -2.413345913707851398e-01
3.703339717219298333e-01 -4.504642134939908227e-02 2.105830354185549425e-01 -9.594005134412051435e-04 -1.056205186394566960e-02 -2.279751871862803203e-01
3.332452031635573797e-01 5.536749088858126250e-04 2.106063519460639744e-01 -1.082415192541124303e-03 -1.062372296074477578e-02 -1.734240634879023746e-01
4.218189895136484346e-01 -2.898844621108214586e-03 2.107198026342047559e-01 -6.762697138470381885e-04 -1.086937775044297810e-02 -3.081212170800494698e-01
4.457847762343968290e-01 -1.641815210586235543e-03 2.105872776735992491e-01 -1.018380026641121320e-03 -1.063932039656002686e-02 -2.327023312745357675e-01
4.073110582776433009e-01 -5.820508031403863469e-02 2.105968036368787710e-01 -9.041212587399317414e-04 -1.052246821733337188e-02 -1.622287385569886886e-01
4.180623614576287062e-01 3.804508355101645506e-02 2.105545438217190646e-01 -1.233596128754170084e-03 -1.050386915223565885e-02 -2.064569199913198483e-01
4.032037858959576782e-01 1.371380230714658033e-01 2.105954656250507706e-01 -1.044532938060923136e-03 -1.060405701964265736e-02 -3.990873856317304069e-01
4.206193039996903305e-01 4.110557804906835033e-02 2.106352876887038761e-01 -8.011244812305457104e-04 -1.069618611206281898e-02 -2.791199218099953416e-01
3.735757032635758090e-01 -1.819171028630340442e-02 2.106239128265874894e-01 -9.350074822505643124e-04 -1.063380566675076536e-02 -2.272147197085173931e-01
3.987751204265235216e-01 4.311899614114401286e-02 2.105837287156789861e-01 -9.927564310742501008e-04 -1.060059622571690383e-02 -2.295371665086976543e-01
3.771806539377325351e-01 6.078664788789765044e-02 2.106439466214705680e-01 -9.400992887871913303e-04 -1.074480461349360330e-02 -1.728180246830894884e-01
3.906498118963883659e-01 1.933833515522875163e-02 2.106684896963179621e-01 -9.919668775480766816e-04 -1.069684463425536747e-02 -2.194549254348028278e-01
3.887220752004493796e-01 2.646490402382909585e-02 2.106050591003403860e-01 -9.976996657597575480e-04 -1.066666410645314943e-02 -2.375375756298007124e-01
3.945283327563905429e-01 1.314925376425247865e-02 2.106078993259415388e-01 -1.049859095204488816e-03 -1.069589186540111959e-02 -2.499335081609789511e-01
3.731953381417996707e-01 1.110177105290640655e-02 2.106464497167128136e-01 -6.839995073386305469e-04 -1.048409112197813513e-02 -2.019731572287358501e-01
3.799962642803566548e-01 1.432241876424857063e-02 2.105773741337543248e-01 -1.014323033458622942e-03 -1.060361411299394485e-02 -1.975731215138869235e-01
4.092628458670911074e-01 -3.565028865805950492e-02 2.106816896578718179e-01 -7.899603475913865875e-04 -1.083049773694555115e-02 -3.320801079426321384e-02
4.010883292852667759e-01 -1.091104906072808481e-02 2.106394690765475697e-01 -1.182927906210621584e-03 -1.072026009618979106e-02 -1.813673496033255950e-01
4.009420793785162251e-01 3.089736115460539959e-02 2.106209274413138877e-01 -1.040944837598956800e-03 -1.065183724527876512e-02 -2.612351010815904817e-01
3.559376920684886869e-01 2.139984050717332748e-02 2.105850824280804945e-01 -1.029636762070153082e-03 -1.053623877484597543e-02 -2.599850433359551793e-01
4.157510345379012984e-01 9.291807796340272041e-02 2.106044236293123095e-01 -9.411783087110753461e-04 -1.067471446241314952e-02 -3.290106243901579353e-01
4.004078545561786107e-01 2.650457604339754095e-02 2.106565069731495821e-01 -8.219484305342210926e-04 -1.054169857510883941e-02 -1.441373155031437092e-01
3.838730421716778363e-01 2.363251026814498085e-02 2.106953344450816501e-01 -1.010803980222180340e-03 -1.074050848142195196e-02 -1.359690454269516513e-01
3.656754234580670837e-01 2.529379381257314263e-02 2.107383763729660520e-01 -7.993387789783715225e-04 -1.075061439462420693e-02 -2.391536360668564953e-01
3.970645327122111490e-01 -2.708830459489799947e-02 2.108043227704272105e-01 -1.087301524676676174e-03 -1.067852109246047142e-02 -2.400539458923731106e-01
3.967598634639151745e-01 -7.046861472127004256e-02 2.108804959421312630e-01 -9.486541379722819838e-04 -1.057706111906552005e-02 -2.812741431865924957e-01
3.926111999884768777e-01 -1.350672812746808379e-02 2.110043766398109755e-01 -8.799638391844237647e-04 -1.056854167612666408e-02 -3.148393341660724598e-01
3.929152986541023518e-01 4.142232451931891768e-02 2.111737890332203715e-01 -9.798479986909327394e-04 -1.052471086222740368e-02 -3.391701046257539764e-01
3.965035053348568983e-01 6.840365071713136458e-03 2.113291092404918081e-01 -9.681674090560143508e-04 -1.048771993233094113e-02 -4.566645083060278942e-01
4.391946922753044436e-01 6.619088366971845327e-02 2.116111046618795455e-01 -6.674053051674274989e-04 -1.045764762533163590e-02 -3.770390013212076563e-01
4.648539567552661955e-01 4.459714700502439427e-02 2.118987534319104471e-01 -9.424782395367542129e-04 -1.024538348032565105e-02 -2.194527239712193434e-01
4.864636915414347618e-01 2.230007790106122711e-02 2.124031148683256931e-01 -5.668963104969561642e-04 -9.901098298449165225e-03 -3.811609752862728517e-01
4.735391705715727984e-01 1.638935930514499179e-02 2.128809332712071067e-01 -5.906385654573889123e-04 -8.846964338322983040e-03 -2.232847175196789602e-01
4.111051032105398351e-01 4.078237879611188582e-02 2.135225822713340826e-01 -5.880419341929784844e-04 -7.690360059661051524e-03 -2.979578080526099626e-01
3.955866634945892635e-01 7.373151661057615602e-02 2.143407293765426935e-01 -3.522590883776983376e-04 -6.173676374989812976e-03 -4.734212156002204352e-01
4.089761752995825783e-01 1.246752691529155882e-01 2.149796281386717189e-01 -3.248785868521952185e-04 -3.096418008285647429e-03 -3.453095789741151833e-01
4.827447341708323569e-01 1.926202291014385004e-01 2.158695211050666307e-01 -1.434580954268031860e-04 1.867786683542001358e-05 -6.061240270453416290e-01
4.520019141946418628e-01 1.911823296393785621e-01 2.167855158569702567e-01 -1.787519303074345731e-04 3.836519497731538317e-03 -5.882761903773207068e-01
2.962133783691897615e-01 -8.184330931224831698e-03 2.074344488308224044e-01 -3.772731359265623415e-03 -2.187145059027575597e-02 -6.776959201883862027e-01
3.490266184628745272e-01 -1.683314739690444650e-02 2.079650545637054537e-01 -2.749084400203061825e-03 -1.757836366784990001e-02 -5.986812664593524902e-01
3.861999857951681769e-01 -2.491443242654268683e-02 2.087441335584678259e-01 -1.337844550278544011e-03 -1.195051056455015415e-02 -4.830556568486593094e-01
4.221255277644193060e-01 -1.752954127494046194e-02 2.097345537835454965e-01 -2.882879692463988252e-04 -6.226408755461679441e-03 -4.174260926809856276e-01
4.452614536533336387e-01 3.409011376691714612e-02 2.105704039395060456e-01 -1.426766715573157254e-04 2.287755466429343594e-05 -5.245006781642419513e-01
4.374535659533840826e-01 6.948893634396169361e-02 2.117311003329040986e-01 -2.798315679151951478e-04 5.827589166881219120e-03 -5.363128370018150903e-01
4.254691141109159247e-01 1.187373107680229911e-01 2.128478416361755943e-01 -1.449457002127438766e-03 1.188416935670065511e-02 -7.931763962402905710e-01
4.100145511922371755e-01 7.090358803915929042e-02 2.140225657800825521e-01 -3.057460502102788726e-03 1.756969340010556754e-02 -6.010183725826805379e-01
1.033820717532939748e-01 5.907181432567428121e-03 2.018604811953339517e-01 -5.469718137423418931e-04 -7.609035255875635020e-03 -4.068705904269372953e-01
4.705229513559520266e-02 5.828249322788169734e-02 2.033832188845524636e-01 -5.068783703831678287e-05 -3.485715070156874141e-03 -5.330814543536993577e-01
8.065157716025951606e-02 8.071296392034603417e-02 2.051110367976868853e-01 3.535944402815843735e-05 -1.255507437774656585e-04 -5.135316775696450176e-01
1.556753433831484790e-01 6.551046855379592804e-02 2.069923065769058712e-01 -6.339894356032902323e-05 2.550488075628323976e-03 -5.518082311620832181e-01
1.579821563026802267e-01 1.398406780959479956e-01 2.091236858788533826e-01 -2.104053528182040845e-04 4.127642750309142884e-03 -6.047600889600427410e-01
1.945768086589340917e-01 3.669901677290102193e-02 2.111513068747505883e-01 -1.720282506028557822e-04 4.638983122528585537e-03 -5.833377923845789459e-01
2.539588708310324683e-01 9.113506407108909468e-02 2.132365117523811193e-01 -2.851710079169471248e-04 5.510147087794264875e-03 -5.849172840039624788e-01
4.512279736672015207e-01 1.880084022762938956e-01 2.155611195045790129e-01 -3.274741451417182130e-04 5.635016383960000583e-03 -9.099141495072728958e-01
4.708202339059224251e-01 2.398960474240701135e-01 2.177971111811368154e-01 -4.687024962248673350e-04 5.724115839978810572e-03 -8.867940831939258306e-01
-6.471810832028050686e-02 1.841369771656737875e-01 2.003941111630518912e-01 2.801163749507245751e-05 1.818148623646722705e-03 -8.220494807857405828e-01
-4.963696231179610951e-02 2.183395176747253974e-01 2.027399861742824050e-01 -1.503246208584631575e-04 1.891779774524805086e-03 -6.962801851247418794e-01
-7.297942648420277512e-02 2.377324672189382870e-01 2.053000173150600349e-01 -1.552116005813503736e-04 1.990405782539636601e-03 -6.916615192320070271e-01
-1.857445265584869304e-02 2.753691519590979464e-01 2.079005680577771242e-01 -1.348495151793488163e-04 1.805537889650178250e-03 -8.211552833789655947e-01
3.372448226216588629e-02 2.617577918815638394e-01 2.105689243085130391e-01 -9.987023474262097568e-05 1.821266966416176455e-03 -8.496609863307382771e-01
1.600274960337340069e-01 4.067343494273890636e-01 2.132418834069249591e-01 -3.190262961095852883e-04 2.092234162408322575e-03 -8.298921065178745948e-01
2.338552152508450721e-01 4.047100149563238602e-01 2.160195526889774342e-01 -7.847179187442139688e-05 1.892407433032441532e-03 -8.083416001421712682e-01
2.570818811998287767e-01 4.068118157122326828e-01 2.189264822559824353e-01 8.497885423300889890e-05 1.406146844255358160e-03 -6.248919820352357712e-01
-3.109854739044176641e-01 3.574262274105118875e-01 2.008383010388263279e-01 8.528624535468834478e-05 1.155900715285063454e-03 -6.735323251885463325e-01
-1.900395751113058140e-01 3.887134242177662236e-01 2.037220637604829077e-01 3.956848377937902225e-04 1.786166569825692763e-03 -6.613453038717364008e-01
-9.849948833506752544e-02 3.667439478083722171e-01 2.067844270059371325e-01 2.203378764739033849e-04 1.422701332485123375e-03 -4.200582646662362474e-01
4.147415799585635332e-04 3.367654553996017319e-01 2.099297562220903690e-01 9.639291444018499946e-05 1.052007271932826719e-03 -2.587492638192377403e-01
1.727801807626747899e-01 3.251342705616916406e-01 2.129596872780386008e-01 1.051272505346998365e-04 1.251278089724123513e-03 -2.876771187433990185e-01
2.781071523518421351e-01 3.535228603818649784e-01 2.159921121154002588e-01 -1.817568560775432041e-04 1.311229370418065055e-03 -2.371370992169593572e-01
2.669729766359069667e-01 3.722501556273586365e-01 2.193663537935212626e-01 7.394969186188129573e-05 1.124904410282221096e-03 -3.340073572983314198e-01
-1.199582285810449622e-01 4.100026710757701531e-01 2.020240686127085517e-01 -2.266913111474052874e-04 5.994936153140012361e-04 -3.449868734667121961e-01
-4.596175995339393805e-02 4.564987395098892287e-01 2.053973233300074308e-01 1.980256661339699267e-04 4.013235187370867933e-04 -4.250174036773738950e-01
-1.000218087410119500e-01 5.984833817950663271e-01 2.086907283255030610e-01 1.507339119628559076e-04 -2.248665433689871456e-04 -8.133299273889115222e-01
3.491189756506746927e-02 5.395498892565818716e-01 2.117297431805421071e-01 -2.366922453381747058e-04 4.716549984183763026e-04 -4.906226759419020089e-01
1.970368959113903973e-01 5.756063611506158084e-01 2.149075295661891372e-01 -2.202497573847011776e-04 2.732089461933573252e-04 -4.381312648985843938e-01
2.615538446326755029e-01 5.936168665662618915e-01 2.183562899348011621e-01 1.913839310369904443e-04 -4.286044144920084968e-04 -4.262096171100701603e-01
-1.627952072972667918e-01 4.834877966636937363e-01 2.007600164927614839e-01 1.939953200099868273e-04 -1.170938430159385599e-03 -3.948204380088234378e-01
-1.816292108942739805e-02 5.160910696508266282e-01 2.039354957960390902e-01 -7.942119965128925923e-05 -8.377594709294517794e-04 -3.887592229710143954e-01
4.877909845017295437e-03 4.971186059046214800e-01 2.072476232868571411e-01 5.336072055262824915e-05 -1.004401560809392233e-03 -5.725718773813410767e-01
6.203110513721041275e-02 5.198924092887617920e-01 2.103743476531487744e-01 8.025516538983448755e-05 -4.535862738939502891e-04 -5.359663151546378845e-01
1.392159034798554906e-01 5.263902320493565323e-01 2.135696527160422797e-01 2.036042634758342465e-04 -2.555637440638231341e-04 -6.243987027728463701e-01
1.203058537619478979e-01 5.722092261834262894e-01 2.166077482678880339e-01 -8.013477876449958532e-05 -3.618560252266024633e-04 -6.289397279989391576e-01
-3.249816164560760390e-01 4.447189206790870819e-01 1.993785672296425338e-01 1.972697587652814792e-04 1.685649493084970425e-03 -4.063203127440658813e-01
-2.036851416219447319e-01 4.760762910917689661e-01 2.023217857327027080e-01 1.389320575440051925e-05 1.565713926099539981e-03 -3.178017739027825805e-01
-1.098853790184283752e-01 5.293416872515263050e-01 2.053428996641723514e-01 -2.375541852132562269e-04 1.540052355063099235e-03 -4.363142454662746750e-01
-3.338491529880398961e-02 4.925311762349437461e-01 2.081949669390074087e-01 -9.701657091667482394e-05 1.165769395480422592e-03 -3.789413624589446639e-01
7.496136004435601657e-03 4.942671549067558789e-01 2.109689929737297298e-01 2.196366077738229371e-05 9.611154768551172581e-04 -5.186579862954563414e-01
1.185655879274189195e-01 5.233641801550502626e-01 2.136777559889236344e-01 1.629272381253558260e-04 6.427584484789708669e-04 -4.890683335106487117e-01
1.740169428957726583e-01 4.310075705871289076e-01 2.161814999066279386e-01 2.969187077406552715e-04 4.497685062209339532e-04 -5.625733332241710238e-01
1.542430221233695442e-01 3.182369761450641321e-01 2.186996756933955455e-01 4.231834459232256896e-04 5.767190310342075986e-04 -4.836691678792607862e-01
-1.924368270094850564e-01 2.497356287559643062e-01 2.010340221681097272e-01 1.032627157618381337e-04 7.154985023518831404e-04 -3.558390425611875907e-01
-1.546660117375873444e-01 2.325258998241436781e-01 2.031833939566580760e-01 -2.047999708319422647e-04 8.819896562634972279e-04 -2.419387096169333118e-01
-9.547163581849178737e-02 2.928550900195616702e-01 2.054313552040994417e-01 3.418537480692375582e-04 3.961438592179972662e-04 -3.959020223086295864e-01
-1.477093056239434654e-01 1.354239133649748905e-01 2.073963729658425681e-01 8.931883073147366472e-04 5.871025215451135650e-04 -4.311572214807085635e-01
-3.509496951197992043e-02 2.120725861510319721e-01 2.094418552475230122e-01 2.803495960616471925e-04 7.065101057493837879e-04 -2.226206301562312639e-01
8.167866920121079344e-02 1.543463619913893470e-01 2.115314990133352335e-01 -6.693067179222744094e-04 7.023070941121571913e-04 -2.816476928211308906e-01
5.379890012557603240e-02 2.102292225165786899e-01 2.135377877199277075e-01 -5.497836666079404690e-05 3.830012418070804906e-04 -5.431057541454122894e-01
1.191762990753142404e-01 2.524588049217745267e-01 2.154840557488603703e-01 -1.779641029703273795e-04 1.008688878903654082e-04 -5.471261129636533216e-01
8.783584570095272215e-02 2.480044974950326164e-01 2.173027221621656735e-01 3.156465889277278126e-04 -6.554296294396634801e-07 -5.753740330914250967e-01
1.718061159363060697e-01 2.835853924051948138e-01 2.193137144841770803e-01 4.423282180171266204e-04 -3.718042076576524597e-04 -4.399986497209024128e-01
-2.475783582401820393e-01 1.242936772079229063e-01 2.006927784979771756e-01 7.005329109618803861e-04 5.644045889666180014e-04 -1.372078551548357728e-01
-1.655167460326797402e-01 1.425324799465054193e-01 2.026821981767457648e-01 1.105958727016082520e-04 -3.951903276872440547e-04 -6.019302131693009261e-02
-1.340114260854188277e-01 1.001947766675526097e-01 2.047872974727923956e-01 2.331786152189763584e-04 -8.565946624585881125e-04 -1.814544960766469872e-01
-7.537969308863266826e-02 1.610968876758764601e-01 2.067818736154826698e-01 -3.645583784280635319e-04 -5.633982353966395743e-04 -3.274733245615806254e-01
-9.473695214746814808e-02 3.478296472974298087e-02 2.090584350708762917e-01 2.941683648624421050e-04 -8.661404741286244345e-04 -1.378486853840445725e-01
-3.930858299591642735e-02 1.274409527945205289e-01 2.111565981714919604e-01 -1.865015179538954807e-04 -8.444638998554343566e-04 -4.336158611074120151e-01
-6.690498904487446330e-02 1.772432752679536927e-01 2.135355983722220241e-01 1.101640624306090546e-06 -6.041725953833857561e-04 -1.375086009003649301e-01
2.707413637936734868e-02 2.621983544628435636e-01 2.158425014490937821e-01 -3.198084480663650284e-04 -1.099586089431630123e-03 -5.554632548928462032e-01
1.112516925875058488e-01 2.283066143480198540e-01 2.183825910083717625e-01 1.875371181319735944e-04 -1.613223790760788339e-04 -4.261049438261564348e-01
-3.104918912117160534e-01 2.861822146946902956e-01 2.005358587714338725e-01 -2.418267517903070893e-04 -3.976252970936909430e-03 -5.576391283427380996e-01
-2.491588624083035386e-01 3.030141007830151612e-01 2.031316039003429608e-01 1.122768165681961512e-04 -2.919488638408594683e-03 -5.674065139636679245e-01
-1.213261436562477341e-01 3.127112760851126771e-01 2.056593770898387241e-01 1.849491708128601745e-04 -1.452971773962559790e-03 -3.580484202322458120e-01
-3.018960427749170158e-02 2.062669319631132148e-01 2.082915997563669075e-01 5.275092171765868751e-05 -2.311415587847204210e-05 -3.884228022235128863e-01
5.635515658708765974e-02 1.700700485870946799e-01 2.108998698448527609e-01 2.324011692234092652e-04 1.858556271295962832e-03 -2.349352488332812072e-01
1.012197478795371364e-01 2.371494921474333328e-01 2.134943475582474215e-01 1.399956305357038535e-04 3.140859271164246624e-03 -4.962869984159416492e-01
1.360413949305722403e-01 2.243828139417712586e-01 2.161192108692370217e-01 -2.507124893375453048e-04 4.160405618911474854e-03 -4.297509869931230297e-01
1.336451494603123347e-01 2.993644771247021552e-01 2.188273632793299450e-01 1.401803804740684866e-04 5.533681016856190418e-03 -6.365606452134376925e-01
-2.033772295134073371e-01 2.843643394413180037e-01 2.009430123315281702e-01 3.808489864467682197e-04 -2.851916004852026246e-03 -4.132131206764246278e-01
-2.395017504255628482e-01 2.610264752221697626e-01 2.037976573325369078e-01 -1.197660972929941278e-04 -2.101902270162500121e-03 -7.086628042888073464e-01
-6.099649014311203654e-02 3.432608728688862354e-01 2.066056584106221172e-01 4.138680539537914287e-04 -6.708508288000773583e-04 -6.798465300758551599e-01
-7.924788677720107088e-02 3.290419644540492627e-01 2.094635547750543503e-01 2.657747780918528102e-04 2.806813532658458481e-04 -5.298594133055963828e-01
8.150847914267503325e-02 4.263186132833536313e-01 2.124002482981975359e-01 -1.883820425285496515e-04 1.244449434579909504e-03 -5.824466635570042516e-01
9.735230415903897705e-02 4.746127225183980336e-01 2.153932914279251265e-01 -3.563514624476063356e-04 1.825740785660928634e-03 -5.671879278271373392e-01
2.374057696409672402e-01 5.472441829435784610e-01 2.183475275655771264e-01 5.423430616456498965e-05 2.746982762296521288e-03 -5.588561615235515534e-01
-2.169130442069994169e-01 5.352077253191134254e-01 2.009450691430871849e-01 2.005814323721432252e-05 -2.154551193050716247e-03 -4.146598640798208613e-01
-1.893219048447676855e-01 4.765759485075498625e-01 2.039719172247881351e-01 3.286710573238507557e-05 -1.953857219868192479e-03 -3.775889717005906365e-01
-1.000074296932865620e-01 4.570072506250534294e-01 2.068919977699819612e-01 8.821936629434991707e-05 -1.582148987338430866e-03 -3.453008257756139399e-01
1.462499553607940483e-02 4.731585672374507556e-01 2.098436553902939816e-01 -5.361472253528784494e-05 -1.613714835351466202e-03 -3.797335987790377287e-01
1.567059749696584625e-01 4.524430445801426726e-01 2.127511868248885829e-01 9.147271674539794468e-05 -1.187075139989410581e-03 -3.084765423634227566e-01
2.401901812226732436e-01 4.358249124508464245e-01 2.158615501071687315e-01 1.254976083847963661e-04 -1.319760152413297595e-03 -4.285205352818748370e-01
3.289363684545587585e-01 3.840843238683616101e-01 2.189477640044075191e-01 1.552317062464451470e-04 -1.527335870470200151e-03 -5.047090908155386080e-01
-2.165518475398221232e-01 4.044314083410547322e-01 2.016593357098245831e-01 3.421152514174107483e-04 3.382642514901158001e-04 -7.780810097875333620e-01
-7.544572767241897182e-02 4.377524882562969788e-01 2.047802094875809664e-01 1.493100007852674320e-04 -1.957944622052771200e-04 -5.965674504847698900e-01
-1.608733707065981844e-02 4.167707464726772004e-01 2.078899148611290659e-01 -1.975066111231731873e-04 -1.568450767893881282e-04 -3.922063372995018282e-01
-2.466883539388346411e-02 5.516136524850769884e-01 2.109830254194445809e-01 2.517138353595921757e-05 -8.396495687753019867e-05 -4.394841816168179593e-01
1.339742329645526031e-01 4.783935095571098528e-01 2.141440451538031420e-01 -1.155678199565065959e-04 -1.260812346811188047e-04 -5.816187300327153586e-01
1.984034099664831186e-01 6.567581543922805798e-01 2.172940986586925916e-01 1.947603277579523285e-04 -1.645152788516587297e-05 -7.291219955348045012e-01
-2.234282250762283373e-01 5.326310299011783878e-01 2.005422088935934766e-01 5.157203389549916807e-04 3.582510911664922522e-05 -4.482098462728534294e-01
-1.172859244548589003e-01 5.143038942575678396e-01 2.036105733948636587e-01 -4.347010527236518172e-05 2.823994315725721852e-04 -4.674069105799691370e-01
-6.355283989342248863e-02 4.605926787163768799e-01 2.069352179696349325e-01 -2.426725670283542732e-05 1.173786190566852676e-04 -5.318259767067243793e-01
1.416634053950284744e-01 5.189778400527869096e-01 2.102847649818594955e-01 -1.426795123129086424e-04 5.868373368881539759e-05 -5.291399715796457626e-01
7.685182428996174819e-02 4.959316386086581874e-01 2.136028389077936351e-01 2.068758319824494873e-04 -3.956864857893809093e-04 -4.628889079897202663e-01
1.782826432747038337e-01 5.250874357092369937e-01 2.168459861795777877e-01 8.754375890794210263e-06 -4.902878941909925761e-04 -4.643887527834713036e-01
-3.341359036772542646e-01 4.686599435408371761e-01 1.992195584999892355e-01 2.823935611426383555e-04 -6.966321092033157499e-04 -3.442345967284553554e-01
-2.763053660860635974e-01 4.129692860970053947e-01 2.024838109673883779e-01 4.839188915009553713e-04 -1.371178725936406497e-03 -1.743301755188741975e-01
-1.955359122959128004e-01 4.293906361151519913e-01 2.057948298678217713e-01 -5.904006957723623579e-05 -8.313316884444929685e-04 -2.776713040683503331e-01
-2.108357423710039980e-01 3.543096703649934454e-01 2.092089597847360261e-01 4.710792761710998850e-04 -5.114119979031298393e-04 -3.681373107599789640e-01
-1.429726285378605244e-01 3.345952995181716849e-01 2.123271916897023215e-01 2.386441631689574451e-04 4.516117496414611397e-04 -5.320085865937974612e-01
-1.093731580504884171e-01 4.622746607509475858e-01 2.152641516237737140e-01 -3.760660128840452717e-04 1.510214203228256013e-03 -5.211904861765858099e-01
2.013643246416381774e-02 4.745784053272941727e-01 2.185934620056235178e-01 -1.628785148981446373e-04 1.899056536051853825e-03 -3.882988947550528036e-01
-2.771403796660564245e-01 4.114758560985240510e-01 2.008546674872218607e-01 9.319965214705337318e-05 -8.612189874054307142e-05 -2.443443235427429083e-01
-5.124524727488851544e-02 3.804684139842757218e-01 2.040663932456512897e-01 -6.307412490963196726e-05 8.374352898834360836e-05 -2.693441437041578790e-01
2.724879344073659684e-02 4.685360089968392816e-01 2.073945254780694136e-01 -2.291699141165446805e-04 5.613959840789647070e-04 -1.600668284180489231e-01
1.493048234141700070e-01 5.164258980098384022e-01 2.106247636720611216e-01 -5.414563363687215601e-04 1.494916531713257404e-03 -2.990358688219906802e-01
1.425849421419122520e-01 6.053411167443190077e-01 2.138634617239070779e-01 3.643057806942676885e-06 1.865015696661196862e-03 -5.000508696576977385e-01
2.920582638282041010e-01 6.386418835100424740e-01 2.172303760606600354e-01 -5.764459287384982581e-05 2.376010852909367279e-03 -1.575912785556330964e-01
-1.599031461182538749e-01 5.985606608304714360e-01 1.994963875369629158e-01 -2.292748016437703409e-04 -4.976688841383467834e-04 -1.430268143854895868e-01
-1.793193808383272692e-01 5.316679704760883807e-01 2.029243058198114125e-01 2.421302069906356921e-04 6.930875372037606590e-06 -1.759408410700151471e-01
-9.781744390750567175e-02 6.849263020272322589e-01 2.059431832390447026e-01 -2.130711099231658728e-04 3.001338867855309739e-04 -3.187746824010866953e-01
-1.000591592378864414e-01 6.790803011827820646e-01 2.094798722519613521e-01 1.329629935608600284e-04 3.356807111715946887e-04 -5.056891580652023155e-01
-7.732355976188051705e-02 6.499151911003444582e-01 2.126733919838484366e-01 1.401600831633425723e-05 4.918674874949620400e-04 -4.749866717731943688e-01
-1.190337980571276599e-02 6.874499626590306889e-01 2.160804615400554463e-01 -7.119959902023662116e-07 7.390362269563332739e-04 -4.820502391150636168e-01
9.906329479359796825e-03 7.454027061091680340e-01 2.193911295481045243e-01 2.179476548908355023e-05 8.980024391623014262e-04 -5.182373907690822623e-01
-4.071175751673658527e-01 6.463665916515505261e-01 2.020748357920420513e-01 6.840792169001980866e-04 -1.047715096412473769e-03 -2.440549098452591548e-01
-2.740980746937151658e-01 6.540270399844534399e-01 2.054584296752444694e-01 4.196478973923424452e-04 -7.140542055991501089e-04 -6.239300714646934393e-02
-5.720599518367338460e-02 6.113781889439970918e-01 2.087219789180769780e-01 1.407979802625793748e-04 -5.726757267715835899e-04 -2.228197468900153244e-01
4.219130804894016817e-02 5.475300104162114101e-01 2.121165689999387483e-01 -1.274281992858788829e-04 -9.321264427726849711e-04 -3.379786987686826949e-01
1.362642836381259270e-01 6.580804745685626678e-01 2.154495956328615347e-01 -4.617797673994744608e-08 -9.166143242089189918e-04 -4.955303144348827682e-01
2.531600940655499010e-01 4.176260922168968936e-01 2.191261184820941788e-01 7.923021333182566532e-04 -6.081017153567383612e-04 -3.659976893864136382e-01
-1.380543469988080585e-01 4.442193344158107404e-01 2.011791848203415833e-01 -4.074775976342215995e-05 -1.491734135645982713e-03 -2.759487828274578280e-01
-7.012934904270418102e-02 4.570812612507045847e-01 2.044963262945403426e-01 -3.523800855693942462e-04 -1.183646166687075387e-03 -2.327889115811049847e-01
-6.622369191463463312e-02 4.673736984472958711e-01 2.078487037909077517e-01 8.669791678892865131e-06 -1.337148486863085029e-03 -3.041844004360033105e-01
2.362270090137325376e-02 4.958583785026936530e-01 2.114371302776996142e-01 -8.738028398262094642e-04 -1.288537838010556970e-03 -2.225877315917012267e-01
3.790487816094091633e-02 4.286867334656490058e-01 2.146234308377162892e-01 3.602039196919283202e-04 -1.040933828112608830e-03 -3.609995017167809683e-01
9.594141907637589173e-02 4.020802510247001860e-01 2.179887173019077196e-01 -2.332478665163264771e-04 -8.031241026700889057e-04 -2.808780702329603529e-01
-2.326618285703727917e-01 3.722976147669711522e-01 2.011532288716654793e-01 6.708644381293383304e-04 3.260598178095920900e-04 -2.869023322750465788e-01
-7.533623044240463085e-02 3.864803743096021371e-01 2.044722301485891180e-01 -3.623103324345496338e-04 -2.243714250648825540e-04 -3.145349237773679696e-01
5.682392730307119638e-02 3.080609250425142553e-01 2.079180709710198860e-01 3.037791194059022187e-04 -1.510948436117841589e-05 -3.901623364800066995e-01
1.319174423831923626e-01 3.509991934558158722e-01 2.112530844468415991e-01 5.803087484146236515e-04 3.666989381457472219e-04 -4.439221460710136014e-01
2.670765827197762454e-01 4.018820037854305971e-01 2.146555152057321170e-01 1.647176105452464556e-04 1.994847193025184708e-04 -4.835919963940093491e-01
2.749808211183978335e-01 2.659950815763955090e-01 2.180022135533664085e-01 1.110076016744276499e-05 -2.864240488389597529e-04 -3.831089853691747593e-01
-9.388201981514961159e-02 3.099071561542239839e-01 2.010869357393101353e-01 -5.603824127654666656e-04 8.330059046934971435e-04 -6.064992853306822029e-01
3.182810453081512392e-02 2.929701295036495901e-01 2.044412756614295001e-01 -5.327299777571578056e-04 3.570380757088651271e-04 -8.661558898302030851e-01
1.100679964887897322e-01 2.808593061037275573e-01 2.077973359328783576e-01 -1.255250987791738343e-04 1.062359196912855864e-04 -7.439192858846139789e-01
1.219651480137530497e-01 3.671200556681617488e-01 2.112063759902949034e-01 2.763098819593735075e-04 -5.468519719308710442e-05 -6.898718825981507985e-01
2.216454156731982039e-01 3.657408934927358080e-01 2.145669576405371259e-01 3.291187550938107090e-04 -1.470635363920867918e-04 -7.174923584677689314e-01
2.592866326064128257e-01 2.901129590496370203e-01 2.179749788457815973e-01 5.993650749130007889e-05 -5.681127521063901453e-04 -6.946850802652817514e-01
-2.198488296827364741e-01 2.893555460972777049e-01 2.008542936910172605e-01 -7.087042762622327045e-04 1.325376587532943809e-04 -6.581051786633612677e-01
-1.997013668114308027e-01 3.786657273875910223e-01 2.042425107013948193e-01 -7.559269289943714191e-04 -3.172720944683864088e-04 -6.733554290869396830e-01
-1.895014688122041435e-01 3.277984589392640702e-01 2.076885699858508905e-01 -1.073828929155001886e-04 -9.826623520413817550e-04 -5.384736775184585378e-01
-9.112834355475281367e-02 3.379734153762036231e-01 2.110160182485331659e-01 -2.921067815658653965e-04 -1.182004687325378858e-03 -4.883098272816042140e-01
7.052548164788699503e-02 2.986064998783978242e-01 2.144514055044105527e-01 4.071966774951423125e-04 -8.018772631530185751e-04 -4.579186753850086888e-01
2.415471235738624045e-01 3.605788863540353995e-01 2.177515330964134299e-01 -9.698579441531498827e-06 -1.811729123348967962e-03 -3.954509468891377888e-01
-2.533297357485277956e-01 3.669160266242708635e-01 2.003058132615682108e-01 -4.616557434708663571e-04 -1.093566289167318371e-03 -5.203819609633090204e-01
-1.953706018770390851e-01 4.260774525451759831e-01 2.037446161235433317e-01 -3.494968731950248882e-04 -4.523944796208947093e-04 -5.243778853842308019e-01
-1.558036846909625073e-01 4.294655358022062552e-01 2.071700194637298709e-01 4.790673426383166037e-04 8.753559893027830561e-05 -5.844947306653953678e-01
-1.908155735233799458e-02 4.938836739373225759e-01 2.103022407823133544e-01 -2.131435158018887789e-04 -1.202551086038529681e-04 -5.791018090750514880e-01
6.474113534951483895e-02 4.874108649832933904e-01 2.136284256752771782e-01 -6.487490428744754596e-04 -2.013394662306029032e-04 -6.803510965716909054e-01
1.741398066926065913e-01 5.645034002267838025e-01 2.169914501597937084e-01 -6.310644002077693505e-04 -8.214812464549440087e-04 -6.582333639838234829e-01
-3.378722238566382319e-01 4.998414765127665582e-01 1.997680129747843036e-01 4.779587891513069711e-04 5.599444468998283865e-04 -5.405333068478461733e-01
-2.583867405434542297e-01 5.064473838052426791e-01 2.028731367537497388e-01 -6.072207296816051810e-04 -6.281472079275637183e-05 -6.903328430461409537e-01
-1.716255674580851320e-01 4.822549922937884315e-01 2.063039659349476529e-01 -3.643988460898570065e-05 2.001622053022513402e-04 -4.465540605341264957e-01
-9.257463425793163725e-02 4.441116496692707472e-01 2.096122466060973411e-01 2.128186670331902192e-04 -4.654414901824850204e-04 -4.535540699064714576e-01
-7.996966527670269775e-04 5.010967912302620730e-01 2.128634538587569902e-01 -3.624649999778870122e-04 -4.918730156569687617e-04 -4.035506338813599214e-01
4.793536204230273989e-02 4.581144272263997230e-01 2.160399955603943822e-01 -9.250056233806296796e-04 -5.413370003758848949e-04 -4.851232240054023093e-01
8.739882424623326984e-02 4.150085477030854841e-01 2.194137822035441276e-01 6.830839008869073019e-04 -4.256288947806689360e-04 -2.720515101283523807e-01
-3.225202886904067201e-01 3.099768019834024946e-01 2.026727418059806052e-01 1.136563398593708272e-04 -4.436807862421390022e-04 -2.567038886467948866e-01
-2.311046825774016877e-01 3.043414987771909663e-01 2.059831442033873139e-01 7.602487236225406481e-05 -6.172307096544539864e-04 -3.205592416206891615e-01
-1.984955565976521952e-01 2.488544334544754988e-01 2.093678803992087833e-01 -5.418103683087854795e-04 -1.036902048003105533e-03 -1.460175578035863564e-01
-1.428365395243856029e-01 3.578874451949972668e-01 2.122943346921977725e-01 -5.081570688366415399e-04 -6.251394346247278423e-04 -1.441994930620729420e-01
-4.257396469665875732e-02 4.475257002616450652e-01 2.155402535422470400e-01 -2.963950508483950176e-04 1.673564954041601604e-05 -2.453881276920695867e-02
-2.640909320031875965e-02 4.586116257054530521e-01 2.189586193540185022e-01 2.239041850086503975e-05 -1.516914282098154472e-04 5.280632211490220163e-02
-2.985547303695813559e-01 4.856477549906609292e-01 2.019844507631406993e-01 -2.414334688075154493e-04 4.253735362827407575e-04 7.990182294163553078e-02
-2.331113156781382811e-01 5.402082054158083846e-01 2.053375409492083636e-01 2.467503101666923050e-05 1.775689691724719496e-04 -5.686370312311979369e-02
-1.892969686234145243e-01 5.016042298879636041e-01 2.087014229424244971e-01 4.470900903739571551e-04 3.484815718962247532e-04 -4.831789395211579657e-02
-1.451242226848347416e-01 4.858494411270479207e-01 2.118218729862223482e-01 -2.461659773224832625e-04 1.102131710812617027e-04 -4.656691741527849149e-02
-5.653665766108217916e-02 4.729292416782923669e-01 2.150734439475057713e-01 -1.259087988524791092e-04 1.924422149203579844e-04 -8.989694045498071440e-02
-2.882505482937236518e-02 5.200337942835884242e-01 2.181436263024527644e-01 -4.563614394206035453e-04 6.202885735780779182e-04 -2.932658632306318625e-01
-3.609334182924689438e-01 5.705778087390827036e-01 2.001376255601933773e-01 -1.100728756120970830e-04 1.339437806359826096e-03 -1.264160251275719959e-01
-2.084037244470436367e-01 5.382263355959918671e-01 2.035286307748021550e-01 -9.175588034678814871e-05 3.328385106368959541e-04 -1.836956227885939985e-01
-2.196481792706302116e-01 4.915306946325493920e-01 2.063976527439505548e-01 4.524580493188534009e-04 7.083924117671647072e-04 -1.648698848681513229e-01
-1.147065170100787790e-01 4.752136789985916820e-01 2.097578792798839853e-01 8.369320771567373548e-05 1.033269884185311410e-03 -1.952432952900219343e-01
-7.480651235319993320e-02 5.262264014265038981e-01 2.128327308960540898e-01 1.351174046766368193e-04 9.144069934385082006e-04 5.518318274564040088e-02
2.871728550170157823e-02 4.453789527850710028e-01 2.162319654035270156e-01 -2.036429120610413557e-04 6.668106786361148539e-04 -2.496322309832823064e-02
8.296342542341936244e-02 4.152104414521216036e-01 2.195547780698235418e-01 -5.691512560101703649e-04 4.501974655052197656e-04 5.295934487051379147e-02
-2.659675486597419258e-01 3.780855598121632410e-01 2.020337003001670961e-01 1.180912814752636816e-05 2.684375608957375540e-03 -2.844106342199129514e-02
-1.910975259780535174e-01 3.680269021989570066e-01 2.050458894247167430e-01 -1.346658088360478444e-07 2.272450938946902511e-03 -3.197082899139645495e-01
-2.046308531762656632e-02 3.602639442360999200e-01 2.082969716563448093e-01 1.336903180654692557e-04 1.509813469043764589e-03 -3.834619107591377696e-01
7.677977587622240863e-02 3.125923810968236904e-01 2.113678509035969433e-01 -1.743230956986701639e-05 6.815926324533255667e-04 -2.239061869150421602e-01
2.088504858121676411e-01 4.596189774382391513e-01 2.143912846004559780e-01 -3.935902892357401534e-04 -1.403104350421267431e-04 -3.699020725809662458e-01
2.925217287129026067e-01 5.285983403390005497e-01 2.176292266588585322e-01 -2.802566491602847495e-06 -1.139069115458470841e-03 -3.938793406394189289e-01
-2.205080714582993429e-01 4.982267282070638181e-01 2.005366494345058315e-01 3.531322637204223696e-06 2.568431565431318446e-03 -4.454166976441439330e-01
-1.200110308875484144e-01 4.609426907515234428e-01 2.035562056830352295e-01 3.126314512136742349e-04 1.775100641250574067e-03 -2.969498609982595405e-01
-8.645542836643475837e-02 3.995157663658249203e-01 2.063918861374422486e-01 5.271960961249259024e-04 1.260700001891383766e-03 -7.163865382355719680e-01
8.808022028737716447e-02 4.048773470833184618e-01 2.095608161123438395e-01 6.806758334570027383e-05 7.277499476872013656e-04 -5.984518479131522017e-01
1.166700076967049499e-01 3.044785368100624834e-01 2.126183565202257042e-01 9.911995362623365468e-05 -4.127900523677984759e-04 -4.831188227230437393e-01
2.277906336043064861e-01 3.531502961349992087e-01 2.154382562784277755e-01 -6.985316274064209898e-05 -1.030856003469185142e-03 -5.185721430769549833e-01
2.563356891962274564e-01 2.998092522655860237e-01 2.183912847858272555e-01 9.724990972316037235e-05 -1.626318936061366301e-03 -4.727232619405546399e-01
-3.670004379053559695e-01 3.128300510768950993e-01 2.004834855578128128e-01 4.868182814539316670e-05 4.840770085869708361e-04 -5.669111078828883432e-01
-3.276098354812096991e-01 3.406548259544606161e-01 2.033195242833439331e-01 -1.336136292842967732e-04 1.428195879815371053e-04 -7.199370843485631832e-01
-2.552139022643291066e-01 4.601504068586432794e-01 2.060541123814024767e-01 -7.091369332257805018e-05 2.155441366304671348e-04 -5.931878400875443269e-01
-1.218218016453928021e-01 3.432351164637802987e-01 2.088816220589916894e-01 2.868449535629676484e-04 -9.180962921246286861e-05 -3.430122211615472261e-01
2.974582240850665721e-02 4.182327825803390242e-01 2.117745775814556253e-01 -2.693996782750638004e-04 -5.432162317152422742e-04 -5.272213743774268879e-01
2.587345989963744930e-02 4.445107801197399899e-01 2.145695513545902711e-01 -2.351145043239244177e-04 -9.736250213305647997e-04 -5.142780313604256026e-01
8.814907607264535483e-02 4.699091072955725590e-01 2.173667030953625456e-01 -3.671319560557012736e-04 -1.305842533379017152e-03 -5.020429229828465845e-01
-4.064423521515779791e-01 3.956676960688260136e-01 1.996539696755710303e-01 4.433915197112894228e-04 -9.946904313866168905e-05 -3.133350648854787424e-01
-3.402167014392019073e-01 3.267203420685964588e-01 2.022812057779498907e-01 2.027587445573249053e-04 1.222551463416988104e-04 -3.754203865239099103e-01
-2.812618193428477742e-01 2.691268773415632642e-01 2.047387538988400535e-01 2.858127380364127259e-04 4.537681321222070650e-04 -3.658563375616949997e-01
-1.103801967650785143e-01 2.632628294731866880e-01 2.072555752844935650e-01 3.132488968799189855e-04 1.613551341362875699e-04 6.739836392457534964e-02
-1.104140239248329880e-01 2.730872344151769604e-01 2.096337726359638887e-01 3.558229950304107642e-04 5.854956948191440919e-05 4.759845193412561709e-02
-2.288256875876530996e-02 2.201091715798077775e-01 2.117540518418759010e-01 2.207979208097101315e-05 3.532948837172894866e-04 1.505005843117979691e-01
2.119055708395068890e-02 1.491501394936472769e-01 2.140477165209635491e-01 1.339361998071106623e-04 -1.141248815230916581e-04 3.091627880016647317e-02
3.353217896141487409e-02 2.037510382497561556e-01 2.160369163199559184e-01 -2.253973461720345974e-04 -4.073429761347189442e-04 -1.899328938802040956e-01
4.941934852848997584e-02 1.712948020149478445e-01 2.178996712562709104e-01 -1.932223732175556840e-04 -1.154054493760841926e-04 -6.851821605229854728e-02
1.417322901418756331e-01 6.373541573318153297e-02 2.194983404515254977e-01 1.766961624508406521e-04 1.322178847834794312e-04 -2.254529929859017956e-01
-2.920569969408492450e-01 -1.319800468242561010e-02 2.011753585075081174e-01 3.805531399819056244e-04 -4.497318574118570433e-04 -8.983638377803496167e-02
-2.813491677806293501e-01 -2.161531570108465514e-02 2.024201349825608953e-01 -2.178188511302617226e-04 -3.449301650782425990e-04 -2.374873458980091001e-01
-2.514472396675894172e-01 -2.029365553772910502e-02 2.036079975112903284e-01 2.701096366803025940e-04 -1.384985927754856265e-04 -1.084724054123122061e-01
-2.411341804901823149e-01 2.678929484863663141e-02 2.045878850363750390e-01 -1.972388956994040757e-04 -3.295536878328502275e-05 -1.608880755406766061e-01
-1.911358973082096235e-01 -4.925990187316605512e-02 2.057104699009370541e-01 2.979758125535097394e-04 -3.230778415586485161e-04 3.495179828827389701e-02
-2.038723018801960607e-01 -5.966715811174277961e-02 2.064058165736333272e-01 5.887192463704172304e-05 -1.612868556370195298e-04 -1.768317941118300873e-01
-2.306718919468546958e-01 -1.301457173067276929e-01 2.071847323718875589e-01 1.985322036021863962e-05 -1.770352532126827838e-04 -1.491293677617730185e-01
-2.138584369334547985e-01 -1.431190676511507331e-01 2.077766580536890562e-01 1.770893465191686767e-04 -6.522771925036254019e-07 -2.077483179397205670e-01
-1.779000864145789118e-01 -1.729025177770928401e-01 2.082546031215271043e-01 1.135856530262207491e-04 1.671428634194191117e-04 -3.398917483437149945e-01
-1.565656902806360495e-01 -2.021786581323772869e-01 2.086140895996301259e-01 -1.280822886144194030e-04 3.204010630085969268e-04 -2.542119184598181647e-01
-8.681636638051863641e-02 -2.083125001608084337e-01 2.088783576002197773e-01 -9.916350114001124233e-05 4.552712343662021575e-04 -2.801224138546107856e-01
-1.031880442493847694e-01 -1.909392486145691792e-01 2.091315183421537105e-01 -1.450333345545141430e-04 1.048276918590484362e-04 -3.794271681207192493e-01
-8.231763067049649440e-02 -1.657391781007098719e-01 2.091421067831692460e-01 -2.843982752723341122e-04 3.773774048941508970e-04 -3.706529887831394587e-01
-1.338060150324221764e-01 -1.346979812088834882e-01 2.091539832052332071e-01 -2.783334154622657932e-04 2.518054272956990599e-04 -4.371073722752563118e-01
-1.111679703054437168e-01 -1.429631105366724331e-01 2.092142427859822185e-01 -5.664457096140883713e-05 1.904991071116765231e-04 -4.916948843926258750e-01
-9.444048497755169747e-02 -1.158041504585513304e-01 2.092154933728511135e-01 1.504163233122417839e-04 2.481168810236866707e-04 -4.878315364135851762e-01
-8.632723869597015709e-02 -8.474070435492890574e-02 2.092807235504629548e-01 6.659937299351741038e-05 2.675611507549752167e-04 -4.498338673591183445e-01
-6.066391524354639020e-02 -6.446379963822709835e-02 2.093218344308320211e-01 -1.308837688955700844e-04 4.269840568328225634e-04 -4.101555185357955713e-01
-6.542469270449442764e-02 -4.413872629272296011e-02 2.095569426810768299e-01 -1.786954013503554118e-04 2.183762621071395113e-04 -3.572927878039410254e-01
-3.816279247437844024e-02 3.066598271922018823e-02 2.097559330588881776e-01 -1.769388591355235661e-04 5.588836939352712606e-04 -2.871094219743867693e-01
-1.737170911095385281e-02 4.392619942409550782e-02 2.102550474793880020e-01 1.435609790779775066e-04 5.640879143662595827e-04 -3.608383672956768651e-01
1.755836128823620723e-02 4.473415642025507788e-02 2.109526103344953607e-01 4.418895727339626836e-04 5.932859793593656681e-04 -3.027853435211654842e-01
4.393835905713971285e-03 5.094708783478209269e-03 2.117563054147597601e-01 2.726501104587447308e-04 4.359884846974645652e-04 -1.821250973197932332e-01
-5.133610584463939308e-03 1.059820498810446349e-01 2.125649982801506299e-01 2.768426348548720856e-04 7.800430752719147987e-04 -2.935596998006872460e-01
2.821179513319672580e-02 1.527520792000578165e-01 2.136442653891331145e-01 -8.800383100112818427e-05 6.344760819340127716e-04 -1.313919572321761431e-01
7.310506577965275588e-02 2.336515033372721373e-01 2.147363249436264887e-01 -3.195568113133300772e-04 8.031794857277296329e-04 -1.518249855385880309e-01
1.199848590744963805e-01 3.336564560080210740e-01 2.161602563448219994e-01 -1.084445201626531107e-04 5.651640964900375838e-04 -1.593468217394347353e-01
1.649541806066926186e-01 3.999857858849782954e-01 2.175324804195895578e-01 -1.896840762166511225e-04 7.382560063094802420e-04 -4.640463859468851870e-01
1.517779505464629530e-01 4.131047365586966169e-01 2.192411746951884455e-01 -3.366639111126941209e-06 3.609900318270938555e-04 -1.623494424487474941e-01
-1.748072583339212727e-01 3.257351759744501196e-01 2.006419029475505211e-01 1.115429132076579087e-03 1.061474243023882453e-03 -3.943627608916735472e-01
-6.298453546812800286e-02 1.819677164001420600e-01 2.024293109744851882e-01 2.874088303550520885e-04 -1.780803982669323211e-04 -2.526083644333171341e-01
-1.008302137007550392e-01 1.406355673933946671e-01 2.042931253436037209e-01 3.869317797178685849e-04 -7.742292755594043724e-04 -3.834267675284440680e-01
