-5.813959960389530196e-02 -1.034007135998367237e-02 2.106811403260720472e-01 -4.870978990195799470e-05 7.205866208105161149e-05 -4.015429440148624018e-01
-2.272131365949739412e-02 -7.133720863858847294e-02 2.106611612954697454e-01 3.963725488721571758e-05 -2.197823004848721909e-04 -3.817270941593280398e-01
-3.440150249564612184e-02 -7.782310220369721698e-02 2.106129541461775889e-01 2.731577352636686894e-04 -1.891651434253442557e-04 -2.618099228348076957e-01
-9.415485542052290380e-02 -8.013789892850488317e-02 2.105126986662083088e-01 1.048297821096363139e-04 -7.285368496864007802e-04 -1.866559792475495638e-01
-5.815124258570528865e-02 -2.996057386199683231e-02 2.103453244606416916e-01 1.066721609605823172e-04 -5.721705371504685195e-04 -1.027388663370630284e-01
7.886520324239532087e-03 -9.273253906019068848e-02 2.102329654934040892e-01 1.919787566877933539e-04 -5.910768651018524084e-04 -2.206311519779525776e-01
2.797280044738352511e-02 -3.762081559815213389e-02 2.101033964334690918e-01 4.559882333166427246e-05 -7.871249116538103253e-04 -3.735360471805824201e-01
6.109449425219730390e-02 -4.686850137335671351e-02 2.099701557363567450e-01 3.722051403514510336e-05 -3.695375414143255589e-04 -3.606050839814342046e-01
7.689602270103040871e-02 -1.208793683494904930e-01 2.098114166967097183e-01 3.450625994702359676e-04 4.624887337676707503e-04 -4.379905288298056032e-01
9.662235679273464828e-02 -1.094598320463422564e-01 2.097776550636755721e-01 2.813382166219470602e-04 8.068975536427575035e-04 -4.839645781997177765e-01
1.172078582980996125e-01 -6.973438062741284249e-02 2.095280219087384266e-01 -1.583451945009771759e-04 2.070867803178099223e-03 -4.603760359079469566e-01
1.312182966318681254e-01 -3.268626794779348754e-02 2.094593645447440089e-01 -1.348906595269374351e-04 3.039639030947984422e-03 -4.781114580063737796e-01
9.865935333244700567e-02 -1.464441529010378738e-02 2.093855174589709933e-01 -1.889380259343897939e-04 4.097723409489723544e-03 -5.107997187615855861e-01
1.383243484342270013e-01 6.855215810982029367e-02 2.091942887934350459e-01 -3.407343634808486987e-04 5.131933647054954736e-03 -3.007715408122749179e-01
1.664715482291397597e-01 1.036880763202356892e-01 2.091890053317684295e-01 -1.535821345142462122e-04 6.348958475386671033e-03 -2.039614345819321384e-01
1.188001749667287610e-01 6.988185693105819496e-02 2.106735856853982347e-01 -8.209643548707886611e-04 4.829710835629505775e-03 -1.856849874665798261e-01
9.366218712961543735e-02 7.920879203382849565e-02 2.105924319467124550e-01 -2.506303723304869214e-04 6.261647509185233433e-03 -6.218818852892813581e-02
8.214385825873428415e-02 9.761916268399204594e-03 2.105702511686557421e-01 -3.584732965815813643e-05 5.563641457054215034e-03 -1.851352045291488890e-01
1.514709852302970616e-01 -1.548419163698608325e-02 2.102318354796148259e-01 -2.148527250098985748e-04 6.011345914285644125e-03 -1.753263519292493633e-01
1.653410469207976241e-01 -2.004711104272968031e-03 2.099677649367214793e-01 -3.888473341405052487e-04 6.208155290679155149e-03 -2.127939885048067414e-01
1.342551783361062845e-01 2.485371839904832250e-02 2.098424315898613779e-01 -3.227960521209950512e-04 5.770592783362282763e-03 -2.224369155396849485e-01
1.288384248089321504e-01 7.733181948365884517e-02 2.096804054246747540e-01 -1.170589785572487713e-04 5.430608295225789958e-03 -3.718168190988587196e-01
1.643373400900406400e-01 5.511310293178108694e-02 2.094834351864305888e-01 -9.418191712006660193e-05 5.212932081439179167e-03 -1.709416876339805991e-01
2.327812942350279690e-01 6.717721831302174429e-02 2.111123344004803282e-01 2.105469294127286766e-04 2.636345301244836375e-03 -3.546658917317326298e-01
1.771610915367592409e-01 6.964037912781122219e-02 2.107923280838100988e-01 3.375629367055520635e-05 9.557249080341510437e-04 -5.993017820276133056e-01
8.751395580679111053e-02 -3.181477917971859554e-02 2.107627891452708568e-01 3.265218248986945172e-04 -8.489211898649346322e-04 -7.002102970330076337e-01
4.906626740382431795e-02 -1.120611431548523135e-01 2.105044523087470920e-01 2.640909236949016818e-04 -2.189622523921908905e-03 -7.777859034383284298e-01
4.355313064484189756e-02 -1.126673707701881522e-01 2.102862351771169203e-01 -4.341782509675171971e-05 -3.449218308132702936e-03 -4.948657400753371238e-01
6.069207491206884270e-03 -6.751577676477407697e-02 2.101418074355024812e-01 -3.018777045051540672e-04 -4.343352626497287185e-03 -5.083882305834847015e-01
6.322442704098527044e-02 -1.270954972982859393e-02 2.101330086707814404e-01 9.340839346414488923e-05 -5.701994784782749362e-03 -5.749632556029057318e-01
1.106188369768926899e-01 1.112475262002575287e-02 2.101635986588313298e-01 -2.268813445071369683e-04 -5.567093871463191929e-03 -4.277981900545741456e-01
1.176507875946339321e-01 8.477958035573684992e-02 2.087662897356756253e-01 7.832511514701961128e-05 -1.613640899570471668e-03 -3.376914981891458445e-01
1.049160989854176773e-01 8.947041528037438796e-02 2.087718876087451547e-01 5.976587817058181341e-05 -2.481481402380022756e-03 -2.561673169286863283e-01
1.128336813275180733e-01 1.793555050776887982e-01 2.089009670985259581e-01 2.576435024789982323e-06 -2.407497430591353134e-03 -3.770675611140171246e-01
1.110527767050471376e-01 1.470811243126713685e-01 2.090754607267230614e-01 9.739228268355208174e-05 -2.905986110152330559e-03 -3.052942402072905681e-01
7.944550903144823040e-02 1.610657997474921055e-01 2.091936516768787002e-01 -1.663891797337905903e-05 -3.097347637395712894e-03 -4.039527289003680965e-01
3.093682829720496505e-02 1.531922793536224237e-01 2.093745204164714768e-01 1.024725433892317812e-05 -3.370194210392433044e-03 -4.196466660130019344e-01
8.425006348036964687e-02 1.696716327938150026e-01 2.094977706033788745e-01 4.579754040125486817e-05 -4.006722048405881621e-03 -3.731445111154761962e-01
4.322982790111355028e-02 7.266560175024816548e-02 2.097864812719757444e-01 2.516944510198728768e-04 -4.777958599454936763e-03 -4.431409343296104364e-01
-7.304166651910297403e-03 5.065956726531579968e-02 2.099553263429830841e-01 1.137626399864166173e-04 -5.408051979869960869e-03 -5.332939528390110429e-01
-1.286604754984360111e-01 1.177464738207155553e-01 2.100157571362445408e-01 -3.228262230230604843e-04 -5.611805401736012604e-03 -3.914478528786141109e-01
-1.210158245372297409e-01 1.205085726552227038e-01 2.102660478748669126e-01 -1.505795938739703144e-04 -5.238426411932147267e-03 -9.508129349312979817e-02
-1.525668254791009981e-01 5.982688701114648178e-02 2.104457678982407098e-01 -3.621829582312497829e-04 -3.961788202149594748e-03 3.633905506468859681e-02
-1.870841980390609005e-01 5.527715015410929189e-02 2.091348205275569416e-01 6.217062452820037739e-04 -1.178705648344325653e-03 -1.538056495313155914e-01
-8.956216916701739694e-02 -7.228585031058049060e-02 2.091429272158060737e-01 6.385102757371376690e-04 -8.300838912927707225e-04 1.078569158785266380e-01
-1.248270599744963905e-01 -8.388008932873214363e-02 2.092472697547462790e-01 1.974132085900328216e-04 4.163635642209208911e-05 2.658679362361964990e-02
-1.766028835431642241e-01 -1.580450182328214104e-01 2.093253434753317710e-01 4.310583937294159922e-04 3.463236430729692218e-04 6.114634984888575597e-02
-1.814760750036027159e-01 -1.065435227734118362e-01 2.095858610732538874e-01 -1.985853676568414509e-04 2.984361283713423785e-04 1.850892040086333026e-02
-8.831925818231023406e-02 -8.579989512723634748e-02 2.094849568327908362e-01 -6.958137831495521939e-05 7.945244583544527114e-04 6.644692243545662069e-02
-1.288144794224418133e-01 -3.208636550405979254e-02 2.095536894974504016e-01 -2.642764554026833120e-04 6.888579436350669716e-04 -1.289758156512182119e-01
-8.890316634058131884e-02 -4.789188390498773373e-02 2.095170258270525609e-01 9.625333745929859786e-05 8.385533128705595579e-04 -6.364564699767036315e-02
-1.426636693005781387e-01 -1.761492914704589421e-02 2.095060481550370945e-01 -1.747727435185112311e-04 8.150960187654804519e-04 7.254377228489498897e-02
-1.482028700309074298e-01 8.846691592806382384e-03 2.095379418565731511e-01 5.218461543658283549e-06 6.300779156041915775e-04 -9.972912653340150479e-02
-1.552880526845786535e-01 5.309494432968470123e-02 2.095522377526767288e-01 6.187476850870728498e-05 4.377035610674589929e-04 -3.252956484613593324e-01
-1.336427086230113359e-01 3.217613255699287161e-02 2.094883945387820967e-01 -1.074894211937481466e-04 2.069829554433669520e-04 -3.636778970097457875e-01
-6.209132571142020329e-02 4.447126432366355769e-02 2.096072945710015789e-01 2.393528630216710759e-04 9.400931118053869426e-05 -3.333804865464214950e-01
-1.038630286705894690e-01 2.423394760374612128e-02 2.095967648064619993e-01 1.007767619420726533e-04 -3.115719470521955249e-04 -4.466493231162740885e-01
-8.108855513973411977e-02 -2.151406375311498698e-02 2.095373359265747526e-01 1.698050791943583648e-05 -6.157074869793572897e-04 -4.861937743179953197e-01
-1.398300364042163457e-01 -1.285203228168953042e-02 2.096697083000942374e-01 1.153737090899434548e-04 -1.278221900392226230e-03 -5.378206730801674551e-01
-1.957317658183467535e-01 -9.286046225541874297e-03 2.096837744776273715e-01 2.271682632076886673e-04 -1.570500659445903547e-03 -4.855511308264622294e-01
-2.110457218092997300e-01 -3.242479932077539651e-02 2.097715918155305115e-01 2.625819532714193403e-05 -1.573408352223669383e-03 -4.287078752333838838e-01
-2.526713861571437403e-01 3.926425294109543718e-02 2.098475820404164249e-01 -5.046205443981170708e-05 -1.538630897078378411e-03 -5.098136067452584408e-01
-2.076543268306978440e-01 7.352674485724498832e-02 2.100798164920050226e-01 6.045475081775797665e-05 -7.522381952762663112e-04 -4.411870675045819756e-01
-1.048950409851109045e-01 1.529006083658160722e-02 2.104044482096418256e-01 1.586835618094287431e-04 -2.372193632735296320e-04 -2.362080042252023837e-01
-6.816065787575746604e-02 8.628668235980749279e-02 2.105499572372293016e-01 -1.155324953615881518e-04 -3.430088143617009643e-04 -2.919510626362184502e-01
-1.034068159027282802e-01 1.404351907889309255e-02 2.096912028820522300e-01 4.370743048736928297e-04 1.884772436192096818e-03 -1.113284229454480911e-01
-7.741093335399455710e-02 -2.538002516917973322e-02 2.102148182771417795e-01 3.658979117054193407e-04 2.112018281013338262e-03 -1.366828295468523191e-01
-9.368221263143765298e-02 8.529728190008908223e-03 2.104798160582279087e-01 4.264015247168528321e-06 1.793928074697152516e-03 -3.336652388255828550e-01
-5.726481590253584830e-02 2.504234385685125824e-02 2.096493772544606449e-01 -1.789144717809688803e-04 5.117035697715545742e-03 -1.966688815301535220e-01
-4.617855432681552269e-02 -1.202026532435234406e-02 2.102128388809255122e-01 3.092032942059587224e-05 4.158519779094677071e-03 -5.090433972554596620e-01
6.405316108657126140e-02 -9.780102349583720545e-02 2.107425178022044876e-01 4.176037884842187325e-04 3.229455122766383430e-03 -4.685938628718837040e-01
7.441213935701103399e-02 -1.519098023866570328e-02 2.098210945436477237e-01 -4.117737003067104516e-04 5.757584791572753144e-03 -4.571435941526516555e-01
1.208812100754091540e-01 6.796788469957862344e-02 2.102062331302153586e-01 -4.501224486382167573e-04 4.795563232998153839e-03 -5.435542471356979988e-01
8.158154841753186004e-02 -4.283140443826980587e-02 2.106130303607790522e-01 6.001888805297607592e-06 2.648151569561665256e-03 -4.805473983131155480e-01
2.484994263717885121e-03 3.081138562227943994e-02 2.093754998480452656e-01 -8.665475513336442755e-04 5.685476486632817447e-03 -4.941981325264992453e-01
2.800420302712125498e-02 -1.528400425181540394e-02 2.100489927089272957e-01 -2.758829220793489905e-04 4.879166603765592962e-03 -3.820184097420376013e-01
6.240640853943210664e-02 -1.332610299143718868e-02 2.102528298939857487e-01 -7.326728368585460780e-05 4.027088581152714342e-03 -1.758765027623324373e-01
4.306647625820216041e-02 -1.775527223129796245e-02 2.103849281190601217e-01 -2.202945548293856976e-04 3.614774934910689515e-03 -3.366817127151736644e-01
5.650975721261564805e-02 -2.563098985209163669e-02 2.106465055447454549e-01 -1.057918282508425755e-04 3.226439657645824733e-03 -6.134693607857207714e-02
2.366671357776062301e-02 -3.273252450825853144e-02 2.107547721839946320e-01 5.140102874139261210e-05 2.451224021907841971e-03 -2.593849561277067339e-01
-3.971442267364902468e-02 -2.930624940678670104e-03 2.107470525080968327e-01 -1.752256054106109020e-04 1.070153551584480034e-03 -3.277434140161220588e-01
-9.331331385277090440e-02 -3.229772427737147289e-02 2.108192514618316693e-01 4.242248013000669718e-05 -4.323307980453177930e-04 -3.776935517243781293e-01
-1.533066423529336753e-01 -2.263501594697767821e-02 2.093391341901468250e-01 1.051471934316926753e-05 -5.950203614931865321e-05 -2.660860545384444165e-01
-1.215043161488234269e-01 -4.069411432920427840e-02 2.093471435045822782e-01 1.027286157010858962e-04 -1.887266522624490850e-03 -5.826244324397195085e-01
-6.115861517189224994e-02 -3.071153560914267194e-02 2.093850361284214090e-01 1.195922771978930467e-04 -3.456858683902295191e-03 -4.084460709729621497e-01
-8.199823293575768390e-02 -8.968302656371611448e-02 2.095424847495754306e-01 -1.864469608374090634e-04 -4.271798803195512098e-03 -5.464414044203957932e-01
-7.767644682176944038e-02 -6.984388388326889796e-02 2.095294407942898673e-01 -1.686630075384870273e-04 -4.125890425483873941e-03 -8.017619147672475632e-01
-1.949330791949878405e-01 -7.989205586307662754e-02 2.097634451703946357e-01 -6.472775471372047950e-05 -3.822478852887997020e-03 -6.754637523883353367e-01
-1.725926325609664913e-01 -1.294971894644498522e-01 2.099965669217617181e-01 3.200542683900473376e-04 -2.693617945261824690e-03 -7.369390384893526047e-01
-1.715105930634484577e-01 -1.286031798569725326e-01 2.099181979811305943e-01 6.245426425988792032e-05 -2.811309184318732269e-03 -7.511015618234848645e-01
-1.488868038069675603e-01 -4.632826167241570203e-02 2.099885931616893853e-01 1.279913880028980008e-04 -2.390473890681343080e-03 -8.656665190483946448e-01
-1.280670639400746658e-01 -1.174052868815515377e-01 2.100560742029450867e-01 1.701090963197348965e-04 -1.793209444448615316e-03 -7.845726434564709306e-01
-1.275792672251584992e-01 -1.795281955492638859e-01 2.101220019500831260e-01 1.914461878465307664e-04 -1.425265610442340335e-03 -4.996999302708786672e-01
-1.254118571322757891e-01 -1.506070156960528927e-01 2.101018007460406234e-01 3.458124141824241182e-05 -7.837318183919526979e-04 -6.184256809751191852e-01
-1.796961948887855209e-01 -1.832141770304310802e-01 2.101335913298056912e-01 1.979835219113838666e-04 -3.361227906646241099e-04 -3.500802156121712860e-01
-1.423520239581657354e-01 -1.491711713801816275e-01 2.100593965105232996e-01 1.725352452971594028e-04 -1.548400891419691983e-04 -2.322963495623560082e-01
-1.307946629548743800e-01 -1.276871324356770032e-01 2.100322922966605388e-01 2.745411203810110942e-04 2.581506927104826299e-04 -4.069178754695998990e-01
-1.184373265598436531e-01 -2.400561776455957252e-01 2.100262799288220017e-01 2.658567336795156027e-04 3.941110233643703832e-04 -1.383867349618172204e-01
-1.116033565584504811e-01 -2.265794666202459173e-01 2.099436502794933546e-01 2.604119047190379651e-04 -1.313538921523435250e-04 -2.712995149693202546e-01
-1.116100866542453079e-01 -2.806669674225663602e-01 2.099203868622105951e-01 2.077679088942408262e-04 -2.146508682517930127e-04 -1.024732312198306378e-01
-5.939550052526738899e-02 -2.140872648255965904e-01 2.098151841465626388e-01 6.355770476821456024e-05 -5.107760232650108658e-05 -4.988329523136351279e-02
-7.573828884807717876e-02 -1.987365640574281778e-01 2.097345560568546485e-01 -2.181916731953217653e-04 -7.252601275272409697e-04 3.150158385854948812e-02
-1.039696800121591713e-01 -1.763390709348896246e-01 2.108908621923862858e-01 1.996783369389255533e-04 -5.840290724302082221e-04 -1.287084392267243693e-01
-1.126299829748102777e-01 -7.280257606407182502e-02 2.107170636917609086e-01 -1.826624439273999336e-04 -5.377977545925113206e-04 -1.557021096436850827e-01
-1.141856813756498973e-01 -4.145267919862026529e-02 2.109160253088147030e-01 4.933260018180182695e-04 -4.641142408662290433e-04 -1.333941993467312737e-01
-1.094416174419099441e-01 3.247444962781848021e-02 2.098906008986212712e-01 -1.139643987405838542e-04 -1.544635718896508660e-03 -4.215544301017830064e-01
-1.283802848500058269e-01 -1.417450556764422026e-02 2.098564050059557595e-01 7.192030482905050230e-04 -9.456165387901677892e-04 -2.731703620118305920e-01
-6.785146221532155353e-02 2.712829949569951077e-02 2.100290595434490259e-01 -8.316126342304016152e-05 -1.371287780292515177e-03 -2.648159494473757980e-01
-5.625979483165946538e-02 -2.222494485517717555e-02 2.101710936127849649e-01 3.943206791059998746e-04 -1.400683998335956445e-03 -2.429682135790968145e-01
-9.848393239381283970e-02 1.204339470509090473e-03 2.103144017972121693e-01 3.579422229311956350e-05 -1.822755269240220084e-03 -4.927737099091607509e-01
-9.640174533843931526e-02 7.489467993575646410e-02 2.105174571544827788e-01 -2.020107741162808078e-05 -1.780869618115799025e-03 -4.954429456454371161e-01
-8.757630463590411474e-02 6.283199309642646668e-02 2.107759446563085004e-01 -1.220912255287697119e-04 -1.825189663737616800e-03 -5.504473653050032667e-01
-1.490786717563960806e-01 3.263610776153337556e-02 2.091572375279309171e-01 -1.325329804808797387e-04 -2.144193119864985092e-03 -5.082971740059689658e-01
-8.101765444859815313e-02 1.384021800155257609e-01 2.093294575971597071e-01 -1.610237928492799016e-04 -2.054410342130383489e-03 -5.037373558299264031e-01
-5.553189433603994418e-02 1.345942794038509360e-01 2.097088051254872854e-01 7.447631616913580408e-05 -1.240531202320539024e-03 -2.811164935731462200e-01
5.047348798228133010e-03 1.266275594042672870e-01 2.100367356521090079e-01 4.140216004447700755e-05 -1.262688045170446251e-03 -3.322934686325193510e-01
4.082860815736756577e-02 8.851021303512039695e-02 2.104359614851559757e-01 9.221341545968021476e-05 -9.559068395764078185e-04 -2.390940239450045079e-01
4.856149342197898372e-02 -5.127539630228122869e-02 2.106486240380943675e-01 3.252564216286418894e-04 -1.676726709450943812e-04 -3.361913915932856350e-02
7.836141755983985768e-02 -5.734859750713591775e-02 2.091075128105620018e-01 1.062097906713536520e-04 7.676735219425694264e-04 -7.486121828870055672e-02
8.718245916141219298e-02 -7.623040565468165719e-02 2.094838356144189118e-01 -3.971920329701173602e-05 1.391459522255371058e-04 1.387996681620530248e-01
7.304557409048989536e-02 -6.796594051815295356e-02 2.098680850138205933e-01 2.383273613003074993e-05 1.039676222450526110e-03 -1.495365091449558093e-01
7.728257243721774195e-02 -2.542444112067258899e-02 2.101586035679308129e-01 -1.159191738104640269e-04 2.452478168103837939e-04 7.935676638475713807e-02
7.144557867166118070e-02 -2.742154874447437496e-02 2.105521130116632667e-01 7.857075696277641106e-05 -8.205680303613671015e-04 8.222982721175134402e-02
7.172542035874311661e-02 -4.233598243594070137e-02 2.108136975810676605e-01 2.813796350504080228e-05 -8.305332136003266063e-04 -1.548429109143747706e-01
-1.271951523885803126e-03 4.353558218268282348e-03 2.095622178852311612e-01 -2.478973311671876551e-04 6.631219840212575125e-04 -4.172892336561546678e-01
-3.479656589747545659e-02 7.511673972554216983e-02 2.100316467414141131e-01 -4.664746573021101133e-06 -3.243446245586506841e-04 -4.764707067780491467e-01
-4.168029610902072163e-03 6.492159034649794269e-02 2.106115343706954635e-01 9.333263496501072632e-05 -1.803071957014388800e-03 -4.926850557640447548e-01
-1.219121516702845603e-01 6.223662222662048465e-02 2.095945183901346542e-01 1.564059062822732444e-04 1.386562236448977839e-03 -5.221904623351402153e-01
-1.025311829710813527e-01 2.674645335655671807e-02 2.102124498510812844e-01 1.857758433127492520e-04 1.003348463553506171e-03 -5.144796681565180219e-01
-6.975540004968755481e-02 -2.709817258144730720e-02 2.105964218614184147e-01 1.592014811211834300e-04 2.479431987490650921e-04 -4.354475664384643285e-01
-7.732381132238827504e-02 -3.496316021901139937e-02 2.097640983552928606e-01 4.149037018209260222e-04 4.535808421621365973e-03 -7.093575108278644681e-01
-5.524680534884768290e-02 -7.198652313459268093e-02 2.100653925914495179e-01 8.280057579409235769e-05 3.118050792831416652e-03 -9.892312409639496540e-01
-7.332411338075799090e-02 -9.338153585064920548e-02 2.103253172673887894e-01 1.403174643254111197e-04 2.161371308110046630e-03 -7.241223758075606698e-01
-4.407587933274288716e-02 -6.071902436074090581e-02 2.105835061455141877e-01 6.122204488775352563e-05 1.706137030304205474e-03 -8.153033645223199954e-01
-3.592781206873800481e-02 -7.627838319454673111e-02 2.108582074604853362e-01 5.397684386097554215e-05 9.639821099541033859e-04 -7.350161701887618637e-01
-3.872850590670665061e-02 -1.170749278882629030e-01 2.110432672942582077e-01 1.000532606503796833e-04 1.135118938525071525e-03 -4.264416364012011962e-01
-4.648177070470584094e-02 -7.988982451766971082e-02 2.096600323851785519e-01 2.611885305094973687e-04 4.075587210788375776e-03 -2.996334609641563285e-01
-2.626710894607146157e-02 -8.530850738906943509e-02 2.096117712446448067e-01 1.332833377068417028e-04 2.995922974208706149e-03 -6.977756103874891425e-01
-6.765886259925989188e-03 -4.426513803783919260e-02 2.095310164522417029e-01 -2.326205157283181026e-04 1.912137996349811634e-03 -4.890773562542259922e-01
1.953475754831905317e-02 2.523265116562129970e-03 2.094297525749270195e-01 4.158001885835907973e-05 8.138406440273035199e-04 -4.554732134746219963e-01
-2.466446115404676009e-03 2.491306194479056546e-03 2.094531528360509265e-01 9.419621916224341117e-05 -5.905473164743362891e-04 -5.492699104493491413e-01
-2.942283008457046573e-02 8.631469634012095549e-02 2.093702346430822980e-01 -6.537739051534195462e-05 -1.182964963625909860e-03 -7.971748291579762169e-01
-1.239266263980839250e-02 3.744692061965192859e-02 2.093271960000235854e-01 1.593867024033046771e-04 -1.054254545014253691e-03 -6.440329866649848745e-01
3.956948768040755016e-02 -2.573175918224993031e-02 2.092228455347779348e-01 3.896056387759871910e-04 -1.038080530892133025e-03 -5.562595446084864781e-01
3.472813223686610495e-02 -2.080600500890289473e-02 2.091586050640195649e-01 1.055465842252556116e-04 -7.187137711940240611e-04 -4.678514981873329592e-01
2.286514394380033746e-02 -3.737842434623711574e-02 2.091519025614149707e-01 1.291253544787320201e-04 -6.459918338806933938e-04 -3.021103470877578578e-01
-2.127969651826746092e-02 5.234627662912718499e-02 2.091122472899165086e-01 -1.181081262224544735e-04 -1.137659302088740590e-03 -2.660189180084872596e-01
1.397165637217787776e-02 -8.516738534645530712e-02 2.101658074065149706e-01 3.121654414209659592e-04 -5.112434388222115164e-04 -5.046746015614240743e-01
2.952581839202742323e-02 -1.241267284310708513e-01 2.100921991957309665e-01 2.154809755280492000e-04 -7.029842524504066386e-04 -6.942225117045036642e-01
4.484821506645383232e-02 -9.810600743056843709e-02 2.098672468161414395e-01 -1.645413568648324259e-04 -1.453028530293615152e-04 -3.793589180148334017e-01
2.795937243888106660e-02 -1.074564293169401330e-01 2.098705027753523522e-01 5.692826393757774222e-04 -4.089896563682025843e-04 -4.222056311437391574e-01
-3.859481566918135376e-03 -1.107016901891074850e-01 2.098052420967793097e-01 5.231859060634803330e-04 -3.757694215940617717e-04 -5.311620843113845636e-01
-5.862663044523222511e-02 -1.573563136031169984e-01 2.105895073121670791e-01 -1.514009718468563172e-05 -3.697566397325748044e-04 -4.278007296837862961e-01
-2.755800537385358351e-02 -6.793533365152937264e-02 2.103337369581895766e-01 3.461258198384353909e-04 3.730250685001842308e-04 -4.672716944117489279e-01
1.066850803590666322e-02 -8.989307486418723903e-02 2.101264367604764316e-01 1.674789156051287276e-04 2.496813495952952280e-04 -3.353752134561119314e-01
-2.379454975081412432e-02 -1.268165042906455042e-01 2.099586009775494810e-01 8.497553033061445212e-04 5.016818167566052976e-04 -3.253286875479888818e-01
-2.461919143348409444e-02 -9.102093153098783640e-02 2.098455727253547010e-01 -4.020772508120590348e-04 -5.939824879586743950e-04 -3.201415165186859424e-01
-1.835221539385751416e-02 -1.237566090136312524e-01 2.096616562447596310e-01 2.767914454999843691e-04 1.620437982649728341e-05 -3.386599399250972975e-01
5.615177592896215819e-02 -1.422616422491466970e-01 2.105514627507908965e-01 2.179455478093116538e-04 5.041010148135550767e-04 -4.466765273149494453e-01
4.374278184062728447e-02 -1.424526192756062903e-01 2.103509911931485954e-01 4.142535118989950412e-04 4.102871257413917019e-04 -5.721532877082117219e-01
-9.954671079732106340e-03 -1.268220822821381766e-01 2.102852108586207303e-01 -3.622289548704096048e-04 2.571791865948099822e-04 -4.475612463358902282e-01
-5.219723235847172071e-02 -8.997458535258570644e-02 2.100948315354595475e-01 -6.972557687409902758e-04 3.548435064383359061e-04 -6.169867385444751662e-01
1.214743699212477920e-02 -9.452238718937158723e-02 2.098442957119371344e-01 4.554832186776704974e-04 7.699214216049441156e-04 -6.725047604704765813e-01
1.466669537351380365e-02 -1.231928428052380953e-01 2.097690474306267427e-01 4.228064332914707540e-04 6.029660541312805398e-04 -7.730968295105761223e-01
-3.000358395227296915e-04 -1.751224154735190053e-01 2.096129480415647173e-01 5.462191928801042725e-04 6.575358403615969320e-04 -5.790214117190904952e-01
6.424020107469757823e-03 -2.134557649338581220e-01 2.105121611949696825e-01 3.429937077431933026e-04 -2.400869829445290190e-05 -4.622658119751530403e-01
2.286956861202564528e-02 -2.319509041026288354e-01 2.103710433815080827e-01 1.755380423230487781e-04 3.921353980655938867e-04 -2.096154933086005409e-02
2.353745075254832023e-02 -2.551926580515855858e-01 2.102248098674096566e-01 6.613104700953003831e-04 -2.375817234079669396e-04 -9.706655817290678334e-02
8.820609391286607370e-03 -2.568372877931887066e-01 2.100232035958958798e-01 -9.545421809780645824e-06 5.101720182328240306e-04 1.949736395166262737e-01
-2.783755330250235055e-02 -2.030611183198685610e-01 2.098592644913924721e-01 -7.684813979688170568e-05 3.795753384072077436e-04 -1.854126644244141475e-01
-1.316963909134390327e-02 -1.765785955784693606e-01 2.096554638134054405e-01 -3.598364439022613457e-04 1.323569922354435368e-03 -2.819326013378560258e-01
6.322731844054067796e-02 -2.017141800347909131e-01 2.104725934740879212e-01 1.479439331355973458e-04 1.149386914380884882e-03 -2.073894624283274535e-01
8.373326018987276020e-02 -1.560138641960650829e-01 2.102742159083682560e-01 -4.023305655543196898e-04 1.213256352720157348e-03 -1.857713899375329769e-01
7.433237542041280788e-02 -1.771489718332615593e-01 2.101081298585947832e-01 4.702240158189241221e-05 6.930387402101420829e-04 -3.542471283482483135e-02
9.739336956743116502e-02 -1.055149611289711992e-01 2.099260030488181994e-01 -2.995667867267814023e-04 1.347166148393171784e-03 -1.969654134394759892e-01
4.950742711982043798e-02 -1.466302646621927552e-01 2.097635416134113195e-01 7.794793525577453630e-05 1.128628885672852775e-03 -1.984566317209474906e-01
1.031917655925641830e-01 -2.059130168187482401e-01 2.106246566873620218e-01 1.998653417072211377e-04 1.525414296766892854e-03 -2.044418959615887377e-01
4.682664646323420748e-02 -1.564211135138465214e-01 2.107083076949837208e-01 -7.887900039736754892e-04 1.564012477884096485e-03 -3.018325703284716610e-01
9.592342296273252689e-02 -6.338632026754027760e-02 2.103452980930575200e-01 -3.146454420986681739e-04 1.829399081827824463e-03 -3.408537710645291319e-01
4.037625625169175003e-02 7.250164791947505405e-02 2.102300405411584028e-01 -4.420121565692622032e-04 1.650343280440990604e-03 -4.393835339034511400e-01
5.233049825194067972e-02 7.460310004688054664e-02 2.101817212651969080e-01 1.711432685946912859e-04 1.250690827453625415e-03 -2.565377101755727529e-01
4.544445517399284956e-02 9.957636412737608245e-02 2.100780259858608945e-01 -1.124234540941779675e-04 8.502592565571908756e-04 -3.805213090248017460e-01
6.432575643735186088e-02 6.547009645739609862e-02 2.100872049323566082e-01 3.781542164201812670e-04 4.106031684154958899e-05 -4.484923566782120230e-01
7.325697051088982115e-02 6.340716511759200702e-02 2.099334683899064524e-01 4.535085642242607396e-06 -7.378085985701248427e-04 -4.211154175147668877e-01
2.313365037201728022e-02 6.580796241182121364e-02 2.099408023849438365e-01 2.193803872590699148e-05 -1.419113593557734272e-03 -4.692763493495992755e-01
6.268866099771380068e-03 4.071041024481785592e-02 2.099939917595679550e-01 1.097022410441955774e-04 -1.849697535690381133e-03 -3.937270757350740391e-01
-6.406839399615976705e-04 1.690833396671376221e-02 2.099726512608787177e-01 -1.755876085623732895e-04 -2.353134679235762035e-03 -3.542856334462366474e-01
1.097830736406491675e-02 -2.905536635194782419e-02 2.099730868856933275e-01 5.021637133040034520e-04 -2.547771290738243700e-03 -5.344254164153711129e-01
5.312074419517552604e-02 -1.226594794799935537e-02 2.100171333695592391e-01 -2.531247034756762279e-04 -1.585314643531960353e-03 -3.714951547905205320e-01
8.547104882437753237e-02 -3.755142438282709633e-02 2.098815615264395529e-01 3.202076061173275852e-04 -2.694396318433558979e-03 -2.265823374517585143e-01
4.169279778126997599e-02 9.489284310291360922e-03 2.098397577580505824e-01 -1.216485234414655580e-04 -2.700541613956168770e-03 -3.292672627766025095e-01
-6.774841017876342963e-03 -4.554859312247012612e-03 2.098617928470664085e-01 6.105542400411171874e-05 -1.947206640683002248e-03 -3.520008704492773033e-01
2.387818957863687558e-02 -6.355006912385929851e-02 2.098979677977014791e-01 1.602998911531626882e-04 -1.351649650613142477e-03 -2.184366274245743977e-01
-1.084528279908635214e-02 -4.156250704525836503e-02 2.098559328031626703e-01 4.175045129325435185e-05 -8.988795676237299175e-04 -9.461394208487303170e-02
-4.009552950996132792e-02 9.088915995128803507e-03 2.098170704811887499e-01 -3.080213562596462249e-05 4.721641125598621211e-05 -1.748520624971413862e-01
-7.877231521981202522e-02 1.994754315163160818e-02 2.097680459665926533e-01 3.441890385446307786e-05 3.706036218813238371e-04 -2.073094433371653056e-01
-1.152949367846655276e-01 2.121899335073284404e-02 2.097821832583741664e-01 7.138715985881346261e-07 5.016772594668619106e-04 -2.389304633474626516e-01
-1.627483463232777539e-01 6.817865291256794413e-02 2.098277688330996149e-01 -4.564256858717788915e-06 1.131952150659419490e-03 -1.743580889998933847e-01
-1.542338174665212891e-01 9.779818156733613432e-02 2.098843806729315808e-01 -3.944077544992009843e-05 7.910530559694167133e-04 -1.484167855967152283e-01
-5.435033458007183793e-02 1.544556198647645436e-02 2.098306165668403778e-01 3.655403413201965259e-04 1.448673776574006854e-03 -2.568856519752344969e-01
-3.715329302736795902e-02 6.949483211228503661e-03 2.097863078625663569e-01 1.242280327348075579e-04 7.309388272058091546e-04 -2.433255401056386158e-01
-1.103427589227556210e-02 2.925402635842209303e-02 2.097189370094641458e-01 5.445091799990681278e-05 1.874014011216638693e-04 -3.068852211776224026e-01
-2.997866661571522984e-02 1.628241936165500392e-02 2.092273081849893579e-01 2.838772150833171907e-05 -1.459795668230467764e-03 -2.675378759868867751e-01
-4.952605311021662099e-03 7.302304669707926355e-02 2.099772258274926195e-01 -5.253505652026412573e-04 -6.295781358450650098e-04 -3.362588911765073130e-01
-5.664381438266651719e-03 2.195012180905173138e-02 2.093754256039283002e-01 5.042435521466116251e-05 -2.111182498826023098e-03 -2.251538050364949861e-01
-3.077664127885517201e-02 2.614076810082736207e-02 2.099430712286716183e-01 -6.612877137168680897e-05 -1.370305157823765172e-03 -3.385013004585515906e-01
-2.025631571864160152e-04 -1.188179999006779355e-02 2.104886573891200374e-01 1.108428069682364079e-04 -5.869334355200327841e-04 -2.793150562504678747e-01
-5.044808574499133613e-02 7.383266705903409818e-03 2.095820500851358070e-01 -2.212710648311118496e-04 -2.592606485212761800e-03 -2.706403240342848959e-01
5.237664382606248281e-03 2.021506226066517586e-02 2.098804648900005065e-01 -2.798576407358219849e-04 -2.264685599945386128e-03 -1.808993465933246003e-01
-1.773197857832251381e-02 -9.234073605900346149e-05 2.100930175383105003e-01 2.134845106716981567e-04 -2.217657246740512185e-03 -2.911446647823392464e-01
3.386518203546240446e-02 -1.014933102064852904e-02 2.103085664052777859e-01 2.686735316595771834e-04 -1.414804241321289966e-03 -3.014834670403068184e-01
3.634077053704726223e-02 -3.123368614164668405e-03 2.101428272349953885e-01 4.558151454120784818e-05 -2.270686466300781900e-03 -2.785233394221403591e-01
8.359081922283708582e-03 2.963995058383910031e-02 2.102186033439316093e-01 -2.776671669600771618e-04 -1.751093117552264371e-03 -2.381557827162468777e-01
-1.077548234589248075e-02 6.374248534275284150e-02 2.102233816442647951e-01 -5.637299802532920673e-04 -1.975198720155082327e-03 -1.674647137482393466e-01
3.702178640813906518e-02 8.935876898653220823e-02 2.104758320371744040e-01 3.535410500576895967e-05 -1.014322128864504147e-03 -2.782376888999373299e-01
-2.178519682359566015e-02 4.789189912919893100e-02 2.104608566722137031e-01 1.263643524715193499e-04 -1.174275654830382208e-03 -2.644474344767737684e-01
-5.929586305593837620e-02 6.242709250137942062e-02 2.095609877638228702e-01 3.040400848045567920e-05 -3.508070660009365155e-03 -2.517100060711222609e-01
-4.701800416735459065e-02 6.052960362442282027e-02 2.097238498049201483e-01 -7.817668894059088755e-05 -3.193039839953249262e-03 -2.815149818669541726e-01
-5.757537487468993714e-02 5.187802108497800713e-02 2.098310357273645010e-01 -1.314330931734144050e-04 -3.185946667090405748e-03 -3.247702778925303235e-01
-1.396664119418715606e-02 8.017604213229204135e-02 2.101762901994748134e-01 -1.902140953898158433e-05 -2.502740190625078916e-03 -2.651280522491721858e-01
-2.886279719002218108e-02 6.476928276347934665e-02 2.101945395467404998e-01 -3.927065025896544007e-04 -2.899776212020687641e-03 -2.264100706808384877e-01
3.885917952472088543e-02 2.997340331990422380e-02 2.105660375943966822e-01 2.635433516540195776e-04 -2.407068230177107030e-03 -2.599052372312783965e-01
-1.447971877013775818e-02 1.361945897497504783e-02 2.095562300480364182e-01 -7.470657394881622098e-05 -4.560838565453763892e-03 -3.485638478462344536e-01
-3.262478427795735547e-03 1.196207371546183403e-02 2.097529893073341589e-01 -1.738423951765933869e-04 -4.426303886908527011e-03 -2.259548335466032565e-01
-4.787412549289049579e-03 1.769789222118425126e-02 2.100484958016898829e-01 -1.944928872021058834e-04 -4.310843327627296787e-03 -2.499288656433399092e-01
2.222662863187417626e-03 2.556693794515185747e-02 2.103532914834399525e-01 -1.940829681878736670e-04 -3.781545305712612215e-03 -2.113605067400640691e-01
-4.538007878386147997e-02 1.201318137507390027e-02 2.096318444644854062e-01 -1.125209499080394749e-04 -5.740181245340153157e-03 -2.700006710087653472e-01
-7.120725149557058375e-02 5.933632523567169102e-03 2.098985745654312063e-01 -4.173626436714915881e-05 -5.395046759893304227e-03 -1.979205885848162039e-01
-6.214003090624629910e-02 -1.908893771384528870e-02 2.102383422442292149e-01 -1.193538237523429158e-04 -5.369956685902132348e-03 -2.651722643434451521e-01
-9.307771930287978002e-02 -2.519586428705087450e-02 2.105215003200643920e-01 -2.042461162085828456e-04 -5.210040345546203613e-03 -2.188129056047430909e-01
-1.139188440573576100e-01 1.698096025239283907e-02 2.097805852034723695e-01 -7.721989876865746529e-04 -7.874557023389966090e-03 -1.709607045049429952e-01
-3.840827845747302183e-02 1.261065531359144461e-02 2.101025504784506670e-01 -2.871383715081498060e-04 -6.723960192204641272e-03 -1.926312252164280314e-01
-2.499473076167197869e-02 5.106816572881781729e-02 2.105041460690421085e-01 -6.354997899027525635e-04 -6.572555269442541953e-03 -2.482155085757107582e-01
-6.849120522546799095e-02 2.660216044078854425e-02 2.098521140092067250e-01 -7.320831136052600909e-04 -1.058697697680787732e-02 -2.614812025799447270e-01
-6.412433495857822185e-02 -1.355414082440430448e-02 2.102150558505917477e-01 -3.883580300765398347e-04 -9.951497789583813383e-03 -2.592333293169311603e-01
-4.255296909854934528e-02 -2.961750850622417094e-02 2.106224637410955003e-01 -1.035110264302835587e-03 -8.661366500850666700e-03 -1.463972761508751663e-01
-1.672869158281813443e-02 -2.910932601931124145e-02 2.112745410471696395e-01 3.480798628663485210e-04 -6.908187859904262040e-03 -2.150204788573625014e-01
-4.351526811045698662e-02 -2.878948339094996797e-02 2.105483703991027356e-01 -1.352436283714039504e-03 -1.189904463436064659e-02 -1.319039290115223695e-01
-1.306264005573119259e-02 -2.833580437538328611e-02 2.111554352112347543e-01 -1.002779285492101397e-03 -8.577889173432903455e-03 -2.850131100269444329e-02
3.380276610804572313e-02 -2.732780668807251179e-02 2.118942182209396785e-01 -2.300844649153835906e-04 -4.799997746511372974e-03 -1.149669191404967955e-01
1.216696011826628662e-02 -3.533420545075916658e-02 2.113736469341980784e-01 -5.843538102182187092e-04 -8.215757454554844033e-03 -1.979434316553321527e-01
-2.518544646300272666e-02 -5.815082614986850917e-02 2.120330868368182631e-01 -1.829142633499999330e-04 -2.657763691236467857e-03 -7.133151033218550208e-02
-2.626585301670598602e-02 -2.474253253543080150e-02 2.117379670443494399e-01 -3.221546115882331879e-04 -2.722293657347624879e-03 -9.473315884540028931e-02
-2.787256074020835403e-02 -3.122815050350181629e-03 2.111577945071583806e-01 9.002856630933833064e-05 -2.835973943450144710e-03 -9.363613443369518674e-02
-7.087124716989386120e-02 5.063339281194564195e-02 2.109244956765794488e-01 -1.290994534421640845e-04 -9.746926593926219778e-04 -4.085164444788766391e-02
-4.271363037049244471e-02 4.594293351056772529e-02 2.105690142077614735e-01 -2.220577837008798859e-04 4.481509336063599965e-04 1.229030133695437066e-02
-6.896707533438434234e-02 1.087143817795824391e-01 2.101879771323148516e-01 -4.236024628603629670e-04 1.534015181085034239e-03 -2.263485729543956645e-02
-8.412842365054135074e-02 7.502137267671740717e-02 2.097836880452738639e-01 -1.371124780956669762e-04 2.083998433396612102e-03 1.400452844531153151e-01
-1.271191439611954466e-01 9.196924374558883286e-02 2.094297646633358490e-01 -1.367367742087497763e-04 3.178428491225847828e-03 -3.038533766541183165e-02
-1.402988613005258511e-01 4.793377623545425070e-02 2.089740573715040961e-01 1.001591433701529767e-04 4.653165043516154127e-03 -8.073737779730232045e-02
-1.459865805870974587e-01 9.345112062410267095e-04 2.084686201008609796e-01 -5.521510829000149026e-05 4.340451861502272676e-03 -1.436279727968911846e-01
-1.120848624443673142e-01 1.136267437058336716e-01 2.091374139341122262e-01 -1.365051560724063473e-03 9.248886320802941069e-03 -7.250222874863115896e-02
-1.116071203276581270e-01 1.192872386986647687e-01 2.089815293648186190e-01 -6.087495578536438216e-04 7.897113052389354015e-03 -2.037411667034342566e-01
-1.664774439517250071e-01 1.051078111473815191e-01 2.086206952637620904e-01 -5.722844943123101035e-04 7.004089706454890048e-03 -6.515695275788080387e-02
-1.015971055185894284e-01 1.652045317910380007e-01 2.097441106562594193e-01 -7.750544205177048148e-04 1.013551558148875938e-02 -1.954736264261250703e-02
-1.012855799382376271e-01 1.194654585766104643e-01 2.095933509105872283e-01 -4.532552117137121639e-04 7.828219214209080137e-03 -1.859463052889415713e-01
-5.480379823220379171e-02 7.379511677213970722e-02 2.093321287619617777e-01 -3.818633588404398652e-04 6.728296239468144029e-03 -1.426471845831455698e-01
-2.468334572731900600e-02 1.122068874658130183e-01 2.090451966260862271e-01 -4.999128956617753580e-04 5.857685551657522242e-03 -1.708788280837706119e-01
4.363889168745899161e-02 6.109090074594526742e-02 2.089444839302134205e-01 1.424262017388929467e-04 5.692329521891712450e-03 -2.566435158982839915e-01
4.011921928830482209e-02 -1.099804129845459097e-02 2.105379644683688656e-01 -7.438244214065776550e-05 6.352326484942175111e-03 -1.010339945899761810e-01
2.874209073039796225e-02 3.133608567259720673e-02 2.102794655026185566e-01 -4.143647149294414590e-04 5.988645711841800688e-03 -2.534246859777262162e-01
-1.537042021667008908e-02 4.134122329735170909e-02 2.101637753612649040e-01 -1.895354862856132383e-04 5.316428722890193664e-03 -1.873166641536107846e-01
-2.716866119977289634e-02 6.892629414779759267e-02 2.099407124519589996e-01 -4.379464529056952991e-04 4.388627918557619703e-03 -3.734820739197949879e-01
-4.722412783642350453e-02 7.443212182160630075e-02 2.098219631313602562e-01 -2.200764482455194900e-04 3.764766660118272230e-03 -4.717283623520567293e-01
-2.635158383566887572e-02 7.124294876092322759e-02 2.097235121731764185e-01 1.633784082999591367e-05 2.745371711773420941e-03 -3.577237457541988519e-01
-7.494197321695567071e-03 3.128722285632186406e-02 2.096711459404839717e-01 1.455116399010469147e-04 1.895291335536029203e-03 -3.415080719545605104e-01
-3.962221001605960302e-02 2.394946390558674865e-02 2.095923071372788327e-01 1.979278201260460722e-04 8.343440262709710684e-04 -4.147533304116180486e-01
-8.868982329043581525e-02 1.433513847278233486e-02 2.095393809737413071e-01 1.335660456000642806e-04 5.116990531441268026e-04 -1.087154768473008321e-01
-1.019716253578839271e-01 -5.729173385839295835e-02 2.095847547905203001e-01 1.603469034885633823e-04 -3.571834095614042259e-04 -2.075086311605224831e-01
-7.277990951977042489e-02 -4.328534709562498889e-02 2.095760600952111807e-01 -2.329714852543867990e-06 -7.274766820172043347e-04 -1.850118697396993528e-01
-6.817353482248122987e-02 -1.344230855245835861e-02 2.095610305129528284e-01 -8.725086201731384588e-05 -8.170529184331269375e-04 -6.239013063630894501e-02
4.896070333897994953e-03 4.429264579313051120e-03 2.097480370414177564e-01 1.558917775623866995e-04 -4.249731856581131628e-04 -1.821849306491648557e-01
5.142631256620718017e-02 2.746928583552856601e-02 2.099401752545432265e-01 -3.123611145285546375e-06 -6.649084998917033059e-04 2.688934671681587896e-02
6.082042965521634176e-02 -6.541102990146478724e-03 2.102773706821681743e-01 7.289955216622075402e-04 -3.842526127967464179e-04 -1.031879185245409697e-01
8.344788599987357225e-02 1.737751269167240112e-02 2.104536440426873489e-01 -1.849047952946316405e-04 -1.815865019626948724e-04 -1.433651995689447789e-01
4.287613286497087006e-02 1.758121350597182178e-02 2.094579003975715614e-01 4.298602131047965123e-04 6.445952019312404776e-04 -5.042331341421085744e-02
1.693073319887123535e-02 7.981380522420788992e-02 2.097943704589649294e-01 -4.778873026208152615e-04 9.528328562926627809e-04 1.259586318287616961e-02
7.868293093496128709e-02 8.793732419601250905e-02 2.102415001592883304e-01 9.022047310613022714e-05 9.642740748788417244e-04 3.085222900795348694e-02
-1.650476599607712119e-03 1.532342208992735003e-02 2.092702993317107074e-01 1.231412846390070315e-03 3.572215482248271485e-04 -3.027889405255302369e-01
2.536747495631705082e-02 -1.170163798365493092e-02 2.106092206768236386e-01 9.812332214871879402e-04 1.194254601204958492e-03 -4.921737871441731471e-01
1.175760773870216519e-02 6.644923032888819248e-02 2.094945197815256677e-01 1.397517071258550739e-04 1.250572788146603678e-03 -5.732205589260337408e-01
2.507430538050543431e-02 -5.131512562284515355e-04 2.095177318242508746e-01 4.092642174685666499e-04 1.823391095909386497e-03 -2.715416870606277566e-01
8.925917618199875891e-02 -1.184076670725757105e-02 2.103695239987696808e-01 1.835498405127712813e-04 1.985009668643203124e-03 -3.123451552180575019e-01
9.770846270087857333e-02 -5.557374686814171849e-02 2.101955387309849543e-01 -7.497397312583692591e-05 1.331099075010625616e-03 -3.575467843757714759e-01
8.598796859773463752e-02 -4.439709724398123447e-02 2.096100976358735712e-01 -4.011679902734470953e-05 1.660200390494487787e-03 -3.281164455670258495e-01
1.170904232163710590e-01 -8.599450315249514143e-02 2.100844262259191075e-01 3.010257207040236533e-04 1.775160076356127820e-03 -4.623030993730113947e-01
1.327351897828587812e-01 -9.400343530780015666e-02 2.102952425589149077e-01 -6.182663574453226821e-05 1.784715035573376579e-03 -3.907438735625990422e-01
1.228708812048040916e-01 -4.260050989899884927e-02 2.104309623589044609e-01 -2.718116931754844634e-04 1.743929947040918091e-03 -4.110850243114447244e-01
5.237368603125909516e-02 -4.780692996741821299e-02 2.095971402338900336e-01 -6.792810393560979741e-05 1.314883985218856782e-03 -4.218412740061272537e-01
4.212225789309161084e-02 -7.112589591185360105e-02 2.097077622197522362e-01 -4.081967312051466628e-04 1.372152886278440141e-03 -3.348193450703713658e-01
4.913336482332382460e-02 -5.556501184740981342e-02 2.099329620822652509e-01 -4.850441112483527741e-04 1.585854456039485294e-03 -2.252285821854045356e-01
4.444156978598345908e-02 -4.246740536030223917e-02 2.102107149439473854e-01 -7.597543508426896346e-05 1.340155117782804986e-03 -2.466847834684987861e-01
5.494984837135843958e-02 -5.957663801931067926e-02 2.104199378311578106e-01 -4.133861401211232165e-04 1.567604345999024790e-03 -6.461445541994106923e-02
6.138325228074680007e-02 -7.081244377282840119e-02 2.097136620780756799e-01 1.952535988718446614e-04 1.265127766461135884e-03 -1.485708282545318837e-01
8.926169466654214346e-02 2.723592581880652369e-02 2.098923150251877923e-01 -9.545436270400486261e-05 1.417471242999338325e-03 -3.352989133970397662e-01
8.702259393371099272e-02 -1.807063449840743199e-02 2.103055534016356476e-01 -3.784112978259563807e-04 1.174972731373993742e-03 -2.525434021543051522e-01
8.832968245474459579e-02 2.896236943291718297e-02 2.098241249767497374e-01 -1.378564473872177700e-04 9.479307801456845302e-04 -1.952424601406195503e-01
1.020959206798637831e-01 4.214669773600627362e-02 2.105780401424057757e-01 1.187777289723106883e-04 3.057814801914681096e-04 -2.463951818169515806e-01
5.980843429246117393e-02 5.995933505989408524e-02 2.099845006415750337e-01 -2.681792144396273592e-04 4.581085438276224055e-04 -1.690425967709988930e-01
3.643807434899031666e-02 1.031310115059724947e-01 2.093546302674174076e-01 -5.104860022983825446e-05 6.325761566024372179e-04 -3.542389336735899952e-01
7.975575896418718447e-02 7.438104363283137843e-02 2.102233712156453826e-01 -8.534084967345405162e-06 6.981926430085389238e-04 -2.653473434109135387e-01
7.112911888628568879e-02 7.823275550354803765e-02 2.102888747120684187e-01 1.982077438409897202e-04 7.598633588958134035e-04 -9.249633151674103992e-02
6.576320405770186284e-02 5.925132647108510842e-02 2.100784696760198411e-01 3.615264841646417902e-04 5.344186836895251785e-04 -3.596565550632898067e-01
7.565518482933736300e-02 1.105637989508806603e-02 2.100176207061731359e-01 2.996356050525986539e-04 5.758209654908670507e-04 -1.807346336967987910e-01
6.650661191667829597e-02 -1.412784212846564941e-02 2.099074834571221793e-01 1.612184080906898219e-04 2.368338431927786340e-04 -2.049919987134910804e-01
7.016504065709952553e-02 4.407773714597990750e-02 2.097465833197195151e-01 -1.937731865993725668e-04 2.467613698137880634e-04 -3.445760841189121626e-01
6.352528285260483631e-02 -1.304087603282408879e-02 2.097065969987360057e-01 1.302997248618860166e-04 -1.154262313478451939e-04 -2.126858221807342575e-01
6.991299941016169972e-02 1.685100008774775143e-02 2.096345235224283399e-01 -3.871664421161822054e-05 -1.863705909589002160e-04 -2.242405488886074771e-01
1.217712575789305085e-01 -1.031854591819468883e-02 2.096817288946866142e-01 5.569111910618754083e-04 -4.807850722659171667e-04 -3.429702007095538074e-01
1.247683757376434333e-01 -1.916891862217232761e-02 2.095789886843963945e-01 -1.259051188282936013e-05 -5.983721864911820988e-04 -2.956480461102918844e-01
8.908784946606181088e-02 1.117547875493555415e-02 2.095298378708942977e-01 -4.468224292567380502e-04 -1.284716208235477239e-03 -2.723653064746102137e-01
4.673558223479169771e-02 2.415229680801973117e-02 2.095287451207478724e-01 3.362863225768882003e-04 -8.947691903040225518e-04 -3.950067305776073789e-01
1.637045074251024593e-02 6.095213621206227450e-02 2.095060834429173235e-01 4.403682391511297722e-07 -1.221071974274295577e-03 -3.918121074777820567e-01
