2.056495932154983053e-01 4.738553263969729756e-01 2.168533564153302118e-01 -9.112741252453790939e-05 5.970795347582288351e-04 -1.819387522601401408e-01
3.084663683433432335e-01 4.449342588024582934e-01 2.198204756943658023e-01 -8.593206850091823854e-05 -1.061906498306535324e-04 -2.815218995722207906e-01
-1.524788358758137896e-01 4.798652608895402349e-01 2.018755751288116573e-01 -1.179665234495606895e-04 -2.004149160910225619e-04 -3.476615210415218149e-01
-9.107079088191458172e-02 3.933142483204190576e-01 2.046298986232144568e-01 1.726532804772364766e-04 -8.051792710558631355e-05 -6.475275593064235835e-01
2.315556053104822140e-02 3.562781076842446160e-01 2.073400343971114612e-01 -2.853780911692052461e-04 -6.908766959861097718e-04 -5.993973342822186412e-01
6.327774717346480726e-02 3.666014636699811979e-01 2.100853640372092324e-01 -4.324449833021583745e-04 -6.997040474168499547e-04 -4.330502874680318137e-01
1.533569488942604919e-01 4.275024259375641567e-01 2.127764504247006139e-01 1.826693260556447188e-04 -1.405409819551551231e-03 -4.977115988103701927e-01
2.324076409875784344e-01 3.642156603030894946e-01 2.155542865184864043e-01 -2.841772846790336965e-04 -2.000161513203379832e-03 -3.945496040222631340e-01
2.881927612773150793e-01 4.386735231530852208e-01 2.181813113627478207e-01 -2.402720101872552068e-04 -2.537436260065507009e-03 -6.167488760388271096e-01
-1.955878546118918482e-01 5.096385212459013658e-01 2.005961149501523377e-01 -2.734182246569741661e-04 2.266289126912274417e-03 -4.817736056496940145e-01
-1.945797897295941659e-01 5.224964949089526689e-01 2.034063048928509976e-01 9.318533727895894918e-05 7.600286410256829961e-04 -3.061927301417530778e-01
-1.468482558239766478e-01 4.973009430384180973e-01 2.062936750199841907e-01 3.991576205929488566e-04 -1.028035246741277860e-03 -2.359778560532964364e-01
-1.369111969245947469e-01 5.103023174875279677e-01 2.087853164803709638e-01 2.208516424479474785e-04 -1.766634067501165464e-03 -2.181262094139632679e-01
-7.677290246577828103e-02 4.337419558406903075e-01 2.114362314390848541e-01 5.100558269438438402e-04 -2.925310592894978315e-03 -1.553541595220051807e-01
-5.986541590968263993e-02 3.062974942021060021e-01 2.142007007155349863e-01 3.159207358441168786e-05 -4.508117544527094275e-03 -1.954944503705301762e-01
7.804833608901609598e-02 3.509107295094434642e-01 2.167963552790021509e-01 2.430142629991321307e-05 -5.574703558087971966e-03 -1.420881707839415087e-01
1.795765026076650561e-01 2.319040459988758740e-01 2.191125366260868734e-01 7.248678169810044650e-04 -5.817443553278585540e-03 -8.317405475867671594e-02
-2.745593257019587341e-01 3.272401153186696998e-01 2.019867772875565404e-01 -6.369334308503330671e-04 2.597009861225679696e-03 -3.611483198712185927e-01
-2.070832607703725903e-01 3.566546597875535074e-01 2.047160094132738917e-01 -2.385476052256848677e-04 7.318904957167124848e-04 -4.057891476357459726e-01
-2.536152378593014567e-01 3.377570230697259368e-01 2.073188775678697082e-01 -1.410058120550026237e-04 1.932084836941551473e-04 -3.726408904595602811e-01
-1.348471801228839917e-01 3.266525763974713059e-01 2.098072671473351636e-01 -8.106560182531988236e-05 6.314328648139309387e-05 -1.464371205342856752e-01
8.784514784359126471e-03 3.394497188022780332e-01 2.126259843052798471e-01 6.517647746434280598e-04 -1.250046029096218590e-03 -1.595495318287426523e-01
9.358890506248479513e-02 2.148368743546933690e-01 2.154750506842368907e-01 3.678299652135020789e-04 -2.730501092284113706e-03 -6.176630316066839682e-02
1.769835484986189422e-01 2.851160427528477981e-01 2.182662393710286253e-01 -4.112455627992453824e-04 -4.253139473958672187e-03 -1.446642373661958803e-01
-2.807191500485760050e-01 2.426004526539260742e-01 1.999723924313884238e-01 2.546781438892132242e-05 4.322161555042788351e-03 -2.279276756355998745e-01
-2.861574807998050751e-01 2.405600350686774025e-01 2.027674008527587945e-01 1.944413145733175940e-04 2.999604798394233437e-03 -4.319575955993874561e-01
-2.248556609804759632e-01 2.165819444904721336e-01 2.055293321119446293e-01 2.965447405506984940e-04 2.971821661028567312e-03 -2.285629300652566032e-01
-2.094777733754399907e-01 2.161343450781455511e-01 2.083040458486021818e-01 2.079783078788964156e-04 1.595418192727085733e-03 -2.379553588378058582e-01
-1.722641230799649981e-01 2.300074785393753374e-01 2.111828091437085164e-01 1.357548200769460173e-03 2.065722550638136575e-04 -2.421726543604041382e-01
-3.684234113786079290e-04 2.422272254991144347e-01 2.138635528440016031e-01 -1.357465826472069792e-03 1.104476165958757222e-03 -1.355009783143673041e-01
9.407121890689051913e-02 2.987859174190846123e-01 2.167700787295789300e-01 -7.789804799112101360e-04 -1.323762074445162845e-04 -9.919093401060087578e-02
2.664981685235087161e-01 2.988177641113296534e-01 2.196150340593254202e-01 -4.801253007903325031e-04 -2.078280385164201806e-03 -2.435448417530776677e-01
-2.400130667215812086e-01 2.977385022071331599e-01 2.021352931468541336e-01 -1.553053193454295754e-03 5.019728870598244748e-03 -3.170664506383659154e-01
-2.002238173929478116e-01 3.003279446883722614e-01 2.046970335447027001e-01 -7.431628858434902608e-04 4.265819598986771329e-03 -4.543464809348836675e-01
-1.310954808393080262e-01 3.522260556236784246e-01 2.075270430165781499e-01 -2.182650784581918323e-04 2.184303862062315048e-03 -3.821277168899595567e-01
-1.104810169969293460e-01 3.380735592408957157e-01 2.102710432724084200e-01 -1.924758618636369120e-04 1.175162591287892125e-03 -2.883556974870257195e-01
-7.910885365330985741e-02 4.651693403140664262e-01 2.131653603277850473e-01 -7.057691947846566911e-04 -9.077247338311831551e-04 -4.233807876133519055e-01
1.327094125741297773e-02 4.107531569807153504e-01 2.155695652000700346e-01 -9.232342796031661584e-05 -6.885920190957172185e-04 -3.959423536798320487e-01
1.466850016551062008e-01 4.294601700301771130e-01 2.180682763542587388e-01 -6.336611654477054389e-04 -1.066446126741303624e-03 -4.436888771840287737e-01
-4.803386474778323367e-01 4.356733222894857982e-01 1.999370910971564053e-01 -1.148768850235014002e-03 4.809978536955035466e-03 -3.575646038425010498e-01
-4.056264228913140091e-01 3.826259794319125107e-01 2.023615870148188223e-01 -8.500598749931898696e-05 3.102100482535649021e-03 -4.085115945829547179e-01
-3.707430055950116654e-01 3.823136693159823185e-01 2.046181173328207592e-01 -9.900257020574308080e-05 3.198464998697757994e-03 -4.226597168143342298e-01
-2.375063881418459089e-01 3.913878467461267552e-01 2.067429174382430235e-01 3.531523696521297840e-04 1.762193214518023359e-03 -3.528550788370987124e-01
-1.648938866739461384e-01 4.350305103289261455e-01 2.086409795481226070e-01 -5.851597884891041133e-04 6.708157170163116202e-04 -3.674299959032040763e-01
-1.230593954823120534e-01 3.823096476811563837e-01 2.104931098068734130e-01 2.289394743074042228e-04 -4.904153402785795240e-04 -4.164079837173943477e-01
1.293268787205866660e-03 3.385571814734945062e-01 2.122112862146396384e-01 -1.463228662724665738e-04 -1.421807918047801383e-03 -5.615193431026824777e-01
2.673872999737005735e-03 3.714642840515483546e-01 2.137820173910467969e-01 -3.139951608968969527e-04 -2.537181284294550906e-03 -3.806517353242430679e-01
4.409964747531835982e-02 3.129131872025495142e-01 2.150639634072635253e-01 -1.461772735072847118e-04 -4.235748110727514948e-03 -4.949386804326033618e-01
2.734979569507745012e-03 2.522205114915541113e-01 2.163866656044186598e-01 5.782579132716165110e-05 -4.403752863313974489e-03 -4.588555101043016449e-01
5.855421746399946947e-02 2.527711438996919080e-01 2.175084284618903352e-01 -6.191698549472762032e-04 -5.459580442970823552e-03 -3.282109367744547312e-01
7.744666771826577700e-02 2.587382116092395434e-01 2.185180562041598717e-01 -5.299105360638166817e-04 -5.565183515137759294e-03 -2.771992546233982280e-01
6.210849470204259093e-02 3.011896723119260599e-01 2.193987206897070608e-01 -7.197770743771135212e-04 -6.195234763585623534e-03 -4.160066010321752938e-01
-3.723405698551757737e-01 1.290465601686934527e-01 2.005219883927119584e-01 8.808774619467951228e-04 3.735905024903224750e-03 -2.876919057456345241e-01
-2.595108330533709706e-01 4.624708066650137783e-02 2.012920452973576690e-01 1.280810230321550362e-04 4.291101095750377535e-03 -2.833538009097704147e-01
-2.236226819778909525e-01 5.017132981004920195e-02 2.020518345150283945e-01 -5.893697666789617052e-04 2.713592029442976183e-03 -3.482053272553689016e-01
-2.482770966789339673e-01 6.964146027876474965e-02 2.030072662569884501e-01 -4.770804657195919663e-04 1.969643832971090629e-03 -5.437560127686346112e-01
-2.219044875330078714e-01 5.559133899887525564e-03 2.038668053946612324e-01 6.241876987788068506e-04 2.040731507353589318e-03 -5.889319630401210759e-01
-2.252429891860107669e-01 1.458343425195269237e-02 2.044226269760729409e-01 -8.723103903144304632e-04 2.019371096578362768e-03 -5.867714904224375916e-01
-1.814964986759503573e-01 5.261462301352780313e-02 2.049884959411886198e-01 -4.297860800737184702e-04 2.212703656212754600e-03 -4.289137774472692177e-01
-1.468535341221157697e-01 2.643071243525564953e-02 2.057364924128394224e-01 -3.904517616695826494e-04 1.359452585562972169e-03 -5.381351288857353365e-01
-1.814872008925608460e-01 -5.847253937181109973e-02 2.061632043563748073e-01 3.839962482983146357e-04 9.534945716641494377e-04 -5.162276792019656613e-01
-1.415490321518421135e-01 -6.602634947578839286e-02 2.063658618851406112e-01 -1.502688573033850801e-04 1.003498707652972916e-03 -4.094013302826460809e-01
-1.967894195034952942e-01 -7.950338238703455462e-02 2.065380979146572149e-01 5.997678968185035393e-04 9.083043561906964814e-04 -3.487680574354903307e-01
-1.827937430005941166e-01 -4.523387071432576761e-02 2.068472039634912663e-01 -5.995597288002863390e-04 1.304227827680121956e-03 -3.728535809704485726e-01
-1.599517141493216610e-01 -8.223498899119191519e-02 2.068459906304045970e-01 -5.057586952073607868e-04 1.044210885656154811e-03 -3.109466116676467551e-01
-1.652991686375834546e-01 -2.683023555505432631e-02 2.068484905848688715e-01 -3.691930073629353217e-04 1.201776243030935757e-03 -3.872278387143732736e-01
-1.136177284613940908e-01 -7.970208784161356141e-02 2.069600496203526929e-01 3.575010208748783552e-04 1.149862597871840119e-03 -3.608220014071048531e-01
-1.262574578370120049e-01 -1.273493355880491174e-01 2.071007047545136426e-01 7.186465317261827006e-04 6.722183558066331058e-04 -3.944574450036036350e-01
-1.381531930989196300e-01 -9.849525184318126680e-02 2.071312767652724873e-01 -5.755406634693521393e-05 1.204036950123386776e-03 -4.355417846067660137e-01
-1.142403138239031640e-01 1.110117647606772076e-02 2.071619705349453389e-01 -8.103595343612997272e-06 1.064867509110303551e-03 -3.909453582707821950e-01
-1.533631079383328821e-01 1.915552245890553978e-02 2.076702121341556517e-01 9.109255437215586998e-04 3.712667182736302768e-04 -3.655885855942618834e-01
-1.430505265518024760e-01 3.437817673718554512e-02 2.081053575194032890e-01 -5.458647524794011128e-05 4.949559164085006726e-04 -2.643220109995831346e-01
-1.334483326272470072e-01 4.289292714132523360e-02 2.087000423854324938e-01 6.324953891082768032e-04 6.555722869774564376e-04 -2.166667120433801996e-01
-1.254351511943873308e-02 8.726640249806452698e-02 2.094104485974596641e-01 1.265923923740697014e-04 6.843543613471891234e-04 -1.773265230717227525e-01
-3.123226469166848554e-02 9.917273960685486778e-02 2.102395671266042432e-01 -9.550804046237857271e-04 2.098716686562936205e-04 -1.219651808849019359e-01
1.103697165040661357e-02 1.710324382431593349e-01 2.111546744343784088e-01 -3.978869468509467337e-04 -5.812036183547891104e-04 -2.450769362830648723e-01
-2.791229307372399687e-02 1.746401682020044532e-01 2.123017511931101220e-01 2.602318870447746925e-04 -5.048155697253338967e-04 -2.057755783390323445e-01
-8.734352318356050637e-04 2.646353661862327344e-01 2.133982160811939144e-01 -3.239105307915762268e-04 -6.274460110074629900e-04 -2.877297095213858791e-01
7.770904875222738040e-02 2.140699620500657319e-01 2.148606219422531938e-01 5.460560983293064529e-04 -6.199308368482806496e-04 -1.142230715345154413e-01
1.325650076068531913e-01 2.208638091037574414e-01 2.163232010171755038e-01 5.254908955315281500e-04 -1.522904891990923236e-03 -1.296756865371033185e-01
1.779079754648828227e-01 2.373731575244074632e-01 2.176601310493433417e-01 -1.338934221678561512e-05 -1.527627588322664175e-03 -1.816611676175347023e-01
2.220436215326384299e-01 1.896702765536572299e-01 2.191882725913453234e-01 1.292081546749557566e-03 -2.268132566408349003e-03 -6.025756515460811008e-02
-3.242038132025247266e-01 2.219927039149308390e-01 2.002699479116575310e-01 1.120896921318359789e-04 3.287964610500271421e-03 -3.336306606336388869e-01
-3.089862153603877837e-01 1.927874320485706283e-01 2.021201465774504213e-01 -1.200254392153174806e-04 2.934737986691886378e-03 -2.630157586425141414e-01
-3.237392702098135233e-01 2.776145321332496585e-01 2.037227298725222124e-01 -1.310928034189279008e-04 2.893312159092228854e-03 -4.501619807245886840e-01
-2.555263521454214093e-01 3.024956666878974576e-01 2.056195609171100891e-01 -6.753036942733500010e-04 2.332877263717357541e-03 -4.680891427005344774e-01
-1.921921494151478671e-01 2.486272142081793479e-01 2.074421223983377027e-01 4.209991267413787028e-04 2.058330448206853718e-03 -5.407910898992847049e-01
-1.028005520358800523e-01 3.252823810953949235e-01 2.093814293296888951e-01 1.049569849857907551e-04 1.275718835123704252e-03 -4.643191621238626499e-01
-3.216482966009637928e-02 3.298682165627034313e-01 2.113195726973149391e-01 -2.979206825091044224e-05 1.655922243764581376e-04 -3.723995695097749303e-01
-2.660180403360923318e-02 2.989040099646493864e-01 2.135720225618391033e-01 7.311323228966737603e-05 -1.828011479169387374e-03 -2.768056783393260112e-01
8.944223358757297238e-02 3.985429663406631073e-01 2.154269196516923057e-01 -3.005160863458936654e-05 -2.056544303675500104e-03 -3.588276686158414774e-01
1.042977837292087401e-01 3.609540564526019235e-01 2.175308261581750946e-01 -1.129757582506749709e-04 -3.103809311350869907e-03 -5.514787611706095660e-02
1.679924037650626645e-01 4.281060541559235100e-01 2.196621498246906223e-01 -3.107770927246530251e-04 -4.602252530399103363e-03 -1.465855774050156719e-03
-2.230217302157110615e-01 2.414730109682943493e-01 2.012498405338062346e-01 1.173424460662375818e-03 4.332064153386042636e-03 6.597931974163601110e-02
-1.934109894619019665e-01 2.800444929673410188e-01 2.033384930262172041e-01 2.669325294006425712e-04 3.564892552115949808e-03 -1.775369283891831407e-01
-7.709211797369264207e-02 2.327857374922536193e-01 2.054769553211630018e-01 1.022619958811294766e-04 2.103952269813171017e-03 3.669218242599084356e-02
-5.276369943730001288e-02 1.937963043213470071e-01 2.078362364298755871e-01 5.928026588559939802e-04 5.225540051451632107e-04 -1.408535942096941496e-01
-9.882989011331092324e-03 2.553558488395331616e-01 2.099275047920730053e-01 -2.578748712612871879e-04 -2.946876412329750496e-04 -1.753174091249509181e-01
3.770165660761069792e-02 2.569871472326648032e-01 2.123737127536736713e-01 4.591706947301213686e-04 -1.539815050636656911e-03 -2.224090497244349263e-01
7.235162418651210070e-02 2.654415447062418720e-01 2.145109146925530674e-01 -1.708000711452987497e-04 -2.598809121479676680e-03 -2.365218371748508894e-02
1.417550881617483660e-01 2.518456323576790390e-01 2.167329673544831081e-01 -5.459117236405163767e-04 -3.342405654249871409e-03 -3.367191183274795274e-01
1.816802474704090065e-01 3.190041209104573228e-01 2.190565519997466626e-01 -6.922730682637410994e-04 -4.403825562726842655e-03 -1.554664002803396727e-01
-2.370510595814358801e-01 3.148013376669095420e-01 2.011799293683114720e-01 -3.378829496620013419e-04 4.679414712817579931e-03 -1.689321501062877318e-01
-1.901014919028129468e-01 2.768285602849744897e-01 2.035524716244802024e-01 -6.880904961480324147e-04 3.953675642025376684e-03 -2.132943209005871421e-01
-7.657449090904716593e-02 3.146346943534161222e-01 2.059440521760335652e-01 5.907030523643573561e-04 2.734346580565187850e-03 -2.031237125045643188e-01
-1.189419908709323133e-02 2.647339608408245115e-01 2.082848951810269966e-01 4.163822762124534346e-04 1.788547709300926511e-03 -1.790397767978063881e-01
3.422739127228766054e-02 2.722831082391883317e-01 2.106165749605066195e-01 -4.400113125218385666e-04 -5.512323903763794667e-04 -3.862681559294848244e-01
8.509319579075041995e-02 2.828359991113645888e-01 2.129621858471423823e-01 4.737077521821361938e-05 -8.468662024363946255e-04 -2.079989566074214868e-01
1.820116320975334323e-01 3.171334456825123382e-01 2.155509715930600256e-01 -2.389230856416232310e-04 -2.065657523819733506e-03 -1.719998242733918048e-01
2.944210143355247000e-01 3.242974654359627174e-01 2.180344256961390670e-01 -7.602814925763940824e-04 -3.240792907372752173e-03 -1.485812686852122921e-01
-1.940560284436748106e-01 3.069136527342717358e-01 2.000392451866109256e-01 -1.328941535687414065e-03 4.150136291202121894e-03 -2.541148069834217038e-01
-1.246701961307147832e-01 3.665001392392178703e-01 2.024233536898185637e-01 3.634060132219883200e-04 3.015099185690030010e-03 -1.765416265845101973e-01
-1.037706579268275753e-01 2.825603327007936705e-01 2.049509282537881338e-01 1.634760624308380445e-05 1.665448444841868998e-03 -1.481733839276383469e-01
-1.262144653907222580e-02 3.339333624082820307e-01 2.075348383119393625e-01 -4.018511224041782090e-04 3.012128482408440761e-04 -1.265149265768462372e-01
6.137068657794061965e-02 3.473847741914421472e-01 2.098585958731655210e-01 5.648536801440563716e-05 -4.122103032805419278e-05 -2.588809751262834413e-01
1.138551004377286735e-01 3.122767063253187869e-01 2.124827265138953813e-01 -3.648850699775907391e-04 -1.731430677029392783e-03 -1.546876964844433044e-01
1.711472217037242616e-01 3.336146647285878619e-01 2.145714566048418370e-01 -3.663593839044543624e-04 -1.888470413647849212e-03 -1.087410862548984086e-01
2.747926457406160705e-01 2.794986194265245971e-01 2.170641235618268050e-01 9.939496645803521692e-04 -2.471475496130747483e-03 -9.398638578357178253e-02
3.692081392479710233e-01 3.248129661477826557e-01 2.195597652887578133e-01 -7.622527213962819502e-04 -4.701273119208045081e-03 -6.180794649727218426e-02
-3.297695675566697515e-02 3.459123163937952161e-01 2.016933206905775489e-01 5.951735766027925869e-04 3.289286858595971003e-03 -2.414075299474054137e-01
3.905337366284369893e-02 2.101720710842939210e-01 2.043887800524996079e-01 1.373814863497126778e-03 1.716150582079972384e-03 -2.713272568557410502e-01
4.999321502781622212e-02 2.292344625118981072e-01 2.068175451209515181e-01 -1.454255773125797785e-05 -4.086951937903802166e-04 -3.601771120705155593e-01
1.173980226152454703e-01 2.774708693546695248e-01 2.091175369801968609e-01 -2.373777530443027918e-04 -8.154927320911143111e-04 -4.844927437062946374e-01
2.564443959337233125e-01 3.027399913398670650e-01 2.113269590722696156e-01 -7.063225968677308087e-04 -2.226003701467645524e-03 -4.223898147096920019e-01
3.643698271963727309e-01 3.229905112403720913e-01 2.140389601422057475e-01 -2.890068355347795112e-04 -3.768753462696308905e-03 -3.666671783745336088e-01
4.828630953644287294e-01 4.113650146376234273e-01 2.163842871977839644e-01 -1.737864079481063646e-03 -5.031849994979005133e-03 -3.534476435829391194e-01
5.735686270799499331e-01 4.151530503524537563e-01 2.189381901130861285e-01 -4.501198718958340328e-04 -5.785217235998217980e-03 -4.845078491090341055e-01
-2.076612970896007937e-04 4.903167597767313923e-01 2.015622119999120332e-01 1.871415958172440287e-04 2.078270250498644080e-03 -7.479445030148225149e-01
4.623243813851484613e-02 4.195474031171184670e-01 2.041550447066828311e-01 3.736710834919529964e-04 9.455841255834722967e-04 -6.061494708074627313e-01
1.661475387248475266e-01 4.340886704377825978e-01 2.065717142568253561e-01 6.055979568237364894e-04 7.158027452434442958e-04 -8.103900561887993348e-01
2.681967476668689621e-01 3.488166233133832561e-01 2.092645079713074119e-01 6.940792300001759211e-04 -6.087443330590605129e-04 -5.794636170649506424e-01
3.141346025247914731e-01 4.389092494014004697e-01 2.118695803141996126e-01 -3.909671938744016528e-04 -2.143187808589409795e-03 -6.315629028154369218e-01
3.411140555387839335e-01 3.444826648447695261e-01 2.144251972748193458e-01 1.562640392390091842e-04 -2.502568516575232830e-03 -8.007847413498978550e-01
3.780283004203191521e-01 3.457723560817365649e-01 2.171101914587851844e-01 2.133161716755643724e-03 -4.630689031966536522e-03 -7.231873622811653135e-01
3.783451903300855679e-01 2.661467764589114937e-01 2.197397744833512467e-01 -2.709661441255203094e-04 -4.577840609879933569e-03 -5.788967063559120607e-01
-1.721590805743424546e-01 3.088910072063862922e-01 2.013611603828718288e-01 -3.314349881445175167e-04 4.714259988085917931e-03 -7.325374934353916512e-01
-1.059818159169263196e-01 4.070514355027355924e-01 2.039518497015723186e-01 -1.804445273960021776e-04 3.801647572205393757e-03 -7.505613897819712887e-01
1.031011090939632641e-03 4.325303897017288013e-01 2.065460304541358871e-01 -6.482951821719909382e-04 3.060604783485193579e-03 -5.624587028970438052e-01
7.305652950942774504e-02 4.373489845591537195e-01 2.091125061993689971e-01 -1.519168729116875268e-04 1.428437063356347144e-03 -8.643559889495544546e-01
1.826418990160748046e-01 4.538842053468888915e-01 2.118738354373174704e-01 4.952891435751981654e-04 -4.334913676054512745e-04 -7.397594974063319562e-01
2.188988696306267967e-01 3.322429063330912813e-01 2.144558659394329436e-01 4.565981994277624524e-04 -1.836360456629880164e-03 -4.765452189860818755e-01
3.220406114702600853e-01 3.348477238393080535e-01 2.170279045356006686e-01 3.851556215565991935e-04 -3.506377855490405270e-03 -6.683952286808406695e-01
4.502980657836965217e-01 3.542499951239739264e-01 2.198407999725878748e-01 -2.950285266204160793e-04 -5.547375718020409845e-03 -7.129781385667246507e-01
-2.092407032385271703e-01 2.989209976684783499e-01 2.020791744860444550e-01 4.100087931535340707e-05 3.444794030325427220e-03 -5.641328433253391950e-01
-1.707638815673327148e-01 2.632141189964301575e-01 2.047302106239939912e-01 2.072126473318844535e-05 2.094345143926370882e-03 -5.576630913448962223e-01
-1.738650129637792432e-02 3.268221775370636628e-01 2.071735250474251444e-01 7.048907757624143307e-05 1.136344935422949455e-03 -4.638020333667535744e-01
5.753818798762391079e-02 4.719453698658649943e-01 2.099011628647793892e-01 -6.454552125119233886e-04 -1.978456585556293142e-04 -3.643449104267378336e-01
1.727474355477624512e-01 5.462480627780639253e-01 2.125960349906480529e-01 -2.562714779451430707e-04 -1.623810959378014151e-03 -4.381574236007125256e-01
2.779842920996510314e-01 5.826639088025888924e-01 2.153422215938423645e-01 1.621191186185370957e-05 -2.817809266326524315e-03 -5.964958584092059368e-01
3.196014309217908300e-01 6.571959444912274240e-01 2.177533279187963133e-01 -6.818777239350924321e-04 -2.751145265551570296e-03 -4.133364194965242766e-01
-2.308797608971595028e-01 5.529103470737464221e-01 2.002155837638459057e-01 2.782776048912689155e-04 4.869664713494922977e-03 -4.714400758216031884e-01
-2.095156687957154262e-01 6.166918265175540537e-01 2.028989514997819876e-01 -5.297918713628795798e-04 3.963010349614023813e-03 -5.305470180249365342e-01
-9.276175888714881246e-02 5.393550007765185450e-01 2.055395145882955021e-01 8.001066128216808519e-04 2.961212880169907836e-03 -5.261346583906827412e-01
4.849059889771190068e-03 4.163451294170184003e-01 2.082237286028269518e-01 8.609967192296291087e-05 1.695545034045047939e-03 -2.155890132457746189e-01
2.518264094863142261e-02 5.372640271463120509e-01 2.108269903146965940e-01 2.664770403720485219e-04 2.952384127534959544e-04 -1.698506913173866428e-01
1.233195822723575086e-01 5.141526443793180690e-01 2.135413911637886741e-01 -5.168711962103718621e-04 -8.829620366123228136e-04 -2.932348089622014223e-02
2.344894169473518697e-01 6.328541811929812022e-01 2.161635724061701791e-01 -5.894741105043458957e-04 -2.087693198811452818e-03 -3.595052236960960546e-01
3.496982404601550742e-01 5.450232739356819511e-01 2.187239871191979934e-01 2.843591462875823955e-04 -3.639137083090297851e-03 -4.225676197058607642e-01
-5.745033113503276306e-02 5.332506488029615799e-01 2.008743840648341550e-01 2.411548174870977790e-04 3.828641717970353124e-03 -4.645377291777056938e-01
7.080939845864495097e-02 4.456554408433513470e-01 2.035182344581232816e-01 7.257625153098429954e-04 2.499157136676672698e-03 -3.380011552499898042e-01
9.008932277345274575e-02 3.588906207568788309e-01 2.061552712822968259e-01 2.936554994400474039e-04 7.497938585867117188e-04 -5.190600421814384191e-01
1.299105007138252610e-01 4.010323637183673684e-01 2.088113336935778497e-01 2.142691018840333869e-04 -8.023167992109061890e-04 -3.219463614455661538e-01
1.692519119973739383e-01 4.822639013673884478e-01 2.115434203203662711e-01 -7.860507240959194522e-04 -2.018627798941967973e-03 -4.813669238069610001e-01
2.217934532572378159e-01 3.802508841691006336e-01 2.140168382375575162e-01 6.959561008059917168e-05 -1.747195385437820981e-03 -5.911072977609385104e-01
2.739538789534228802e-01 4.594566803655499854e-01 2.166338900552940983e-01 -3.656541946928142041e-04 -2.796522278915494503e-03 -7.186545196007949610e-01
3.318613505399259367e-01 5.048755957925921134e-01 2.192675185590606812e-01 -5.135046551729093283e-04 -2.984245112555180841e-03 -8.279538141873823420e-01
-2.751680785812296026e-01 5.788136964392571748e-01 2.011956945568424970e-01 1.770575058622606045e-04 4.420676802902748313e-04 -7.024949610856231486e-01
-2.189724673437102864e-01 4.438831850549898039e-01 2.038509156569700553e-01 7.001563074349601489e-04 1.231046194927465354e-04 -4.736241065878657452e-01
-1.601272657545559364e-01 5.131603712003344198e-01 2.063522482920258083e-01 -3.451242093652619956e-05 -1.182748323432306206e-04 -5.801021915388947514e-01
-1.364812627125746025e-01 6.023129558707379649e-01 2.089429546776687685e-01 1.535852028800742592e-04 -1.435369622280845809e-04 -5.611641415728292337e-01
-1.080053210932142016e-01 5.983031784520375096e-01 2.114796971548067450e-01 1.087126738479586861e-04 -1.188328358075588681e-04 -4.357504299475221665e-01
6.314996752031495908e-02 6.750205349305598013e-01 2.137934139776411224e-01 2.941454334378000254e-05 1.118809204275378203e-03 -3.080680828580122932e-01
1.436304240215965367e-01 8.623155710298099352e-01 2.164106093999229596e-01 -4.526849741368725848e-04 7.096296849237499101e-04 -4.811866937089658292e-01
2.033967294483335908e-01 8.768262201270344836e-01 2.190846840031717147e-01 2.492065594364725419e-04 2.790739798617316463e-04 -5.216537504367108058e-01
-3.103445123553161267e-01 7.611693508984305190e-01 2.012575021694715249e-01 3.988888533753627455e-04 1.019166541339479705e-03 -3.942173364408234626e-01
-1.746523067526909168e-01 6.281166569085174789e-01 2.037461382327049320e-01 2.223711672099440407e-04 6.173632882386731685e-04 -3.782257280414346168e-01
-1.333710280781755797e-01 6.211304438686457985e-01 2.060949368296903783e-01 -3.582013070509930381e-05 8.426452593385633672e-04 -4.115224694098016389e-01
1.464467819433139945e-02 5.796354067186704206e-01 2.083572965744776018e-01 4.073114587890608909e-05 1.135311134363227751e-03 -3.763069328960874649e-01
6.641488735497963480e-02 5.465363536781655540e-01 2.107108512143183732e-01 3.349270734153144639e-04 1.021301469944825959e-03 -4.277090513120346826e-01
1.650102999213846067e-01 5.114530527646620195e-01 2.128321667259702177e-01 7.533112827545331101e-04 9.325385762280009785e-04 -4.781945985510374086e-01
3.182815941622582079e-01 4.932173353757655088e-01 2.151154163719547485e-01 5.170662811681977188e-04 6.508086258939107084e-04 -1.805008301486316080e-01
3.381597433962663102e-01 4.804439840882526735e-01 2.173722264583862196e-01 1.450495111958838240e-05 3.010334955005512098e-04 -2.315391065067172738e-01
4.211110906531742581e-01 4.812544328584398290e-01 2.193266500085344073e-01 -1.859296857565211362e-04 3.920199354817314281e-04 -3.415067851553989509e-01
-1.365596942780120948e-01 4.165317591545066311e-01 2.012016171910780971e-01 1.000410021199534287e-03 -1.127191474224961644e-03 -2.917009453732916646e-01
-1.308102893093678054e-01 3.405309834937380042e-01 2.032857776126612004e-01 1.471293566420668380e-04 -8.171328177369044854e-04 -2.477487131404693121e-01
-4.808748952037510127e-02 3.184214977683904046e-01 2.050288360613727323e-01 2.983867076683168352e-04 -3.715488818647691709e-04 -2.828258258622219912e-01
2.974511969832623753e-02 2.970762392733496959e-01 2.067128239662503475e-01 -3.726900338354255615e-05 -1.202807467445393799e-05 -1.574062434059369797e-01
4.931979720117195265e-02 2.597457858106475004e-01 2.083977869554084483e-01 2.870628467819908098e-04 -7.095450978134841026e-04 -2.189648170751695710e-01
-1.858768319040514719e-02 3.124298869131968415e-01 2.099221163831322401e-01 -1.685550406338885080e-04 -1.846249693541732238e-04 -2.367671729660379698e-01
4.473665431898485312e-02 3.221679710830731569e-01 2.112452630551611144e-01 -3.918632037870662136e-04 1.372336244745531555e-04 -1.899130379564522297e-01
1.304477683555555212e-01 2.822230153245178230e-01 2.126092328734791592e-01 5.594315029565215822e-04 -4.116543565858984087e-04 -1.334597183417072716e-02
9.955359432324924207e-02 2.415133419585626662e-01 2.139680356739237510e-01 -1.176817998745735452e-04 -1.473745630476680079e-04 -3.437118966294848681e-03
6.500345000799542805e-02 2.244122304890951991e-01 2.151199069080392268e-01 -3.339655041611580034e-04 3.210848648713497124e-05 -6.470438172426923318e-02
1.775063397472159965e-01 2.342833690276521497e-01 2.160482337930502150e-01 -8.455732627812580809e-06 8.831291368128214012e-05 -1.418132507670588627e-01
1.310569810925415468e-01 2.284649129230791886e-01 2.169598969942785893e-01 5.716773109518466641e-04 -1.801241546869583501e-04 -1.359778440972489177e-01
1.411860654672991156e-01 1.491075453097880088e-01 2.177662178298689355e-01 2.892509125454757724e-04 -6.567312891006704841e-05 -8.000410707357198670e-02
2.031747634084949405e-01 6.345335776004452921e-02 2.185478781346555932e-01 2.298712451879690306e-04 -4.662262644027115896e-05 -4.318160968003408040e-02
2.187921424032444051e-01 5.003609522282969485e-02 2.188888759008708607e-01 4.072138561304988161e-04 4.001103675196753131e-05 -1.854417310712724865e-01
2.066091546680353663e-01 8.945554161049415476e-02 2.194013489573639619e-01 -6.187988519962063809e-04 3.802935098780912721e-04 -1.321227915386367913e-01
1.752716774349274975e-01 3.566223303090636232e-02 2.197665365534784976e-01 -1.797089583215691485e-05 -9.357201031001554129e-05 -2.668952928682112868e-01
1.730227665730930398e-01 6.526046256480549923e-02 2.199548647046010164e-01 2.311812412765930325e-04 -6.519771361886337571e-05 -1.186101313344087860e-01
-2.972990733184797674e-01 -9.142889216431056634e-03 1.999708772401174728e-01 1.065369537910211874e-05 3.880104083836389108e-04 -2.470179184632173008e-01
-3.555033665027137468e-01 -7.753469490655078011e-02 2.001641408289650537e-01 1.043812580716027051e-04 1.163176690538117930e-03 -4.471705132726574439e-01
-2.953175666021281009e-01 -8.998628992010557215e-02 2.003218989218943369e-01 4.844155981249292404e-05 9.077434110829704248e-04 -3.942035892592112289e-01
-3.495189372137751382e-01 -8.954263179857786803e-02 2.005744974802235459e-01 1.062272527309100772e-04 6.903027156520561217e-04 -4.046601143257995137e-01
-4.230317428784395872e-01 -1.938364178862930082e-02 2.007746204632602227e-01 -8.396134778664924290e-05 3.845987352307583752e-04 -5.079121594941644613e-01
-3.474655455404214166e-01 7.342409842833674816e-02 2.010279075739223598e-01 -1.042947464449233834e-04 9.934180959118492447e-04 -5.266930287314876002e-01
-3.577091842407829070e-01 6.959268145399484518e-02 2.014900116820884657e-01 2.320965281156009961e-04 6.540558261167911435e-04 -6.086170181720865768e-01
-3.214413625022617405e-01 7.013366498753437206e-02 2.020875486710826952e-01 2.310725097682579329e-04 5.443735440938589571e-04 -5.039988062262557023e-01
-3.453943917422085952e-01 1.654540969614256007e-01 2.027232624145037798e-01 4.820792569219017427e-06 2.184598547831363930e-04 -4.989289040964396960e-01
-2.844435703750070044e-01 2.346257885679501609e-01 2.035393699791585020e-01 -3.723354131404861369e-06 2.233488301683620629e-04 -2.594646072636704326e-01
-3.460847082911390760e-01 3.505033771441118384e-01 2.044149945773915955e-01 -8.639082265696794232e-05 1.276280016098046410e-05 -4.319102250544166188e-01
-3.043595320478364452e-01 3.560886993499375874e-01 2.054781273451689039e-01 2.087491936872062643e-04 1.073532329498327095e-04 -3.310336157559418124e-01
-2.487104714263300986e-01 3.273332127757059284e-01 2.066110723847211506e-01 1.723140721440891685e-04 1.997298629020451447e-04 -2.564169126968283696e-01
-6.088671738121947952e-02 2.826687107361552376e-01 2.078512472631051100e-01 4.175618731066131541e-04 3.167462740165241175e-04 -2.319163062119711238e-01
-8.556900627720891161e-02 2.802244872934402942e-01 2.092328464603990801e-01 2.472828496813346587e-04 -2.777237781968726343e-05 -3.000113787187171366e-01
3.193074097776235631e-03 2.307676833500037217e-01 2.106189369604829498e-01 3.060515764322911149e-04 -8.507139988303336943e-05 -1.885755814297854493e-01
3.076143442267966627e-02 2.244726893109463828e-01 2.122280683602840168e-01 -1.355796088534919434e-05 -3.391426200990319234e-04 8.090175931331778855e-03
6.803492381348247298e-02 2.512182401373886376e-01 2.138106816130561083e-01 3.086565937627539511e-04 -4.725008493786674361e-04 -2.569104306963287954e-01
7.444946635052342165e-02 2.010963135129218426e-01 2.154561241060012344e-01 1.076392710002020464e-04 5.549454307246887922e-05 -2.372938061405694687e-01
1.762388072353738844e-01 2.844612971826416259e-01 2.171279601463071973e-01 6.656365338039636997e-05 1.352784519102719952e-05 -2.864126299227940931e-01
2.423937879458881450e-01 2.725348341925277751e-01 2.189912800755194344e-01 1.225206961979552283e-04 5.026195543968291511e-05 -2.535161082244856146e-01
-2.352786331583680557e-01 2.701706164566356483e-01 2.003653967690345317e-01 3.552293901476315783e-04 -6.853291831224054068e-04 -3.140316689309806120e-01
-1.686176040644750129e-01 2.378831037583427621e-01 2.021288065985863414e-01 7.002404453717302765e-05 -2.599831100431810910e-04 -3.620698998070596142e-01
-9.308444132425955364e-02 2.727652908382457442e-01 2.041675018159684885e-01 7.681079543450498415e-05 -5.365515705264660429e-04 -4.100817070761036964e-01
-1.060392029703158545e-01 2.876473125235722850e-01 2.059557845702570944e-01 -7.172635241718122311e-05 -4.049055295726859964e-04 -4.823608259941952747e-01
-1.122493666565434547e-02 3.452208028334473600e-01 2.078538205317332355e-01 -1.413464409078325201e-06 -1.419674335817964204e-04 -3.012184680583623320e-01
7.940522054752334469e-02 3.796878982436246441e-01 2.099835522060004567e-01 7.393588895336994475e-06 -2.617809648053704471e-04 -2.598939712034685212e-01
4.360242018703303080e-02 3.719634597340140125e-01 2.120454820187562262e-01 -1.731379460864009728e-04 -4.347717633015361015e-04 -2.058106968409843529e-01
7.826061404709772074e-02 4.322916493322269127e-01 2.140356853867249054e-01 -3.573405275255781693e-04 -4.073245275112530816e-04 -2.922532477222196667e-01
1.270025924551088647e-01 4.696728457946811042e-01 2.162503548881606896e-01 -3.122726659914254140e-04 -2.642424608832426845e-04 -1.778720755078362081e-01
1.489652111279669566e-01 4.643272268862564389e-01 2.182734771461851131e-01 -1.148643434277406218e-04 4.140866687806368058e-04 -1.527515371853164494e-01
-1.793523219609497177e-01 3.999025332112096098e-01 2.005000450982798443e-01 4.561033729225747043e-05 7.652404946914212209e-05 -3.044514251875010680e-01
-1.539455939799962980e-01 2.782779349737450336e-01 2.027029583290843595e-01 5.923245473566507565e-04 3.848543674622456482e-04 -3.295635990585141228e-01
-9.291319053570545883e-02 3.643255816151272364e-01 2.050348028112202736e-01 -5.707725387336116387e-04 5.654769662420230025e-04 -2.870725528910169633e-01
-7.538688023371029057e-02 3.055536783878984863e-01 2.071953255757459922e-01 2.841731669666911018e-04 8.042996615799470400e-04 -2.765462229301603458e-01
5.919492768701670182e-02 3.572201795959584758e-01 2.094239173189719749e-01 -3.698367250762859735e-04 1.407501195207995839e-03 -3.179148362331909450e-01
1.004327759575327772e-01 3.559940669173856653e-01 2.116875469591643633e-01 -5.704895114430943157e-05 1.677932721823591168e-03 -1.800683231428535924e-01
1.514329038418647799e-01 3.531471659941718411e-01 2.140230699276257642e-01 2.880637892664666055e-04 1.774135476940495379e-03 -1.721321240025500687e-01
2.419581333024969916e-01 4.054235788003796026e-01 2.165769581166027691e-01 -1.176899789756051702e-03 1.472794357670544367e-03 -6.722083680229351543e-02
2.509454575441353308e-01 3.696597073857308957e-01 2.187694263943872897e-01 1.214808936331412633e-04 1.659299556769231994e-03 -2.135265728959524489e-01
-1.832012047092959617e-01 3.232899922066027054e-01 2.005109931789809119e-01 -2.613921547688149451e-04 -3.220928087115385290e-03 -1.835572165825381519e-01
-1.221258902104505328e-01 3.544601181589376870e-01 2.028277814584384386e-01 -1.431637850980434321e-04 -2.759681166522737379e-03 -1.420810771513631166e-01
-7.352351223929137758e-02 3.015444496784261963e-01 2.052506362786530314e-01 2.607370630679326385e-04 -2.417925220567449310e-03 -3.880138341744258645e-01
-8.180829619847531514e-03 2.799865913696655828e-01 2.076148786097099519e-01 -7.116653462158059129e-04 -2.304229735706857501e-03 -3.788626074220290962e-01
3.911889623665897042e-02 2.829783215761368931e-01 2.099545869521187713e-01 -1.317217271156878905e-06 -1.569156712940662172e-03 -4.642790383683645383e-01
7.169978795694709195e-02 3.103433226912951648e-01 2.122253619187780549e-01 9.753342071936326764e-05 -5.061020664547817008e-04 -3.332475140269827718e-01
1.442724500344474969e-01 3.049983381595182119e-01 2.146360132720381841e-01 2.576135544741524255e-04 -5.122062023354732950e-05 -5.686813089991276104e-01
2.151638024604480004e-01 4.122621018779671354e-01 2.169811503946115216e-01 -2.723341927470401694e-04 7.646701573266726946e-05 -5.332877496942235451e-01
2.397898840369590001e-01 4.748532391048389534e-01 2.193742837507691168e-01 -1.076226079133362412e-04 8.295794599806347383e-04 -3.820475610889649265e-01
-2.165253142549121712e-01 3.477222037125962117e-01 2.013216183488348854e-01 5.578513624810844777e-04 -2.611049094768150627e-03 -4.446285154911497339e-01
-1.630887234053818025e-01 3.720991151375928618e-01 2.037103602606278319e-01 -3.014183630010942101e-04 -1.532865667605103370e-03 -2.350493360033311663e-01
-9.379990804586103847e-02 4.110145375727334849e-01 2.060185581279581624e-01 -1.102185273771122572e-04 -1.037749504397456665e-03 -4.625051204967523533e-01
-1.769473477137056480e-02 4.391995641013552443e-01 2.084299439626977057e-01 -5.046090709786549668e-04 -2.948947826096813508e-04 -3.241359622232763971e-01
2.888322897358720429e-02 4.512070061273877886e-01 2.108229073671927245e-01 -9.524625218552505571e-05 -1.826765322575030906e-05 -3.787570396277721851e-01
-8.457380475266809694e-02 3.974086452595118613e-01 2.133966361982053139e-01 9.597795856856472659e-05 5.263687040719522555e-04 -2.189778992858546214e-01
-1.421929093294631644e-02 3.756093870352658626e-01 2.158471202305036751e-01 4.553123613624337714e-04 1.451121757567898048e-03 -2.153406755324314137e-01
-5.685763907880364565e-03 3.499741305774831668e-01 2.181579351221138996e-01 -7.521561488782060954e-05 2.262580570667397165e-03 -1.866591677297778362e-01
-2.373134320996025670e-01 4.068465281889714347e-01 1.998507229190622514e-01 -3.359243219754477457e-04 -2.013603255171701409e-04 -1.951841560907685291e-01
-1.651680890131655421e-01 3.781971577628689962e-01 2.024961941333989213e-01 -7.302183152481521313e-07 -1.111274376835915756e-03 -2.022551231015741746e-01
-9.918669409498792611e-02 3.650016435762391542e-01 2.049123395886515708e-01 1.338902754478441415e-03 -2.924737931947544696e-04 -2.978158727266631556e-01
3.643899942324312080e-02 3.735913194081088018e-01 2.073095549267878757e-01 -5.382244764040277881e-04 8.582896703927413553e-04 -1.873447412310193794e-01
4.201793586371815881e-02 3.057384793271477608e-01 2.099510433717705071e-01 1.228947713993796794e-03 1.297410359047767572e-03 2.431592461837334129e-02
7.770981084724076782e-02 2.679058238239141465e-01 2.122631920506924397e-01 -1.234436548206741555e-04 2.151359479067013747e-03 -1.305388138250657137e-01
1.775545991883144548e-01 2.976104869751077797e-01 2.147571164329996063e-01 -1.804566148512838273e-04 3.027342035754350142e-03 -2.542924687507346349e-01
2.049746644044893318e-01 3.686072443568144119e-01 2.173076532309096698e-01 -5.701933121602586682e-04 3.045548963624447082e-03 -2.565785587075680718e-01
-1.999822030204642109e-01 3.418669392957072728e-01 1.992930295088028436e-01 2.747532155957996530e-04 -1.236110184426862570e-03 -2.393666465365074658e-01
-1.668992303975959934e-01 3.732839913772089124e-01 2.017088546043040997e-01 -2.111523487507536859e-04 -1.143478656062021839e-03 -2.076462290151652457e-01
-1.646877140823453933e-01 3.312372407547867770e-01 2.044019604446972171e-01 5.255383878823404863e-04 -1.186706171147916956e-04 -2.723529055146427236e-02
-4.585789904543655093e-02 3.359885937706840187e-01 2.070328022012392077e-01 6.713122060047899131e-04 9.230094286777834004e-04 -7.559600284985154572e-02
1.411464778840277601e-01 2.957805944091817518e-01 2.097347524373535665e-01 1.874666697499118722e-04 1.216916528698426796e-03 -2.446101410957977548e-02
1.544322183998557418e-01 3.120730424620217769e-01 2.123750912632442756e-01 1.871445879966252151e-05 1.504077416839683795e-03 -1.168272414259633185e-01
2.099483296259704035e-01 2.638686457930592977e-01 2.151072482516473428e-01 -1.640644316134448881e-04 2.277385352917478487e-03 -1.042810748914779900e-01
2.708577806650269149e-01 3.314616714311517942e-01 2.175493853125328170e-01 -1.049001559235032504e-04 3.606561806306609469e-03 -1.862878479673999443e-01
-1.682166456214835015e-01 3.344554910003546544e-01 1.993411936848394905e-01 1.647941658227420475e-04 -4.524446334893372258e-03 -1.106045887106114484e-01
-1.424233525567158709e-01 3.238713145268140026e-01 2.020948457185052227e-01 -4.984187956965972722e-05 -2.585815400833113651e-03 4.586184386921667716e-02
-8.223081548460549339e-02 4.574553942795122619e-01 2.049307514693148313e-01 -2.320096539805729366e-04 -1.693577998976147610e-03 7.250670332052190289e-03
-4.350557031620672782e-02 3.288865135023112951e-01 2.077074530528717489e-01 6.002496814873948009e-04 -7.961591990851277830e-04 1.454299175813491413e-02
3.103747747247474417e-02 3.129465277697066616e-01 2.104389464775612839e-01 -1.461367356564837806e-04 -8.030056621807295746e-05 -2.133920066315802555e-01
3.905928007211558611e-02 2.952329885713307900e-01 2.131976400927650950e-01 4.377952421397504081e-04 9.207397421619734328e-04 -2.650920036851319161e-01
1.837973885298297694e-01 3.505795098830745693e-01 2.158666757998797814e-01 1.876004243042740140e-04 1.235106867210475010e-03 -1.221822334501494745e-01
1.828107825230632644e-01 3.562578050667091212e-01 2.187459285882968896e-01 -3.183366215552921080e-04 1.968384745316723375e-03 -8.274557212187519384e-02
-2.144298494220352458e-01 4.420646917309227764e-01 2.006407113405773712e-01 -3.742693172038754615e-04 -3.472652834301132203e-03 1.382259348427952901e-02
-1.531037581137876802e-01 5.047566510180654387e-01 2.035301168913923320e-01 -8.573436141255225921e-05 -2.449090773980680015e-03 -1.114311145855904489e-01
-1.803079914671562589e-01 4.749592326986782354e-01 2.060647957994687918e-01 -7.307736634575872541e-04 -8.887306368961826134e-04 -2.806112197530568619e-01
-1.809186291397704149e-01 4.332476875978822362e-01 2.091736650388803520e-01 3.328873747635106698e-04 -1.499879822792095493e-03 -2.263137374366372134e-01
-1.475867886531612438e-01 4.994371173558496690e-01 2.119817342967532103e-01 -7.014434169643650901e-06 -8.198317118923698467e-04 -3.398178019279175510e-01
2.407853350550815189e-02 4.609408575891337234e-01 2.149001883002514268e-01 5.084362802444867104e-04 6.672443546571159279e-05 -4.130720340897178211e-01
1.346418031438580409e-01 5.264013840377519404e-01 2.177925585872795833e-01 -5.950496709377354381e-04 -7.885222266296599680e-05 -5.389702676191275854e-01
-4.044587661347115448e-01 4.389118533119378274e-01 2.002907633923928232e-01 5.707332609088665862e-04 -2.264185446845889439e-03 -6.979812037059848207e-01
-3.488048836383244033e-01 3.716494986535727740e-01 2.030500188903638370e-01 -4.356948368169872654e-05 -1.968562053437122438e-03 -7.201210998190223922e-01
-3.604343459481792467e-01 4.990456815806486590e-01 2.057624454866890940e-01 -4.254653390195264613e-04 -8.768610631252984379e-04 -5.696302355260043360e-01
-2.579946709643370917e-01 4.688995244102111548e-01 2.086288942442983685e-01 -2.513727163721065781e-04 -7.493190184309939540e-04 -5.554671938488209282e-01
-1.768701707358087682e-01 4.930488942414761877e-01 2.116706823473635257e-01 -1.273663540781810953e-04 -3.967396944758968310e-04 -3.522260749270839097e-01
-1.053160677616039875e-01 4.817256997428388532e-01 2.146253839991359436e-01 3.874408427271888987e-05 -2.138101805773029624e-04 -3.279040757990333010e-01
2.662159163303107895e-03 4.928688012078535907e-01 2.175118949787780420e-01 2.299481343751589980e-05 1.816002074578796743e-04 -2.072837855118491723e-01
-4.014217860970841212e-01 4.629192269936932558e-01 2.000371628399037482e-01 1.744636306609537440e-04 1.908579065837108046e-04 -1.466132627471100347e-01
-3.404622812881957783e-01 4.558733993507320115e-01 2.030160848923249217e-01 -2.938561429668449057e-04 5.560541828655107377e-05 -2.500500262081225555e-01
-2.328439809564689378e-01 4.907133345735984475e-01 2.058840188682971029e-01 -7.361510347837118195e-05 7.773502141445551728e-04 -2.889348228493114346e-01
-9.340315779082378200e-02 4.762617333605617120e-01 2.088763282649258590e-01 -1.518063142895790792e-05 4.075055130900669164e-04 -3.495478735836834439e-01
-3.977983575240949532e-04 5.012914349000793246e-01 2.118935558058291924e-01 -1.394749417068642350e-04 1.094686077225324295e-04 -4.258753909250072023e-01
2.040667153194962793e-02 4.890378991941712328e-01 2.148201579535778949e-01 5.869364835879883717e-04 -1.966060335838571251e-04 -3.881184150071190220e-01
7.895370656205205617e-02 4.643380923189864840e-01 2.177491336239262831e-01 -7.353921127648797862e-05 8.326090908990607361e-04 -4.214695025162151221e-01
-2.551135928589711721e-01 4.404982995229102527e-01 2.000688252406890855e-01 3.949100565397477627e-04 2.471854740986269196e-04 -3.018913623703488591e-01
-1.550630330653559596e-01 4.384637918164378534e-01 2.029110244667010621e-01 1.296298195351060830e-03 3.876986563109517800e-04 -3.423778511509895095e-01
-1.117007751307307895e-01 3.447290838870526453e-01 2.060601037691363047e-01 1.246810800799406710e-03 -5.449215080933775615e-04 -5.988127836950387639e-01
-5.102130057214714076e-02 2.900498561444351253e-01 2.088681559099851426e-01 4.635598294527409186e-04 -9.798301704082679837e-05 -3.150083977473205343e-01
1.469706637006876759e-01 2.812574918116212963e-01 2.117152624983200115e-01 1.934934076667030876e-04 2.904810325906449580e-04 -2.151911110357742907e-01
2.286997703061307841e-01 3.663250721054059356e-01 2.146418308684693299e-01 -4.214672743306443776e-04 -4.655140536431503486e-04 -1.108572322843382613e-01
2.653796550444611491e-01 3.907661645289468022e-01 2.176263696069051790e-01 -6.258990134716891154e-04 -7.066041333790877219e-04 2.577858651104823762e-02
-1.340367590136232467e-01 4.071531318115447218e-01 1.997479693892253438e-01 3.323357255002594326e-04 -3.357001628775387958e-04 -2.259599502254691639e-01
-5.977937837715852076e-02 3.161335843479796681e-01 2.026459145766521530e-01 2.219582994630221880e-04 -4.988655949959375989e-05 -1.615849670106386804e-01
-1.549661095507120362e-03 3.936981601039539758e-01 2.056011853791314681e-01 -3.685363543718199301e-05 5.280313568048530110e-04 -2.973140135545173091e-01
1.018364666837149463e-02 3.911606718371452573e-01 2.084761243580177115e-01 -1.443274689011018682e-04 -5.006646749858411488e-04 -3.832753870537212171e-01
