4.567411397797598027e-02 3.141381704734985125e-01 2.125847126769825346e-01 1.537556100915572917e-04 -2.684499204510491788e-03 5.238615793432758322e-02
7.394660220900026171e-02 2.942688133484243074e-01 2.140155886886313530e-01 2.685141976469529061e-05 -3.645235707196415285e-03 -4.337643432512700015e-02
1.193153658202752432e-01 2.625264340172999145e-01 2.153101369263375475e-01 -6.833895072988752561e-05 -4.083473011614580615e-03 -2.649925435404967278e-01
1.648947897443761579e-01 3.327617780382216561e-01 2.165580340119407365e-01 -4.187617332925985965e-04 -4.952142164703279316e-03 -7.188517322382041719e-02
2.147531756965760374e-01 3.318050345621199604e-01 2.177411273231145139e-01 -4.374771994688909753e-04 -6.081856513674423377e-03 -4.012801575020415873e-02
3.308530914279511626e-01 2.924037408095154222e-01 2.188471840318931827e-01 -3.534092971146884877e-04 -6.514218207044446263e-03 -2.200397367396892123e-01
-1.364859687468991112e-01 2.010034991293515316e-01 1.995099369704300685e-01 1.270133751336643513e-04 8.591109471999064601e-04 -3.865087495784569893e-01
-1.357958850410799778e-01 1.549662494134447233e-01 2.004991562421073459e-01 5.695757618866217247e-04 5.142977541226490239e-04 -3.798877093165886620e-01
-1.323117690871111474e-01 1.061640033124405386e-01 2.016015248898946344e-01 8.554370027390143807e-05 -6.978123659482258438e-04 -4.426740408266406357e-01
-1.315215756462975172e-01 7.729220445150453145e-02 2.025665290590701328e-01 9.977900917223730503e-05 -1.027338216698580773e-03 -3.638871077100756524e-01
-4.598287928528035917e-02 1.361424533069565401e-01 2.034448727940069701e-01 -1.191898453748704210e-04 -5.217479243028938030e-04 -3.910540221822639828e-01
-7.965515558421219777e-02 8.793765998279982898e-02 2.044309005260707690e-01 5.986010755144200856e-05 -8.431653037789468711e-04 -4.246747216927894697e-01
-3.617620952501568454e-02 1.075325602926210239e-01 2.054647741782806847e-01 3.484018771823631233e-04 -1.064237228206559114e-03 -4.998207783348231903e-01
-5.605389625283798555e-02 1.393273543966401240e-01 2.064792550330312171e-01 -1.627523046867754601e-04 -7.714335427939593816e-04 -3.424744026538706909e-01
-4.067894331276437903e-02 1.353751752386199991e-01 2.076224713390180110e-01 -8.916574235536833012e-05 -6.768355406166685993e-04 -3.952104485381944254e-01
-6.356596896442281985e-02 1.272760001535978014e-01 2.087571158734063403e-01 4.469507838331831964e-04 -5.781120327725573294e-04 -4.531174280130363941e-01
-1.333063675808540509e-02 1.216786754150737393e-01 2.098585342339135962e-01 4.970931815713060514e-04 2.023465775934310613e-05 -4.382536220870749122e-01
-4.843548822552830313e-02 2.765165793412829517e-02 2.111299621706320129e-01 3.933692348786808706e-04 2.748385050870213206e-04 -5.023767646710055601e-01
1.203155170398469975e-01 1.296614903929714513e-01 2.124063208041172546e-01 -2.616665679617595714e-04 1.041451246612965604e-03 -3.594501372156591601e-01
1.783326440910318611e-01 9.082244130982154717e-02 2.138301334808039855e-01 3.927913951270527951e-04 6.524355685655123084e-04 -4.857443023759955292e-01
1.449815107358372601e-01 9.681194473165172232e-02 2.153802276352553835e-01 -2.898896246306167501e-04 -4.858477108075711401e-04 -5.103671033001885293e-01
1.390092452877048634e-01 1.481337435207349118e-01 2.167296564677547721e-01 -6.179630121124427683e-05 5.226684319095291961e-04 -5.868013093145830750e-01
1.731024168601773272e-01 1.337463274930591195e-01 2.182846120123866362e-01 6.454016256725564988e-04 4.221752875614268215e-04 -6.690250259933732124e-01
1.776677981008033813e-01 1.882388453047501575e-01 2.197409117701483172e-01 -3.906571359535581278e-04 -1.331209562393923559e-04 -6.847184748146982747e-01
-4.166176141455907866e-01 2.812162756760521742e-01 2.008100935025431966e-01 -5.092804764439875370e-04 4.070083666420182440e-03 -7.925951787256096948e-01
-2.777178805152958896e-01 2.764869855364616713e-01 2.022504172989518789e-01 9.043908441025716189e-04 3.407599974229922300e-03 -5.224589715460717931e-01
-2.720698447114260343e-01 2.284445638122618027e-01 2.041669795624228567e-01 3.418689774875017487e-04 2.365862304016824562e-03 -3.503751496608714100e-01
-3.123016482294581064e-01 2.539092700965722704e-01 2.055736996532884220e-01 4.902898924914327354e-04 2.948239277650121278e-03 -2.247453590973874094e-01
-2.251100476141804640e-01 2.346864368155741620e-01 2.073022773553234166e-01 -3.588780518061567378e-05 3.077040479235932692e-03 -2.948516607200302730e-01
-9.806099074439096619e-02 4.290470951498573937e-01 2.088268646043301979e-01 -1.566019150838316267e-04 2.729785205742865650e-03 -3.392628446216523486e-01
-9.009451347771769980e-02 4.459488225387931992e-01 2.107764307432669626e-01 1.085581381635009984e-04 1.959315183165992458e-03 -3.178085338095709145e-01
-3.136462009687690511e-02 5.365048084882705348e-01 2.123678275655299097e-01 2.036802665109075283e-04 2.171623446866939415e-03 -2.382653479268353747e-01
-1.684491516623282809e-02 5.130232003979792177e-01 2.142988348286467004e-01 -4.314193151194367268e-04 1.611127769733757377e-03 -3.551270414625242733e-01
1.280634314818174802e-01 5.852831433395501159e-01 2.159944906978973345e-01 9.010926578416255587e-05 1.571425759742896841e-03 -3.487865450890693109e-01
8.053920592507005094e-02 6.407271508886814848e-01 2.178850284425901118e-01 1.886575240850155719e-04 1.214134564600675200e-03 -1.986712021148947238e-01
-3.913544844897788866e-01 5.132796756893388546e-01 1.996343990757489251e-01 3.398601011658167062e-04 1.355157948214838742e-03 -3.438348604317623819e-02
-3.756351490497327195e-01 4.680003801141502384e-01 2.014947949421336815e-01 2.495824011733208917e-04 3.454384620314727549e-04 -3.435067769750430045e-02
-2.961491482627641170e-01 2.493015579806934501e-01 2.031958825221232279e-01 5.327381585333006847e-04 4.962026005550180998e-04 6.278305491642824365e-02
-1.762864104667158649e-01 3.666804083785839552e-01 2.054206641777928666e-01 -1.722075533839128171e-05 1.524713997481148429e-05 -1.847575951760216106e-01
-1.260317516963740947e-01 3.151059778815113455e-01 2.072129431496096963e-01 -2.576118922995700449e-04 -2.058096997362257976e-04 -1.745093905684429658e-03
-1.068038160553731186e-01 3.839383560375655424e-01 2.091703218608714221e-01 -2.005228800970396954e-04 -1.356685361567340302e-04 -8.375156362541448518e-02
-1.044502630111542041e-02 4.522282135327528874e-01 2.111992256063083828e-01 1.037505675241351638e-04 -2.387229551544964800e-04 -6.068682164211513380e-02
7.284175813478242778e-02 3.887794591499724728e-01 2.132473047063684901e-01 1.515702436066222205e-04 -4.218973077743598879e-04 -1.066135583898494832e-01
1.067676076620734382e-01 3.484383480461470950e-01 2.151951516653183849e-01 1.278728551816691163e-04 -7.793751398183844208e-04 5.042715480108937720e-02
2.630390459788959912e-01 3.425856985938578458e-01 2.170516016568121986e-01 2.598102249547798144e-04 -9.421463965335189535e-04 -1.496496559186094033e-01
2.320319681028433778e-01 3.033861161276720231e-01 2.189746967000844591e-01 -3.223173118605356839e-05 -1.355922530330474921e-03 -2.050152212086129855e-01
-3.099044035840642364e-01 3.335769316929324546e-01 2.003425383538485205e-01 -3.184976880161466829e-05 -1.636936869105943756e-03 -5.139535364553776686e-01
-2.685453506364043896e-01 1.138668601852474010e-01 2.022607786621600234e-01 4.343071685310715725e-04 -2.390818826952971661e-03 -1.206209188753911421e-01
-2.080367438471656394e-01 1.636607778779960165e-01 2.039263114159333701e-01 -1.901209912411269291e-05 -2.106698644298102448e-03 -1.997141083766397762e-01
-1.286612259993749063e-01 1.376268390060450542e-01 2.056721877427729051e-01 -6.552368259873707444e-04 -1.821196957502693205e-03 8.037524281795853376e-02
-5.678486159566505098e-02 1.475385351203389594e-01 2.073967901737245878e-01 -7.705128609995884640e-04 -1.516154765326326211e-03 2.057003939962654682e-01
-6.947013044933469939e-02 2.295054455744956756e-01 2.090255093120077512e-01 3.495019451253441846e-05 -2.027751091706758452e-03 -1.183338907551888426e-02
-1.491975082636760874e-01 2.237068107983262166e-01 2.103635576276731145e-01 -1.943327805690774144e-04 -1.195116014805541315e-03 -1.190890218935691247e-01
5.485185168859881000e-02 1.522905912217861757e-01 2.118623497203702133e-01 3.187905318370467351e-04 -8.075270536139155485e-04 6.889084448904231328e-02
-2.429430458544250965e-03 1.484200862912897489e-01 2.132472110163555201e-01 -2.188506585962530073e-05 -8.521656503326743197e-04 7.226278699589000487e-02
-4.458955777895510370e-02 2.361225339632437581e-01 2.144675981493576189e-01 -2.156750934225702281e-05 -5.276626100807286970e-04 2.119958354995294947e-01
-1.639543108788422618e-02 1.655852155707362439e-01 2.156015960177071755e-01 -1.902196299704449938e-05 -2.301827988100952726e-04 2.170429054897097532e-01
7.012567868869130916e-02 2.332599783983612118e-01 2.164953083676731671e-01 -4.208594725354110723e-04 4.709508917625506667e-04 -1.316923494953628482e-01
7.968301539394134075e-03 1.672349493504997064e-01 2.174470584045484767e-01 6.123291761567448968e-04 -3.524593480307728287e-04 1.638318767481588834e-01
1.797316932742936690e-01 -1.329297208579518358e-03 2.183474809770796776e-01 4.664276509118704629e-04 3.931330364127680289e-04 -4.680516555589264022e-02
1.735694070072175688e-01 3.468254646883818515e-02 2.189820646282369387e-01 -1.184763839287712300e-04 3.515343385164307333e-04 -1.012775234183370225e-02
1.697813535824305720e-01 2.489017568922871973e-02 2.195293993590309301e-01 4.164960858863075109e-05 5.801152671037416563e-04 -1.385798195575458636e-01
2.368471888080848353e-01 -1.615880581005026476e-02 2.200427031578168213e-01 4.107977360291598383e-05 7.553697114019203209e-04 1.274233760780893177e-01
-2.907613111162932751e-01 -1.121461689053184461e-02 2.002862330369208910e-01 -7.859392270564904016e-05 -4.198439291937571601e-05 -2.868328239154085413e-01
-4.605765660263438921e-01 9.530026713231445901e-02 2.007733167947415853e-01 -2.628083605580747791e-04 1.224224771079663763e-03 -6.124968286799088446e-01
-4.066256913341559920e-01 1.023768392500549046e-01 2.010908602638888376e-01 6.191093363298762565e-06 1.604100573235079643e-03 -6.536097113968932781e-01
-2.508560571299044417e-01 4.637376485937594328e-02 2.015284564496057640e-01 1.325300505307213782e-04 1.783132371953402746e-03 -6.186127385227421227e-01
-2.649735907075531083e-01 6.403127209417297516e-02 2.019161325531012019e-01 -5.061223351498352969e-05 1.310795903374301595e-03 -7.472553106898783826e-01
-2.745526005606371278e-01 1.245519920739262404e-01 2.023611009639186831e-01 -5.571538904813232379e-05 1.172532909693511059e-03 -6.504847219754374965e-01
-3.220867465150413778e-01 7.785388937255550978e-02 2.029134536749072071e-01 -2.406730529233277527e-04 8.822684174307890079e-04 -5.628759952810378220e-01
-3.061994909274879939e-01 1.846289354332695254e-01 2.034864188317452305e-01 -1.394799907655293759e-04 6.646570196821568674e-04 -6.790544622389850238e-01
-3.476894582833590097e-01 2.434579523121876421e-01 2.042140489437706541e-01 4.679553541365122848e-05 5.550878542356865340e-04 -5.061903722859445454e-01
-3.132544513935719976e-01 2.318747313252255138e-01 2.049598520482516228e-01 2.289323478093293479e-04 1.021575671886236361e-03 -5.590137085962383345e-01
-3.230121784334055168e-01 2.663435030361248068e-01 2.057985500591470451e-01 -8.298033385760976563e-05 9.782364795106275514e-04 -3.760251731417338927e-01
-2.802002957224989377e-01 2.142423602063107113e-01 2.066252971163248242e-01 5.280101669702432768e-04 8.889649289672121911e-04 -4.839890954858386829e-01
-1.417723597412138825e-01 2.505185651370003819e-01 2.076110553074722032e-01 3.621685834409087645e-04 1.036098665530734960e-03 -3.867007031177730481e-01
-1.688365711921497869e-01 1.232693776505299627e-01 2.086922833800787802e-01 1.700478287398092471e-04 1.070788846777461769e-03 -2.012619649076410056e-01
-1.960415901173991060e-01 1.357342749563607842e-01 2.097645242192317516e-01 -1.304035455386589432e-04 7.511220448501862912e-04 -1.390432777498139538e-01
-1.333461477528319339e-01 2.275232297136671467e-01 2.108059835731079801e-01 2.891882490247729264e-04 8.466836839812226642e-04 -4.494690490931353977e-01
-1.032920165930055756e-01 1.434685914297889886e-01 2.120406925946379806e-01 -2.431641225563128679e-05 3.188850907817550860e-04 -1.948693406845287690e-01
-3.236026644185604345e-02 1.184118215465078117e-01 2.131266858746747039e-01 2.151726433356909187e-04 3.509960849667639968e-04 -5.769494060778177641e-02
-9.309720015135572457e-02 2.276939448022869406e-01 2.144380040716230562e-01 -9.105685741286977900e-05 -3.408453557838408044e-04 -1.143013552852091969e-01
-1.207623249722251588e-02 2.675099179549167983e-01 2.157421070074050928e-01 2.435550598662851148e-05 -7.128663994819881130e-05 -4.669554646381868929e-02
6.528520149728191113e-02 2.457681874384002596e-01 2.170268198358943357e-01 1.259914048907748727e-04 -3.921205160106870126e-04 -1.907495980506482280e-01
8.041318052209540934e-02 2.726086075654359231e-01 2.184550993459480339e-01 3.678871362320502276e-04 -6.272300260527937082e-04 -3.440207960058765946e-01
1.370219981713809154e-01 2.167280825944674083e-01 2.200185367059391273e-01 2.231618318211430125e-05 -5.950999995003509492e-04 -2.154346965724779628e-01
-3.099619345747130494e-01 2.660008690809821386e-01 2.011546248835458517e-01 7.332856873184091882e-05 -1.325792924397750953e-03 -4.100226456422196297e-01
-2.666812561396716963e-01 2.092764591906379756e-01 2.026172024182993359e-01 -5.666286289297835747e-05 -1.502372535867056323e-03 -3.326258239084146084e-01
-2.604652479359371720e-01 2.498401836210212557e-01 2.044321341013390914e-01 2.934982788580425950e-05 -1.831210221686587923e-03 -4.613295035234947217e-01
-1.776935621969722434e-01 2.075368448638644225e-01 2.059623621878376443e-01 -2.655220377717555820e-04 -1.798101895873105167e-03 -1.467558160482753948e-01
-5.106320746340763106e-02 3.019592722861976219e-01 2.077188948169556015e-01 -3.266546532671249720e-04 -1.769179337539230571e-03 -3.012419849678446004e-01
-3.244569299916945371e-02 4.321041887942740356e-01 2.095200754787605590e-01 -1.595844141582143921e-04 -1.870055649066451869e-03 -4.279911081570140219e-01
-1.899065892311140730e-02 4.837069084800089680e-01 2.114113154640421821e-01 5.937712987808641896e-05 -1.558294950958745775e-03 -4.953265256622928492e-01
1.983233964534776572e-02 4.538837758590335003e-01 2.132296380209779407e-01 -6.238204942957077453e-05 -1.409006502315183779e-03 -3.235538877646479961e-01
6.022076734293963646e-03 4.338688119612144067e-01 2.150640707976734789e-01 -2.235473071718363806e-04 -1.357554419558681382e-03 -1.236248225252979394e-01
4.467092635881811380e-02 5.259536966845789197e-01 2.170587368813453044e-01 -9.914128354592419905e-05 -1.058358435370530337e-03 -1.292325402851502991e-01
1.794186581479987053e-01 5.877548019437268678e-01 2.191232889016127561e-01 1.102633080080014260e-04 -1.107542672309760152e-03 -2.580385588288131027e-01
-1.961196735683108927e-01 4.352967995584635097e-01 2.010875586743484655e-01 -6.995940763479310668e-05 -1.707364250562226626e-03 -2.901645620643701906e-01
-1.606787412652579683e-01 3.874845816717853997e-01 2.032156054550096624e-01 -6.231709285364071718e-05 -1.123129575594110406e-03 -2.838510520207504495e-01
-2.145409395506676642e-01 4.400341407791614201e-01 2.052633155355270134e-01 1.158725535830323921e-04 -2.757687186942230778e-04 -4.806784740877857454e-01
-1.354456304961142998e-01 3.799196543710878782e-01 2.074863719327346701e-01 4.925640397989052965e-04 2.136296273856669206e-04 -3.753232742348037165e-01
-7.914427874262870699e-02 3.731690902932883747e-01 2.097330890739486642e-01 -3.451538435607764141e-04 2.233096489140277768e-04 -3.249550780944829853e-01
1.670473560557069262e-02 4.526101565069534094e-01 2.118981577433943220e-01 2.900440905908394733e-05 1.248496978865800463e-03 -2.133596336674067617e-01
2.520582313627506288e-02 4.036063457941750920e-01 2.142554618029100522e-01 2.945466340651938181e-04 1.321090085860335576e-03 -2.573333724844407699e-01
9.664302134472937955e-02 4.363525113542656708e-01 2.165748573724015635e-01 3.411585347097258669e-04 2.077906257511148713e-03 -7.910807112138247554e-02
1.507279054438387944e-01 4.014780352323580326e-01 2.189097843939488697e-01 -7.630886193668724152e-05 2.216285200524254449e-03 -4.419769569758851685e-02
-1.964763905564898550e-01 2.709460373447606929e-01 2.007021253072909239e-01 -4.867678632446969535e-05 -2.763992198254384969e-03 -2.595668309298949095e-01
-2.058838925147812027e-01 2.947190512868657630e-01 2.031031230123612752e-01 -1.827383162267449487e-05 -1.998068115269427663e-03 -9.533544273729811780e-02
-1.467756185662199564e-01 2.796566222771774690e-01 2.054625606411421002e-01 -2.493801389079588126e-04 -1.490719641876049216e-03 -4.094731172725729063e-01
-1.446572072311259616e-01 2.604353363252310816e-01 2.078834541577995187e-01 1.897460012233279938e-04 -6.460176769135637541e-04 -3.426980630203709799e-01
-5.681970240259299337e-02 3.458857241426647189e-01 2.102515549949470763e-01 -1.067122519772054084e-04 -1.109946267655836352e-04 -4.162849212405747013e-01
-3.911607266559691265e-02 3.518257209274340824e-01 2.127423757045144859e-01 -2.699452978305811658e-04 2.418265048110447709e-04 -5.357886182400413144e-01
6.778823376895619368e-02 3.834541764405152153e-01 2.151166928693512004e-01 1.525311740261189484e-04 1.135186954507200977e-03 -4.511988003692221638e-01
1.027848258159757971e-01 4.780024665144009810e-01 2.175593884631396580e-01 -1.979147673800427186e-04 1.192392737826078681e-03 -3.842000500822114195e-01
-3.962074413144073826e-01 3.986208230079008596e-01 1.996291043685602395e-01 2.283430846842726344e-04 -2.157554009585680669e-03 -3.198465457017810598e-01
-3.124425275080439102e-01 3.978402840066083690e-01 2.022065637776035429e-01 4.791422596820618250e-04 -1.549546751516535587e-03 -2.745142567915879184e-01
-2.203455186428101009e-01 4.316779920668329940e-01 2.045070567547475626e-01 -7.777515545917611066e-05 -2.540702256033055260e-04 -1.592143520736622464e-01
-1.387102485623242232e-01 4.441687650753221583e-01 2.069227642351604834e-01 5.067090425388736177e-04 -2.658759172061417577e-05 -1.382172211745713863e-01
-1.884537537161727616e-01 4.679490663984232079e-01 2.094376325957563179e-01 -4.772059436677250936e-04 9.514353565114962554e-04 -5.246613747643182751e-02
-1.226954529855713155e-01 5.330476994652022515e-01 2.120597222616217858e-01 -4.488529743204305606e-04 1.554601830009719665e-03 -5.146936715191769568e-02
-1.231544691934608193e-01 5.481712437935248872e-01 2.147196719605906079e-01 -1.697321515704112180e-04 1.604324735924433877e-03 -6.411596766885471754e-02
-2.361025239287129623e-02 5.657852716881549560e-01 2.171897071886128572e-01 1.579479744357901997e-05 3.090937939003452449e-03 -7.365388122856865449e-02
-3.610836255575478049e-01 4.787805518173416930e-01 1.991752965808104014e-01 2.121703842244132955e-04 -6.101631913932998013e-04 -1.674467826542812288e-01
-3.014545078592772431e-01 4.625170317941530995e-01 2.018476329642666101e-01 6.044519506172314066e-04 -5.816811645962981963e-04 -1.694840980481993054e-01
-2.493623782614517448e-01 3.992727524956929952e-01 2.044295396164483858e-01 1.067296220819599715e-03 5.800067063794226091e-04 -1.314877875029262233e-01
-8.699318049713306022e-02 4.143840869973201557e-01 2.070700137658955109e-01 7.586644012666192557e-04 1.859297532999006682e-03 -1.018165773576678312e-01
-5.357555894922380602e-02 3.692253731001371442e-01 2.097225071471870428e-01 7.654420676789988468e-05 1.839583620304378279e-03 -5.739075931201249869e-02
6.555826968018259315e-02 4.373832260361299462e-01 2.124127129665696057e-01 1.168049937079373757e-04 2.832741191828552774e-03 -2.735723715485441909e-01
2.550007183829511304e-02 2.969953201200461468e-01 2.151495566116277125e-01 2.053627822394886275e-04 1.412181710706294580e-03 5.958309172759970046e-02
8.366245914939859918e-02 4.477227270560134587e-01 2.177266493976525719e-01 -6.491033929383403355e-04 3.471056181321512200e-03 -3.262841956286742784e-01
-3.451492927945880584e-01 4.586714355169331792e-01 1.999328666649368702e-01 1.914767231909167324e-04 -1.340426291711233975e-03 -1.335198359671735946e-01
-3.184952804453030084e-01 4.094687720642142814e-01 2.024221777005194567e-01 -3.127943418320522210e-04 -2.824235040511649726e-04 -3.785644036758385456e-01
-2.608675723359509813e-01 4.002152681477748053e-01 2.052134514901587381e-01 5.083120923450563873e-05 8.992782537479866983e-04 -2.095777482452036156e-01
-1.357879282265006538e-01 4.227748927149694858e-01 2.079789577394741129e-01 5.457105198326574202e-04 1.659872700467949005e-03 -3.536252980353824515e-01
-2.974175237868142627e-02 3.817557605736087711e-01 2.106715759024752055e-01 2.261305049519034293e-04 2.556115552739701962e-03 -1.181123051630523918e-01
-1.374085246923136862e-02 3.279260696593853108e-01 2.134687635066908062e-01 -1.619683925294015795e-04 2.535627085360559699e-03 -1.656471050221636765e-01
5.158137127670507638e-02 2.699351084096320852e-01 2.160682266747261382e-01 -7.027566958195196429e-04 3.196558186366826437e-03 5.949106964394797192e-02
2.053893413753256347e-01 4.303649263435392336e-01 2.187525304585790642e-01 -6.640431799916997248e-04 3.814077706853181808e-03 -4.074368220254770967e-01
-3.680431853212133286e-01 4.673650816747014214e-01 2.004642629257177289e-01 5.142182979343961095e-04 -2.985478864567743095e-03 -3.034989246197485335e-01
-2.039316529952346357e-01 4.257049989384154576e-01 2.032116336246054811e-01 1.203170394636011086e-04 -1.640129592209180502e-03 -1.374655148953575837e-02
-1.112806285761086672e-01 5.283118449539582206e-01 2.061057304751121033e-01 2.052933617097753326e-04 -9.486045107255271095e-04 -1.455892922802319855e-01
-4.272637241144290610e-02 4.505868293974231165e-01 2.088683358663788736e-01 -2.714562182989700440e-04 -2.542615399893935019e-05 -2.761661515803562339e-01
4.890216274067307745e-02 4.415490182705631428e-01 2.118127822175763231e-01 3.250162440587074002e-04 8.766475812300695376e-04 -3.668360982738200771e-01
1.117827984111813833e-01 5.188484472254908386e-01 2.144446051444729995e-01 2.640041200427550554e-06 1.448635319975231190e-03 -2.886612759059122846e-01
1.425198015466268842e-01 4.802435661673149503e-01 2.170986308000412701e-01 -2.816678567628724383e-04 1.658442882300142874e-03 -1.313805058059863973e-01
-2.627406551819296832e-01 5.719472812312857979e-01 1.991761310690631781e-01 -4.033993545840079123e-04 -3.969718835124758961e-03 -5.126195625740621598e-01
-2.395775541513105178e-01 6.375064897074167458e-01 2.018493353472370355e-01 -1.785137181264477286e-04 -2.469114957854153317e-03 -4.349181342065905342e-01
-1.918228760552181944e-01 6.176736531811781727e-01 2.046077171685777851e-01 -3.366241664414462318e-04 -1.573779668518407709e-03 -3.414978525529686615e-01
-1.307427568029069231e-01 6.074985075494160336e-01 2.074325767090344774e-01 -3.954132661454800207e-05 -1.401740412972815727e-03 -4.782375498196630992e-01
-1.665257110472010138e-01 5.366446158902926644e-01 2.104163851268381347e-01 3.541677813122361671e-04 -8.614119513875104087e-04 -6.464013580201017906e-01
-1.355461012514510843e-01 5.683532394410549804e-01 2.131415756859086907e-01 4.424604583671300207e-05 -2.032323354916345767e-04 -5.518035688621345525e-01
-1.824281559305205788e-02 6.722544334088443874e-01 2.158074492290115165e-01 -2.480196738657099078e-04 4.572959527048319948e-04 -5.060644593702584570e-01
9.785550065811123022e-02 6.801159196128927498e-01 2.187145884936717022e-01 -7.275736167915702326e-05 6.080155356367714266e-04 -6.555096496715789867e-01
-4.735019528440043701e-01 6.308068790696735872e-01 2.012573796752090693e-01 7.625229412320617614e-04 -8.687178410871005448e-04 -5.871556832597712994e-01
-4.136884615968181578e-01 5.971664592106006308e-01 2.041587321681455069e-01 1.622938135467753970e-04 -1.746940710410304362e-03 -3.200609170766882672e-01
-4.080142595681451878e-01 5.626951780110545087e-01 2.068882299954820647e-01 5.578728273058481711e-06 -1.475834896203987844e-03 -6.934717801006593518e-01
-2.467611542839523719e-01 6.115008351362890560e-01 2.095202186736625505e-01 -1.542179276443294926e-04 -5.827436338206703603e-04 -8.689865672708012578e-01
-1.384394061935407538e-01 6.670160515090203246e-01 2.124314271709417112e-01 -9.855546449076084392e-05 -8.018386726671534537e-04 -7.869961785668911913e-01
-1.005017365541011898e-01 6.405869883976532675e-01 2.152013978023902263e-01 -1.867026123593453759e-04 -3.851241724830529404e-04 -2.485418789925806782e-01
3.151917596398527005e-02 6.475387915542017980e-01 2.183266640221283583e-01 2.574941448894138194e-04 -6.518910115173294452e-04 -3.016864879193386084e-01
-4.332877227568841527e-01 5.601331342497867238e-01 2.007077312396047253e-01 4.707908324375005061e-04 -1.379885747258995533e-03 -2.958413992861042008e-01
-4.395755705097835198e-01 5.755887670975358139e-01 2.035297601536276146e-01 4.497152016718955120e-06 -1.084263807544865853e-03 -3.174692986441817744e-01
-3.129719536928826651e-01 5.371885511092693299e-01 2.063588890468566195e-01 2.823932466857850040e-04 -3.811836337044602032e-05 -5.660279911402044117e-01
-2.347322957181761649e-01 5.519017986001165665e-01 2.091666418778615477e-01 -3.325942896851393009e-05 -6.712234210264016025e-05 -5.034135412385762898e-01
-5.011580532193533888e-02 4.635222214067440394e-01 2.120758190990348346e-01 -1.726228815308055342e-04 2.792387742117730999e-04 -4.475731177087630686e-01
-3.625511855890962976e-02 5.625876965281376707e-01 2.149783403564422546e-01 -1.851474824150617834e-05 -2.048286642067884448e-04 -3.477365836633867779e-01
-3.274228561569055701e-03 6.689545822817135612e-01 2.178782367398374165e-01 1.019050439224933492e-04 -1.627738568820090415e-04 -2.899259820889416583e-01
-3.789254920219929379e-01 6.009010428419989669e-01 2.000328780041690790e-01 -5.437199080363333699e-05 -4.354175260332444246e-04 -9.287128993887699968e-02
-3.815025311451737400e-01 6.124272511585785450e-01 2.028771150266520107e-01 2.277673324074277583e-04 -4.268957549507658000e-04 -3.132861583510521686e-01
-2.508901307395569602e-01 5.528956565499831832e-01 2.054851538488465801e-01 1.109507399702636251e-03 1.144022092102007625e-03 -3.741855705083471650e-01
-2.082916289127562381e-01 5.133960466796048117e-01 2.084700154544489314e-01 4.632410895162738748e-04 1.798724815391254163e-04 -2.130541123426784311e-01
-1.133334115180240631e-01 5.057267239688577609e-01 2.112082268608038160e-01 1.743395138391398290e-04 2.304689643614989169e-04 -3.539545964276948342e-01
-4.761393315947010096e-02 5.416007655080544714e-01 2.136742976084160528e-01 1.611772703011727802e-04 1.581996212467736557e-03 -2.306376800513873782e-01
1.400266393457022251e-01 5.225481834463110431e-01 2.166453167661630541e-01 1.691447623421724132e-04 9.044312962069018082e-04 9.300781162941208421e-03
8.568179334385868373e-02 4.208459942938901355e-01 2.193788314735119482e-01 1.090856185892029491e-03 1.753212340876662487e-03 -3.972867149195511566e-02
-2.522094659423627094e-01 4.406359319498890925e-01 2.015190173413325958e-01 1.167950730740106781e-04 5.779685249523575097e-04 -5.384601957118471255e-02
-1.260157672874668289e-01 4.777693241079563058e-01 2.042541894251590495e-01 5.808804339229382526e-04 1.176260082414763318e-03 1.294352064892238113e-02
-5.468690482341757170e-02 4.019344047148137311e-01 2.069474613331281909e-01 1.572350844162742449e-04 4.372851234110262291e-04 5.078566117902729576e-02
-3.158273685013422011e-02 3.641469783891558842e-01 2.095561622515424438e-01 1.229102027452944577e-04 1.038062521744131808e-03 -9.308516316463538720e-02
8.029838528280046350e-02 4.999564671011808570e-01 2.123237772072093521e-01 2.470300437998902265e-04 2.864713898371339844e-04 -2.631827726431412162e-01
2.090774444451611036e-03 5.069209055385042184e-01 2.149462460484405923e-01 -3.616318811049146773e-04 -8.296683190629338279e-05 -2.898568120392066572e-01
7.860882365823143592e-02 4.801068590739871467e-01 2.176049995002283244e-01 -1.015292136930377216e-04 1.278764142447904272e-04 -3.841911177200140748e-01
-3.783485632012038580e-01 4.004220863122563423e-01 2.000271075323625247e-01 4.314141362496372507e-04 2.413820176867028083e-03 -4.999849791864503512e-01
-4.411481703856580672e-01 3.616154889523617300e-01 2.026011657918930786e-01 -3.134431205747686760e-05 2.341247143606306827e-03 -4.764004694397094286e-01
-3.975880633631678762e-01 3.102045021061846652e-01 2.052474239679851764e-01 -2.331705923996152890e-05 2.083054730180568335e-03 -5.789810553022182171e-01
-2.328754857450147098e-01 2.903006177675109822e-01 2.078603050746026248e-01 -3.946628314097725543e-05 1.796066338382777986e-03 -7.396619140488638333e-01
-1.978536314782928518e-01 2.637421892408104984e-01 2.103548843886640651e-01 -4.766531390782087122e-05 1.632036251765648380e-03 -6.371798667757501144e-01
-1.066281165759865729e-01 3.339096202257709201e-01 2.127733994057471323e-01 -2.592327961084928774e-05 1.557555750733892550e-03 -4.268471698021943928e-01
-2.510955855616299123e-02 3.618994886470888184e-01 2.153921478070746631e-01 2.293700959711047962e-04 5.483757991163341200e-04 -3.848505471397554722e-01
1.638715550098548412e-01 3.152292399745155183e-01 2.178032766017222177e-01 3.411122646628712862e-04 8.859247570017707947e-04 -3.488331839529589251e-01
-2.047797335392231854e-01 2.807652586221497382e-01 1.997058231042050935e-01 4.209077630022204741e-04 4.666807681849419187e-03 -4.366310718447224404e-01
-1.147125728154738400e-01 2.287090302683172927e-01 2.020411038505314227e-01 4.723365157349583869e-04 3.415822494664091154e-03 -6.593716268228670963e-01
-1.052295723995143178e-01 2.723791276455078125e-01 2.043389103564482445e-01 -5.000149918009986561e-04 2.282607313568599770e-03 -7.744867744249489538e-01
-1.162033378424464636e-01 2.672505372726630135e-01 2.069213505727252045e-01 -1.941024709711941520e-04 1.026071906965071549e-03 -4.622714368549275532e-01
1.932462496012550893e-02 2.501348027158563081e-01 2.091744886408475335e-01 3.633364158317676932e-04 1.507476425359647026e-03 -3.414466033122963151e-01
4.155704248236052889e-02 1.852691118060441622e-01 2.115676218173183631e-01 9.639015559662280242e-05 1.729694560540499695e-04 -5.301784891893503993e-01
2.788349705361783254e-02 2.140833690193928995e-01 2.138983026597838233e-01 -4.362160406977295957e-04 -3.978034460191214971e-04 -5.292449563257839440e-01
8.323040636443453100e-02 2.553934004978948291e-01 2.162756501030202450e-01 -9.306626168102242493e-05 -8.909574459085505905e-04 -3.230145277537893600e-01
1.341781605726572180e-01 2.159331167192062861e-01 2.186321732104565818e-01 3.892781484793074714e-04 -1.401289457176213126e-03 -2.103318422540246535e-01
-2.836423434653315145e-01 2.393610555407372220e-01 2.009850233211040726e-01 -1.676964497626500359e-06 3.848807114347410543e-03 -1.803170272639531002e-01
-2.496697268278265935e-01 2.317476737713907720e-01 2.031970270315702209e-01 -1.108672121134041057e-04 3.176798572963007977e-03 -1.653974326255421845e-01
-1.867910586782219884e-01 1.861662518884636686e-01 2.055751033361530866e-01 1.608335201086151490e-04 2.661791258140119680e-03 7.755101801600434996e-02
-1.258559996191271069e-01 9.661041022168469217e-02 2.079171496664074525e-01 1.407349354318735335e-04 1.900501753768313361e-03 9.017248121974154318e-02
-7.592215778920066716e-02 1.417113945398125185e-01 2.101279857402136297e-01 2.518186146878765745e-05 1.305428780518756585e-03 -5.738379715149730109e-02
-8.428662254492269579e-02 1.502208209674995021e-01 2.125608298589828915e-01 2.585852291233558254e-05 1.932249728882889787e-04 -1.753638322751805423e-01
3.196386512624890819e-02 2.435988316981271828e-01 2.146748637823082673e-01 -1.872037950030186742e-04 -9.041142856614098886e-05 -3.099639782186351944e-01
-7.541466414083316389e-03 1.582674330944787988e-01 2.170613534860227345e-01 6.084568639808828798e-05 -5.429909520645862702e-04 -6.220326543292519633e-02
9.159429204635843869e-02 1.938839044179260507e-01 2.193581014673213203e-01 -1.195873348932633066e-05 -1.451602082101988373e-03 -1.835553113724484042e-01
-3.001780503969754821e-01 2.723293744005294559e-01 2.013704664518244369e-01 -4.982971077741485226e-04 2.961934518777236715e-03 -2.267211326499078416e-01
-2.503927004259466904e-01 2.673963369053196648e-01 2.037445706569427362e-01 1.497711834422913184e-04 2.364005563427326248e-03 6.218663236616522871e-02
-1.399756392086307366e-01 3.949237343095399755e-01 2.059997241762289155e-01 -2.964527078632471849e-04 1.792742699397229097e-03 2.428978706980251256e-01
-9.372384084447224484e-02 4.141773041859273530e-01 2.084316052683555243e-01 1.211958312936987480e-05 1.123877580591300419e-03 -1.483108109410218589e-01
-9.376613441428358064e-02 4.563362025619279172e-01 2.107469678998939444e-01 -1.556616291733042216e-04 8.010981292043293980e-04 -3.559051620547877270e-01
-3.086899161641168399e-02 5.270285786881099277e-01 2.131833517372280218e-01 -2.037393842258596066e-04 5.571175858028497904e-04 -1.573455079825762104e-01
1.122975772156193652e-01 5.354530836892704704e-01 2.157448204321347762e-01 1.114183891536785431e-04 -9.054964960955927660e-04 -2.048979599337488466e-01
2.794276351787595702e-01 4.667725086052034178e-01 2.182027580041255854e-01 1.919838550882674267e-04 -1.571060782003932954e-03 -4.818608417126665766e-01
-1.883420112384296408e-01 5.360740406457367158e-01 1.999397884518727131e-01 3.069628576511220842e-04 3.444428828455119423e-03 -2.598400854197787657e-01
-1.442203432007426733e-01 5.790545691794006800e-01 2.024019307540593782e-01 5.808471122038465055e-05 2.199020625802597124e-03 -3.140599394929690646e-01
3.762051388253874473e-02 5.717778907104794639e-01 2.049034703333998397e-01 3.731558344748917076e-04 8.175048851838889004e-04 -5.820006153833305884e-01
8.714863511544693186e-02 4.201843503223867127e-01 2.073472060770157888e-01 9.432330916787979897e-05 1.197610511120979736e-04 -4.524990959291096959e-01
3.034656454776837528e-02 3.569152014459367472e-01 2.098905905834164698e-01 -1.072227878105237102e-04 -2.753142988038949574e-04 -2.002081185787404627e-01
1.305579978042772926e-01 4.681003817470684170e-01 2.124583137655040588e-01 3.420663516305319979e-05 -1.038774500918624409e-03 -3.484026654939292866e-01
1.940927629451191239e-01 4.051066184740604870e-01 2.149630270570206947e-01 -1.946084002018848465e-04 -2.068190358745481804e-03 -3.590912391901754375e-01
3.290257743104446631e-01 4.620427083017014103e-01 2.174344177255260191e-01 -6.638054541608072196e-04 -2.716272806424019186e-03 -5.508789926967319062e-01
3.671627222613852437e-01 4.639855944154442358e-01 2.200627627540828746e-01 1.336490219413295386e-04 -4.102635314506477594e-03 -4.281459655304263867e-01
-1.986407048490182181e-01 5.254793441508376350e-01 2.014294931526431909e-01 -2.387916927417411928e-04 2.537661244002052154e-03 -4.433635158787861963e-01
-1.626746291960880497e-01 5.497911217766744407e-01 2.040203859738079495e-01 -1.414786644304089969e-04 1.372428563003105263e-03 -5.052949945469189519e-01
-8.794066045176741897e-02 4.989945520780150745e-01 2.066378745815693474e-01 9.380327108906989482e-04 6.238889941953360430e-04 -5.600044614317554181e-01
-3.027131909006960941e-02 5.280621059917556259e-01 2.091612492275226609e-01 1.748993644916143069e-04 -4.492533640559144190e-04 -4.519861068817222494e-01
7.282957054600064373e-02 3.947490917708307845e-01 2.120170672378369203e-01 5.192774224446020407e-04 -1.866552550210815765e-03 -5.647699552174424431e-01
9.539292620116121557e-02 3.853814552170126695e-01 2.144083277013177913e-01 -8.182730777825859586e-05 -2.826022437721658481e-03 -3.744803223980673335e-01
1.940683333433085300e-01 4.951003720503398542e-01 2.168296749446482763e-01 -1.711927188162186485e-04 -3.159742529713838871e-03 -6.330285011569107834e-01
2.454787270213815709e-01 4.603487081282433002e-01 2.194931602457619868e-01 -2.919893715030139926e-04 -3.928493722149979488e-03 -3.685289651068757166e-01
-2.256910211108535402e-01 4.625721380044542363e-01 2.014144302527557384e-01 1.606178264507040663e-04 1.628353604016747344e-03 -1.531683549662985200e-01
-1.682248250711743942e-01 4.192341884692577514e-01 2.041150667229553739e-01 4.801134454373451061e-05 8.113064976154815092e-04 -2.731285183748055068e-01
-3.926995821389303587e-02 3.520619349918516217e-01 2.067317000686168527e-01 6.195670811916268936e-04 2.563928345043299853e-04 -2.434359167032194848e-01
5.684206175336999067e-03 3.778146719515106389e-01 2.092148959372895356e-01 -1.864720430173701289e-04 -8.760100455216127753e-05 -1.354711010778029134e-01
2.833473025429397371e-02 4.414622815720282145e-01 2.118817274001893458e-01 -2.115609996512824202e-05 -6.053379056869190788e-04 -1.858964689563057104e-01
9.398750507333424042e-02 4.299320261484370076e-01 2.144182271761647662e-01 -3.126423340758398366e-06 -9.855496815820959447e-04 -1.805863927962230442e-01
1.967358589175431660e-01 3.890101111825842728e-01 2.170770932867460146e-01 1.717875658029558794e-04 -1.555343651849631177e-03 -3.521046499469279167e-01
2.376039305144354574e-01 3.701802104900824286e-01 2.195471176240063049e-01 9.485203482764378597e-05 -2.131612668591412445e-03 -3.911904084529817527e-01
-2.923858830174368983e-01 3.967585358319585809e-01 2.020881150058427833e-01 1.041267104270252748e-05 3.089854163494533510e-04 -2.020513465777167283e-01
-2.599742990694224321e-01 3.974880185834601676e-01 2.045094346511183159e-01 1.703025033029826750e-04 6.790260365347452814e-04 -2.886675537175159012e-01
-1.771497468535809250e-01 4.725680107866164215e-01 2.073831742930493660e-01 -1.873615517736983301e-04 -3.949276866389781469e-04 -1.380300034120136299e-01
-8.813409561632321032e-02 4.204438229556435869e-01 2.098587609569256829e-01 1.213672111609612669e-04 -4.673796688409952551e-04 -4.921004410534914886e-01
3.122568235971540096e-03 4.058040701282962237e-01 2.123294368179842739e-01 -1.059050503073603384e-04 -2.655396748153183366e-04 7.429505376839325159e-02
4.255624894869356606e-02 5.284760989843321211e-01 2.150675962878365599e-01 -5.842064013916255005e-05 -5.544296336955160378e-04 -8.966778168211751721e-03
1.110865588874622167e-01 5.427934736784182368e-01 2.179201586319429174e-01 -1.490484412295128738e-04 -1.418412848935268842e-03 -2.015911375497126956e-01
-3.421587315731213219e-01 4.298096061731630502e-01 1.997875273860805212e-01 5.144222865227210785e-04 -3.243125019969124033e-04 -3.081915059883495456e-01
-1.483518063230077066e-01 3.883752484107156899e-01 2.024888410685458107e-01 7.783766757966556179e-04 -4.208434431156070962e-04 -4.915641439725976919e-02
-1.341035786794144702e-01 4.494294939321450411e-01 2.050597791082174881e-01 4.096790546082750066e-05 -7.269865922329042055e-04 -2.432108420713012253e-01
-7.879232898316741729e-02 3.390811732336837525e-01 2.075583064067496042e-01 -2.794592891386777310e-05 -5.333738124090599102e-04 -1.254126634500329074e-01
1.087641621250138441e-02 4.455126074764271804e-01 2.102276412890473622e-01 -2.149480707558565937e-04 -5.273621575688338184e-04 -8.860870769719016160e-02
4.887895337682666291e-02 4.396936615477079480e-01 2.127041061227464835e-01 5.144747616545706928e-04 -1.085147329623078897e-03 -1.083377834982358900e-01
8.791725847497144919e-02 4.321209107823618112e-01 2.149701103559599757e-01 -2.401761022045594712e-04 -4.421162327914361862e-04 -1.793109968060140613e-01
1.974422119777226314e-01 4.610736134196125602e-01 2.173652351890758561e-01 1.558909556734317209e-04 -5.357447767948980439e-04 -1.424625188251809338e-01
2.372827278263541229e-01 4.366441699083946637e-01 2.199001937550730812e-01 1.845510140588106499e-04 -1.472960290213989930e-03 -5.813167070755952126e-02
-1.815465330077975226e-01 3.863715951700378848e-01 2.013604730282505528e-01 3.073868859880793305e-04 -4.510401184789245249e-04 -2.774154696349985794e-01
-1.645636857114408935e-01 3.757018880703841268e-01 2.037754997092153242e-01 4.424253001382342598e-05 3.336561289200440654e-04 -3.340739737372469542e-01
-1.721921702942844079e-01 3.595725299662482222e-01 2.061333429515395665e-01 -6.667865421418020041e-06 5.535592060238926247e-04 -4.208382954020446487e-01
-1.271534413934784502e-01 4.312837868474805325e-01 2.081974410261427932e-01 4.663789011780624570e-05 3.570131596023420764e-04 -4.481362516260970486e-01
-1.209603642861684369e-01 3.796252068956268433e-01 2.103892552422386708e-01 1.583258841398295315e-04 6.231945836818052371e-04 -5.301963137037712936e-01
-2.529237124995406538e-02 3.513251036855112308e-01 2.126530417532480066e-01 1.143609912824342665e-04 5.693686092864966904e-04 -4.162981038074491380e-01
-2.582612463017758958e-02 3.609108195662530383e-01 2.147625048796939495e-01 -1.496899513473976691e-05 4.068048552404749871e-04 -4.207872952628040619e-01
4.146149139527284533e-02 4.069186445456326462e-01 2.167330548554836644e-01 -1.576476406661444748e-04 2.965224243861232126e-04 -3.766393562400974226e-01
4.304309739115280697e-02 3.712303519242715066e-01 2.188881500329009078e-01 4.151816507342961411e-05 9.588913998404482585e-05 -4.027216404038263531e-01
-3.843335953976564912e-01 3.753401441365664115e-01 2.001145224036744441e-01 -1.347996161328339157e-04 3.951911650889335494e-04 -5.120332776534350927e-01
-3.294163288097657349e-01 3.434229476433698913e-01 2.020615426429687722e-01 1.957241245823236359e-04 -6.829950034700227064e-04 -4.295425043715194180e-01
-3.083145300567267100e-01 2.112576594985844658e-01 2.039030632633789808e-01 5.873383415267943329e-04 -3.496565388613406410e-04 -3.474819515437078121e-01
-2.223959024890250769e-01 1.891068200553101819e-01 2.056671081942719193e-01 1.687934190250491235e-04 -5.789122724995510302e-04 -3.157455549885883339e-02
-2.495978678444198129e-01 2.520859721793233810e-01 2.073140220674405398e-01 -3.001942748928992889e-04 -7.491631850186362181e-04 -3.859116893772128742e-01
-1.843564849204952505e-01 2.143629328254134103e-01 2.092536963832839492e-01 3.554130658158583585e-04 -2.581226395277869080e-04 -2.776178640002555098e-01
-1.564494042004620222e-01 1.888054089509449418e-01 2.111012523316945222e-01 -1.985947780215655922e-04 -5.647365278605693097e-04 -2.423258412601646539e-01
-1.255996892740956494e-01 1.780857560116552718e-01 2.126713334501628139e-01 2.989993283872256031e-04 -3.991460339258851757e-04 -2.961951660046933665e-01
-5.820774631621447592e-02 2.108883126568178168e-01 2.144203639705510867e-01 -2.952739125250105685e-05 -3.738870368427374587e-04 -1.808437240004618085e-01
1.174428607536116484e-02 2.033652613278684462e-01 2.161847323278394684e-01 3.314547988774389341e-04 8.123520096959039281e-05 -2.405501289515551699e-01
7.582777811417215630e-02 2.484021815631243524e-01 2.178373670118705085e-01 -6.965807337772135532e-05 -2.547944587975209440e-04 -1.722342466429734875e-01
1.042485929491272223e-01 1.969012060964542843e-01 2.194276942343174053e-01 -5.215994047098718109e-06 -1.186218619278214624e-04 -1.318627574899503829e-01
-2.789230246945766378e-01 1.276210106322936133e-01 2.010789909227136407e-01 -8.872219223407969678e-05 -8.917316597179110417e-04 -1.354065170879307223e-01
-2.618497762760854664e-01 1.035428772901513250e-01 2.026190460716195685e-01 -1.279208384465473341e-04 -8.647293824309702000e-04 -2.424088464832782897e-01
-2.674534828687684662e-01 1.579466932556640169e-01 2.039943955485464810e-01 9.650671165969418807e-05 -4.205324183021739775e-04 -2.246156372241779331e-01
-1.981955826773247054e-01 1.606181631058430370e-01 2.054040375213987413e-01 -8.940827404027659080e-05 -3.211637252509549553e-04 -1.697138446350728025e-01
-2.118126960672139236e-01 2.012056673968691811e-01 2.070166895169969212e-01 1.423496666787705677e-04 -2.725483781250782390e-04 -1.210440889504834638e-01
-1.828886801956105812e-01 1.990115833437884063e-01 2.084783708252685441e-01 3.098041738883115093e-05 -6.125853570989911283e-04 -2.211994261058264633e-01
-1.938460353951591275e-01 1.736361415979601197e-01 2.097900278942977925e-01 7.432456296377660415e-05 -3.655265381778205827e-04 -2.748065373898987973e-01
-1.237663485628188176e-01 2.133140586765449320e-01 2.111591904167851586e-01 -1.887318797881915985e-05 -3.411363909184494882e-04 -3.205931707953855736e-01
-1.403734792101150319e-01 2.211023620611072826e-01 2.122399895614517362e-01 -4.201400032157056414e-04 -4.729012416102142753e-04 -2.928919665172959319e-01
-9.293034996765237032e-02 3.030621965497202752e-01 2.132692903871394874e-01 -1.169695112845351066e-04 1.137535598430453118e-05 -3.513329861550562039e-01
-7.931955255810668737e-02 3.435192012829745845e-01 2.142338460448789950e-01 -1.147816026021612697e-04 2.072919995761991470e-04 -4.738606754504500751e-01
-5.571256588405672228e-02 3.078758112736713071e-01 2.151167666007143819e-01 1.732149487483200989e-04 7.322197888125480400e-04 -5.370895954900187785e-01
-2.313960267000536586e-03 3.352523647227597103e-01 2.159369452648403076e-01 -3.059779719275554610e-05 9.441764121957418616e-04 -4.947923579009855799e-01
6.083647185242414823e-02 2.955075114689637017e-01 2.166905309996644546e-01 1.322435585726525556e-04 1.265199320009881062e-03 -4.492417665132782956e-01
4.051828680649285919e-02 3.033218971909659167e-01 2.171656860913084297e-01 -1.445335176262364904e-04 1.301439965189178519e-03 -3.996974836571078327e-01
7.271174262427551604e-02 2.466279295709147001e-01 2.178916153780054987e-01 6.012563495050598264e-05 1.207775015675210603e-03 -3.924157547455837669e-01
1.121557093901064672e-01 2.594427282758122177e-01 2.183338366235048622e-01 -1.084456972353170311e-04 1.297085952351561449e-03 -4.298174691580117779e-01
9.515888473749775645e-02 2.525644292663852819e-01 2.186171109775778554e-01 8.830785938574039302e-05 1.432834162585235873e-03 -4.466015582704578324e-01
1.182381851108382370e-01 1.761376993305058813e-01 2.189949725186088880e-01 3.269072359722585306e-05 1.359378844097486197e-03 -3.937647236985575283e-01
1.330143450239367198e-01 2.435674848403750758e-01 2.194097934506233916e-01 -5.440114523274933926e-05 1.353592162878614709e-03 -4.006593299269202713e-01
-3.532715178745022833e-01 1.978185942711658540e-01 1.997444806265751271e-01 8.083576606250880529e-05 -2.513043249131478862e-03 -1.775208655623166931e-01
-3.368772532368731198e-01 2.303942467899353364e-01 2.001694601592371447e-01 1.373434269964623068e-04 -1.867251189302120530e-03 -2.398383690896478959e-01
-3.013120362978237710e-01 1.190183809688767080e-01 2.007794867092460578e-01 2.602086187746504415e-04 -2.137520914221704375e-03 -2.170760840932102476e-01
-3.497822734381362819e-01 1.651595924277811933e-01 2.012497658449154403e-01 1.605894340063835832e-05 -1.395849754637752248e-03 -2.599870520115114547e-01
-2.424832522877557461e-01 1.717454950227023103e-01 2.020141456559923498e-01 -1.863160662050323245e-04 -1.692947975153587855e-03 -2.424280059416810684e-01
-2.469603768375643882e-01 2.199578669524507868e-01 2.027906968348683892e-01 8.643651753402944982e-05 -1.775915382008418694e-03 -2.831833147550614216e-01
-2.436442713414735395e-01 2.248872669428727822e-01 2.036324931486176992e-01 1.953811209503100872e-06 -1.913009597792277939e-03 -2.280163049152269250e-01
-1.857059606909810534e-01 2.261586225657226945e-01 2.045825135222693603e-01 1.244080287087704468e-04 -1.833545950894552778e-03 -2.330586087447451826e-02
-2.265022874323416868e-01 3.385575193756923951e-01 2.055210074070399351e-01 -1.166790787268914056e-04 -1.584437043860645973e-03 -2.396686976605703900e-01
-3.088668775616253970e-01 3.561879654759288472e-01 2.065617459387587007e-01 7.116347286146263699e-06 -1.177162919370185060e-03 -3.643569578141353515e-01
-2.143473589192387285e-01 3.267076873669879644e-01 2.076051079258072751e-01 1.317287359463237490e-04 -5.875432793880577690e-04 7.321716228756875236e-03
-1.670558484098777774e-01 3.394698218847232440e-01 2.087321993876096182e-01 5.137965538559777890e-05 1.998829499326175332e-04 -1.879974592594890470e-01
-1.262726915331262301e-01 3.610602235506949476e-01 2.098908353633360813e-01 -2.214243077936142853e-04 9.493574092271227401e-04 -4.422611754266292383e-01
-6.240983306524772178e-02 3.977223934770456881e-01 2.111361499946297071e-01 -1.708666429797449544e-04 1.509298266866640611e-03 -3.250953042706784535e-01
-6.811810413306723655e-02 4.045332766065194985e-01 2.124572151088650607e-01 2.843233630244823909e-04 1.436463006670687242e-03 -3.826361866313051086e-01
-6.338827291639023698e-02 4.067312713176541861e-01 2.137482636190684016e-01 -1.227239994627729439e-04 2.541829398594712582e-03 -2.378332346748744108e-01
