-1.247819154986656159e-03 4.180096178239733895e-02 3.648223302330610984e-01 2.477248581158184764e-04 1.512743801634361472e-04 -1.018165749995664643e-01
2.339713873539275846e-03 2.923477934562237687e-02 3.648814729985281891e-01 -1.912817553956397171e-04 3.741357207889683283e-04 -2.373005184416860508e-02
1.685489445450029031e-02 3.955195085041053604e-02 3.646843833614418218e-01 -2.621303401648974562e-04 3.141890839838156532e-04 -4.041052681225217047e-02
1.981818016925718240e-02 2.703017958919639099e-02 3.646866110225861490e-01 -2.114244519841556967e-05 -1.398134063548426491e-04 -9.902530636781563256e-02
5.196136160941087351e-02 3.233938420924065138e-02 3.656342951242957939e-01 8.342295829110973459e-04 1.978465032126453297e-04 -1.228007589536466854e-01
1.940769124971972875e-02 3.988780671939453487e-02 3.644582222896262103e-01 2.209531973685323488e-04 -6.483846711131322514e-06 -2.171961146987855529e-01
5.778217025563679634e-04 -2.310425498939378680e-02 3.654713667978333191e-01 6.928450235669391831e-04 -1.696276266890623010e-06 -1.969409619535640310e-01
-3.857032771491754526e-04 -2.924419900781280793e-02 3.649042203477181889e-01 1.022231287006956495e-04 4.836467816396351890e-04 -1.530237395534403133e-01
-1.886473730916845420e-02 -1.393391579418262749e-02 3.642729852549037028e-01 -8.997017914848341995e-04 -3.374513090510625245e-04 -1.466857955938888070e-01
3.599399700705861044e-03 -2.325339653132368206e-02 3.652096829398325806e-01 4.604314593275900930e-04 1.649878416083961849e-04 -1.215790267384910112e-01
-2.918486630788604333e-02 -1.795278041560710927e-02 3.654862094037153453e-01 -9.546531263463706919e-06 1.301193923876957022e-05 -1.622196689357311150e-01
7.228652098080823318e-03 -3.581826709848853069e-03 3.656826356518818599e-01 4.771365111556442537e-04 -1.675014239960433474e-04 -1.525390804451926541e-01
5.422555354664888166e-02 -2.793932776903490164e-02 3.653847323907262745e-01 4.633161804255919681e-04 2.558470831510531191e-04 -2.318059738496934183e-02
5.162315055459038016e-02 -2.702317155431570653e-02 3.655951739127354938e-01 -6.174917650318109729e-04 5.925450531587456203e-04 -3.241093112722926578e-02
6.596828525862227788e-02 -7.729004295079816567e-02 3.653203550230614827e-01 3.140479567493172737e-04 2.523049599612686949e-04 -5.274746703706178347e-02
6.538389216211354382e-02 -2.440962155099129019e-02 3.646449788713904128e-01 1.233250033170371857e-04 -2.686762988458826925e-04 -1.059951583401669423e-01
6.606854758604170479e-03 -7.958255892801083253e-02 3.651390704438517432e-01 4.624567386904022818e-04 2.279749527231389971e-04 1.066983951156872112e-01
-4.583276095083807858e-03 -7.445394112299551226e-02 3.648328622871783722e-01 3.294678986552078062e-05 -1.756866846402270097e-04 6.376207895800750647e-02
2.333284046112325469e-02 -4.560387600385477913e-02 3.647033569132485109e-01 -2.311104446247819535e-04 4.705654770399258905e-04 1.828617797402226543e-03
3.450480545442596164e-02 -6.575321599620978508e-02 3.645928827892647162e-01 -1.866547522475938792e-04 1.909047530479937951e-04 -4.758311551107825138e-02
5.117124821561473691e-02 -9.502371829626829816e-03 3.648403167078466680e-01 3.539741572433874962e-05 5.736608502242918290e-04 -4.401661238858928932e-02
4.055696036121060610e-02 1.720418874587860414e-02 3.648970167470367842e-01 -2.249352449330581296e-04 -2.753496588238341200e-04 6.908874262151343260e-02
4.914494506557954417e-02 -4.418378755460648094e-02 3.656260101146637798e-01 4.140637445692212700e-04 1.512037024966783236e-04 -5.586360748975851415e-02
5.192372780038970181e-02 -1.580812382898845805e-02 3.650484173826590295e-01 2.496415468436416417e-05 -2.552776072288400616e-05 -5.444334363007861943e-02
7.011102320119648457e-02 -1.424412913452008898e-02 3.644543812614926548e-01 -3.476700533310325258e-04 4.431401031562826314e-04 -4.941871178634702627e-02
5.670619777168391801e-02 -9.184560374898476445e-03 3.642854396040880460e-01 -6.571041444087265834e-05 -2.652880738717139650e-07 -5.864955242492310428e-02
5.928702833424221580e-02 -7.601769224790325651e-03 3.649945259770092099e-01 -2.754096473166323220e-04 -2.789976356623232872e-05 7.327047664376977638e-03
4.634631843852634464e-02 3.756557009914996553e-02 3.654568390032326697e-01 -1.760731077347043292e-04 1.905173627440626713e-04 -9.657537041118560706e-03
4.136881075752108644e-02 3.585749765001142175e-02 3.647250759040219226e-01 -4.163657404507799161e-05 7.414308091795289186e-05 1.265104952543898501e-02
6.094968789398631792e-02 1.694524700446217030e-02 3.650032116194609211e-01 4.956632247299751627e-05 1.859480198808619467e-04 -5.164090002483025937e-02
3.745212199633732308e-02 -7.159010491562377981e-03 3.652355578193758889e-01 1.564989780574303248e-04 -3.128142326481893592e-04 -8.919340865174159305e-02
5.038011485289820013e-02 -1.358296810069818499e-02 3.651068563469349604e-01 -1.495358070090524493e-04 -7.560625843922105663e-04 -5.324270844291967286e-02
1.670187011308623196e-02 -9.800806921154800455e-03 3.650147954136268580e-01 1.470619739455815531e-04 8.108002078859284179e-05 -1.660920643680847616e-02
1.473085554555238902e-02 -3.049875706371132228e-03 3.648367228180109945e-01 -8.351039547414111099e-05 -1.161690146736830639e-04 -1.703450894616841127e-01
1.511656381954334070e-02 1.382005807612755703e-03 3.648325933234555229e-01 -9.121802672465399047e-05 -1.065836245856711425e-05 -1.882871118797440346e-01
1.599183880775726860e-02 9.947929833666031493e-03 3.651135992758738347e-01 1.530422215656917541e-04 8.318521767803741700e-05 -2.701958070528954758e-01
3.036344806590782208e-02 1.478373013170135829e-02 3.650533349687203888e-01 1.963843935301066090e-04 1.253433214163788190e-04 -1.208324136814150906e-01
3.939772801066725866e-02 2.886170650833252624e-02 3.652163553193668033e-01 3.528579338315824822e-05 2.027365503813003409e-04 -8.081117946973198629e-02
2.577996892496921613e-02 2.437787590981490074e-02 3.648155214304969474e-01 -6.614695268975186225e-05 6.063374677459332864e-05 -2.167033086613902038e-01
1.610238107780647548e-02 3.188817814268499196e-02 3.649380660837582835e-01 -9.036433921192477516e-05 -3.225500200729486270e-04 -1.945929396555763080e-01
-1.786511951415476363e-04 4.244084238298469897e-02 3.649604724253069366e-01 -2.967360575593362573e-05 -4.795721897944454004e-04 -2.307517594255465154e-01
-3.376072462340347032e-04 3.552517690970288106e-02 3.651646744207593942e-01 1.200233245056552022e-04 2.689889149870199417e-05 -2.689849692727673824e-01
7.177389138776281430e-03 5.859904228198443282e-02 3.650235286054617223e-01 -8.968504942035991395e-05 -1.984805345333644406e-04 -1.853195667991044127e-01
5.515154586496410008e-03 7.141254221165230232e-02 3.649815009966266288e-01 2.020481612470105906e-04 8.240256226503152445e-04 -3.306303752135201779e-01
2.986963512640376101e-02 5.268331423714169709e-02 3.653429509446340928e-01 -1.040708319507489447e-04 -2.708345890937228204e-04 -2.229944847233384653e-01
2.602197734315344485e-02 8.066869614857556658e-02 3.649465646468204039e-01 -2.433894365476786182e-04 -4.171773259823118572e-04 -1.897769888001325789e-01
2.527157534592094218e-02 1.140438815196416628e-01 3.650405516854258181e-01 8.520757265231552655e-06 3.555039719544756316e-04 -9.291778685373160152e-02
-1.626554658305444725e-02 8.365260616960261408e-02 3.650766741620812827e-01 1.400605720746339589e-04 -1.399091818433052705e-04 -1.207311337161140752e-01
1.155373992899268870e-02 7.883959857800257320e-02 3.652864315239233717e-01 4.817438445656518691e-04 3.845293566574903971e-05 -2.038954224678731775e-01
-1.349620101893894523e-03 7.625743554489997078e-02 3.648726977918090864e-01 3.320931450441362814e-05 -9.530483616813238473e-04 -9.782411230197929353e-02
-2.539448909627811321e-02 7.191417129980834377e-02 3.649518556412763015e-01 9.981340248769164127e-05 -5.625945171118514412e-05 -1.182793411858701071e-01
-2.370630223105710602e-02 7.385450824516703872e-02 3.649557677743492379e-01 -3.742002189374939094e-05 1.591716591792323823e-04 -8.007352628791583604e-02
-1.596239080207089225e-02 7.705977620895898550e-02 3.650923698265335915e-01 7.670457544776240115e-05 3.330862674286705870e-04 -1.906496651687949670e-02
-5.102988572188845058e-03 5.745252825475966052e-02 3.649175091135075100e-01 3.813652771970757504e-05 -6.841191842836619663e-04 -2.238113034449622923e-02
4.466181845766121691e-03 4.100911720598390819e-02 3.649943533958268094e-01 1.885435705141339825e-04 2.159791624346352819e-04 -7.510401610354187907e-02
1.469535378195205820e-02 4.541416319086449133e-02 3.650154039086213054e-01 -1.142936799888429143e-04 -1.377454979284404939e-04 -1.232192888147298354e-01
-9.712969031599412223e-04 3.581835201799690033e-02 3.650195934540191312e-01 -1.327314531740834779e-05 -8.908794020536888640e-04 -1.587616253802597854e-01
-2.849581806332517064e-02 3.274345059759131704e-02 3.652509328506975406e-01 -2.047305008222766621e-04 -1.078857268575859375e-03 -1.159931822456047035e-01
-7.229921092875820146e-03 3.554122510333301149e-02 3.652934470579640713e-01 -1.766389653842653784e-04 1.278637414230580395e-03 -6.527756849763244329e-02
4.468488578049148105e-03 4.929969509524317200e-02 3.650280760531695035e-01 2.973721162376247889e-04 5.360423598845181570e-04 -5.385560919367124444e-02
-1.405960291761767372e-02 3.803708917246807070e-02 3.650551870967032597e-01 -5.255743692056617230e-05 -1.419992767032563841e-04 -6.793453020384805641e-02
-1.595694732340613084e-02 5.997195694501614160e-02 3.649610973460880592e-01 8.756269691001594224e-05 -1.818065136501846829e-04 -4.287851209444879658e-02
-2.122096377384407456e-02 5.573752797336312126e-02 3.649337457048275057e-01 -1.262479753758933741e-04 -1.298060949446746778e-04 -4.105325511505595465e-02
-2.339985645088964866e-02 3.994447699502001736e-02 3.650657615711327963e-01 2.310470158163372930e-04 -1.428146464355665394e-04 -4.166808390962970648e-02
-2.558118483397801499e-02 4.889922498015737695e-02 3.649740611182930583e-01 -2.774587461001046707e-04 1.208460402423724512e-04 -4.961741298397003008e-02
-4.621461428889742096e-02 2.898540400738126854e-02 3.650779745231503282e-01 -9.535373222620275305e-06 -5.424231415323385770e-04 -8.886306213238144569e-02
-2.913910583985826128e-02 1.038870680170304178e-02 3.650054482071706796e-01 4.900825977071689979e-04 1.336442469797388026e-03 -4.009935545126437628e-02
3.166710223487640818e-03 3.665690098341058134e-02 3.651384478363363106e-01 9.301894534957582468e-05 4.033738866456040525e-04 1.109422078768140807e-02
2.420991799949570589e-02 2.011944214088933272e-02 3.650206003558108536e-01 7.471871229430543241e-05 3.162915353862347603e-04 6.870540348997900004e-02
3.337059674577047552e-02 2.731529950647448510e-02 3.650112416007156857e-01 -2.910214188804050164e-05 5.633953105045816367e-04 7.520610643311377574e-02
1.354165273647649909e-02 6.996416802794884482e-02 3.649094781355534112e-01 -6.145098811026782938e-04 -4.497463351325673678e-04 1.477950814407838487e-01
1.998573372073723584e-02 5.434130234305036694e-02 3.649500758929697941e-01 -2.555916630215550843e-04 3.235510824097727377e-04 1.577543712576933155e-01
4.662161060294828241e-02 5.181626773702244920e-02 3.650734783277163054e-01 3.424415656067003881e-04 2.918301361924329580e-04 1.630762768524968986e-01
3.758788171846474957e-02 2.155420631465154724e-02 3.650351982783889282e-01 7.332623571935001881e-04 4.496590591584935731e-04 -2.925843905586131624e-02
5.570342033676220495e-02 2.227892114798107892e-02 3.650027322916831185e-01 -3.382949505323712349e-04 -3.117014483160313824e-04 8.699987868168330973e-02
5.800962867892300173e-02 7.138753922144530292e-03 3.650127490986775358e-01 6.948922022388537159e-04 5.157926139641301304e-04 -2.987339642028272006e-03
3.138970489347889248e-02 1.290685165492150635e-02 3.650199782633167245e-01 2.004825561509595571e-05 -8.996692728732813386e-04 -3.589857998527135746e-02
2.385458279255185665e-02 2.179604703681659039e-02 3.649697628860416598e-01 -5.900407206110071809e-04 -3.021855598106645748e-04 -2.750275530403358329e-02
4.034031397410268310e-02 5.263177240631058268e-02 3.649721190280464933e-01 -2.849826702544193792e-04 2.067023468823255851e-04 1.547503695299299632e-02
4.249484480420527566e-02 6.019276374388854434e-02 3.649562341695821721e-01 3.043855116661864780e-04 1.651968835738037988e-04 5.661208740521447152e-02
4.906812745972955608e-02 9.063697407122833782e-02 3.648563038530865943e-01 -1.162207129581288578e-03 -1.144706103991445555e-03 -2.605609437405705803e-02
3.394226676842584944e-02 1.011829945668562963e-01 3.649848383734149992e-01 -3.032658697956633819e-04 -5.764262898290672130e-04 6.786747732121897747e-02
2.795137871864575296e-02 7.723648140220244762e-02 3.650216069028144883e-01 1.988956911628660205e-04 -2.469906981764330000e-04 4.866115227806579180e-02
2.386661918503838950e-02 7.885582462397740244e-02 3.650088549917979153e-01 -3.712304482730557822e-04 -5.436655990166572739e-04 2.856575824448711210e-04
7.040326133813734795e-03 5.309333978017530264e-02 3.651102450252828868e-01 8.571018078516361507e-04 -1.048282230025361595e-03 6.312497671263270216e-02
-3.802934043410247187e-04 5.514752327088316697e-02 3.649063212935886868e-01 6.837553998175455010e-05 7.839026523828425755e-04 -6.057769907257837955e-02
-2.037948132584327041e-02 4.653664555354630056e-02 3.650205629596137702e-01 9.235219962657053596e-05 6.702085501144876452e-04 -7.738740240147616578e-02
-3.781767292013638732e-02 9.138548764606126140e-02 3.650666961258708376e-01 -1.194172557766586679e-03 -1.981582960799017565e-03 1.660716902547104343e-02
-1.779240103842557805e-02 8.105726464567550305e-02 3.649737832446302566e-01 -6.474396397032950346e-05 9.286870079908646507e-05 -3.359634278555977821e-02
-2.298227753334996029e-02 5.267668094884735142e-02 3.650563355420838318e-01 4.674722297793782767e-04 -3.845378386868639436e-04 -5.645994032090889680e-02
-1.355678640663087603e-02 5.572685306449477738e-02 3.650945282574900030e-01 4.568028053467885737e-05 7.262219830281746880e-04 -5.759317768746968075e-02
-1.296111174172404415e-02 3.457242127776693347e-02 3.650257563394589400e-01 -1.648029543500791592e-04 -7.135949308183362665e-04 -2.870602547716419317e-02
-4.574453051565443434e-02 6.013077242968799946e-02 3.649386535132389531e-01 -4.330258366633913140e-04 1.248993091520618666e-03 2.395922040511469162e-03
-1.681835017762799275e-03 7.144525671564820601e-02 3.648999912694994019e-01 -1.438643432231789126e-04 4.137208938738710430e-04 -2.130561842080509055e-02
-1.671882313360695607e-02 6.455535807591393505e-02 3.649811208047460398e-01 2.651416292440443362e-04 -2.018796336392314668e-04 -1.286432583076127165e-02
-4.344201670609549454e-03 7.018607942341822947e-02 3.650208645852292544e-01 -3.187960735483319095e-04 7.108456318193285065e-04 3.105248049427671714e-02
-3.693838073112971215e-02 5.703945745820551000e-02 3.648846427740857212e-01 1.113244228926397149e-03 -7.190281448997463097e-04 -1.441963024285323747e-01
-2.941472851168701330e-02 3.633388554890960853e-02 3.649874625818013696e-01 -7.936594844416020120e-06 1.006466631637200574e-03 -6.074394000381324460e-02
-1.581461093049210329e-02 6.426898036798858738e-02 3.650574374247457232e-01 1.645013714507086275e-04 8.031825077032676060e-04 1.039211460347945759e-01
8.468018133480775811e-03 2.783598693421351564e-02 3.650230291753462364e-01 6.933945022742114351e-04 2.823225342559922547e-04 5.983172725104755896e-02
2.417183399797677087e-02 3.397579130422604538e-03 3.650229519872000838e-01 1.261348349636995760e-04 8.317212384752251369e-04 1.095365892528856466e-01
2.867143950020444379e-02 5.060108486033542546e-02 3.650793044060571813e-01 -1.179934738194839561e-03 1.425445650742566831e-03 1.751965079805159198e-01
4.156643369450825631e-02 4.476206476813641283e-02 3.649804120778081251e-01 2.694657245536543071e-04 -7.755805001112578510e-04 1.037513165882641419e-01
4.252683316314512241e-02 3.479019444599459974e-03 3.650267740227615132e-01 3.868270766120800305e-04 5.007191499924184977e-04 1.121966247810091966e-01
6.587724460832797280e-02 3.354391434747468464e-03 3.649549755885173052e-01 -1.015691596388089511e-03 8.006538335575012549e-05 1.758540875394490888e-01
5.504925819047098989e-02 9.198552912564104608e-03 3.649811249190377804e-01 -1.415656273629594514e-04 -1.051734531023852627e-03 1.292718564924774383e-01
2.529359565103682719e-02 1.367791927351068998e-02 3.650391222542569980e-01 2.985656972385305547e-05 -6.740988355893758315e-04 -3.964329499504869875e-02
6.500346538334063687e-03 -7.159634178613325309e-03 3.650441242261529551e-01 3.517078664000504299e-04 -3.672140905185533578e-04 4.181213354915387474e-03
9.426622128141368996e-04 1.832843525515535574e-02 3.650016264666559040e-01 -7.157884025587698726e-05 -9.530479635808623970e-05 -2.243582932022413975e-02
-6.083283319859200851e-03 2.928484572758785140e-02 3.650671841266991957e-01 -4.163953551547065475e-04 1.830057407216109471e-04 6.066732759079038889e-02
1.468450597446181033e-02 1.910431647265127195e-02 3.650314433732709252e-01 -1.120709777420162188e-04 3.917091286679624741e-04 1.835324051228762188e-02
2.400535885195806754e-02 2.647941520590988210e-02 3.649749852819438312e-01 -3.250713960840983998e-05 -6.117386762280454734e-04 7.025031674371381984e-02
7.815053411588654408e-03 7.547112874934151956e-03 3.650943869663126895e-01 -3.101254254362424581e-04 1.037092984832097909e-03 9.881172692924077017e-02
-9.398929915523986794e-03 5.845232758915529930e-03 3.650773788423006261e-01 3.616096144817025951e-04 3.042201426119677649e-04 3.809052378543789641e-02
5.190337797239935255e-03 -6.006165134688271762e-02 3.649724186121808822e-01 7.883865583835848907e-04 1.692619152607251513e-03 -3.920998136562097586e-02
2.779630293751090067e-02 7.190962512573889978e-03 3.650763619904024426e-01 -1.432547069319944910e-03 3.280263833740483070e-04 5.671410506460959622e-02
6.457998395666106339e-02 4.731867956742241699e-02 3.651290730966093578e-01 -8.498047200330922967e-04 3.573913977313519026e-04 -6.205348521984449528e-02
-1.541648515247686507e-02 5.406800750297945102e-02 3.648974137704008580e-01 -6.661532365225901996e-04 -1.736174214738647054e-03 -1.212106661530690244e-01
-4.456871064328596366e-02 1.813392849942987300e-02 3.649763678504678310e-01 2.601357067461427175e-04 -3.233715500841390241e-04 -1.607713724783827597e-02
-4.093787998859402949e-02 1.019463743023801654e-02 3.649938317421782541e-01 3.557218884365437122e-04 5.321548223769907932e-04 6.530871369804047699e-02
-4.908093609830913723e-02 2.168574451036739403e-02 3.646980102439527638e-01 -8.913457481759983533e-04 -1.714013667874825664e-03 3.324890299408731625e-02
-5.642524256845565800e-02 1.438516897775458242e-02 3.649860180550758004e-01 -2.535193195658162426e-05 -4.717343545904275026e-06 1.138557935788522685e-01
-8.738451759716878153e-02 -1.814363848882594860e-02 3.647611551550393738e-01 -2.759543230540687468e-05 -1.226097735482212236e-03 6.589492287249378022e-02
-6.308938672421948723e-02 -8.294816551442430776e-04 3.649691186658434727e-01 5.584827566080062923e-04 1.838207208481336266e-03 1.698815980031147255e-01
-9.080997936145805693e-02 -3.751468341133393225e-02 3.649704351041563877e-01 5.590648751133958779e-04 3.818392097266727430e-04 8.354215302952146260e-02
-6.636078598268700668e-02 -3.155408230976512740e-02 3.649483126563453639e-01 -1.124881737610761498e-04 1.958708746075643950e-03 6.907040120770456537e-02
-1.524605485923449626e-02 -3.069247975492107525e-02 3.651685432131392961e-01 -2.696123072487166691e-04 2.646024144125539270e-04 7.015146849923044325e-02
-2.487105007670978741e-03 -3.295228523522758524e-02 3.656380901369746805e-01 3.517924689792921097e-04 -1.468297510523978696e-03 8.164822011646408195e-02
7.304090295258645719e-03 -2.312937718295839454e-02 3.651647182706568850e-01 3.379113134471771604e-04 9.798195892083753325e-05 8.169883229193453111e-02
-3.665670371167065178e-02 7.259925447048759528e-03 3.650857239979263813e-01 -1.383637488275339276e-03 -1.032910736814975951e-03 1.047222284529726183e-01
-3.937262426817052935e-02 3.422772943342738267e-03 3.653281518855622245e-01 -2.847438370760712944e-05 -1.903504652518402126e-05 6.092964433653082212e-02
-3.425107117044388222e-02 -4.680653567475472759e-03 3.649202848333308324e-01 -6.367189844410060199e-04 4.305023092619573847e-04 2.430678262950949076e-01
-1.886767942433539499e-02 9.379690702824927673e-02 3.653078736894087575e-01 -1.183132766978189010e-03 1.775409849427593296e-03 1.386269549200083717e-01
-1.186522197473431281e-02 6.839678752098932168e-02 3.651342550510681129e-01 3.660559314037576729e-04 6.514608043797867100e-04 -1.867146516710824211e-02
4.822823181230351426e-03 1.851683836324681878e-02 3.656420919375166223e-01 2.452632796104909697e-04 -5.653372480079101731e-04 7.893284657329033283e-02
3.284907594871706166e-02 1.737280700310462472e-02 3.656217267850950803e-01 -1.320638686240280105e-04 -7.491101887969490915e-04 7.762434480063794273e-02
1.106693376989116573e-02 -2.955348635205033974e-03 3.667776435000797974e-01 6.610366120566469467e-04 -7.121469025980148651e-04 8.887751054605060042e-02
1.017708629622557370e-02 -1.768026545194162358e-02 3.667893382974237171e-01 1.558211386349818775e-03 8.775308158482159797e-04 3.831997837159088066e-02
1.164880487314840819e-02 -9.154370801375389874e-03 3.644073341877286931e-01 7.561167173849312265e-04 3.046958316661353174e-03 3.027820822782048907e-02
3.043250931925491065e-02 -9.063678192109176149e-03 3.652539639441556019e-01 1.513181122813506434e-04 -1.187925694655466661e-03 -1.373359110472945240e-02
4.053557891307459082e-02 -7.415075748269991246e-03 3.650486244842667816e-01 2.429551404472511469e-05 -3.194984404655695450e-04 2.505357326030316356e-02
4.472354386067650678e-02 -2.498749859953283692e-02 3.652417423633104732e-01 -1.440002461062053513e-04 -1.151540572553494358e-03 2.448154145459278952e-02
5.904674621042207625e-03 -9.866637558120476201e-03 3.651411783149770551e-01 2.511210155473277855e-04 -1.130092707966990880e-03 -6.195346416728448463e-02
1.618135758768170923e-02 3.751998423252486670e-02 3.650759493291224622e-01 2.317369132576233253e-05 -9.381889587536537895e-04 -1.273313022881234803e-02
-5.669215739634953129e-03 3.046722156273698121e-02 3.648552047643427998e-01 2.495937534581280765e-04 -4.263520896442240778e-04 1.522849586127126946e-02
2.119972611177273550e-02 3.383308542974057531e-02 3.650719726546681754e-01 -1.890345731250268543e-04 1.275448048922571279e-03 8.137619659031668229e-03
2.624164036318860777e-02 1.869898155903095688e-02 3.648986362511165149e-01 1.783009842232450019e-04 -1.146745013361275423e-03 -4.137841532783378268e-02
2.746986299088341119e-02 -1.067596234244670402e-03 3.648589656011076432e-01 -2.751748658410626842e-04 1.488529134105169181e-03 -2.643202494469139643e-02
4.146885455250350766e-03 2.269261609970974619e-02 3.647793587726819720e-01 -9.979273181724522676e-05 3.011630740242249174e-04 -1.685717206257508205e-01
-7.139216360729895919e-03 1.136481270254184432e-02 3.652206654289987808e-01 3.521378768737442764e-04 3.831250055644671698e-05 8.879694069537318046e-02
-8.926080684359116984e-04 7.998272463493403660e-04 3.648854393076526037e-01 -2.009605329419251291e-04 -4.854889699624310778e-04 -1.100277237796037227e-02
-2.237714483255785411e-02 9.931492976127880012e-03 3.652814234070439481e-01 -8.099229256593986617e-04 7.251784035713211519e-04 6.296979574680053315e-02
3.441031272691759402e-02 4.438941661487972104e-03 3.651832238667763741e-01 7.138420812785276775e-05 4.050306231023037117e-04 6.648196692216955250e-02
4.657047608829922858e-02 -2.807072710611007403e-03 3.650876278405930653e-01 -2.509042566430412730e-04 1.897061808401799728e-03 2.626533068692401759e-02
4.229438131963417224e-02 -3.770290347295652406e-02 3.649015639860518911e-01 2.919426127521635209e-04 -2.155593699178162768e-03 6.544045097804215838e-02
5.733834390476341691e-02 -2.001096406008226469e-02 3.652303937114625421e-01 -2.133612510278665427e-05 3.113666788169093536e-03 2.492845038240474043e-01
1.734706133102000350e-02 -2.424286783132393805e-02 3.648678865242043212e-01 -1.115165870990923258e-03 -4.965298522029175897e-03 1.196383993212534053e-01
1.267972368673448563e-02 -7.195467367909416656e-02 3.648718321242272467e-01 4.873625393000017647e-04 -1.710096394202604620e-04 4.660897940961927083e-02
2.203368132016447073e-03 -8.827752013876709325e-02 3.647348399579235512e-01 1.012126519515658485e-03 7.209089889842366580e-04 3.761258024562654650e-02
2.449553405097843004e-03 -5.715055840776745583e-02 3.649400359431197449e-01 -4.241115806262234439e-04 6.169748557943537364e-04 4.206224224091305308e-02
3.454719850617962718e-02 -7.390009252431796460e-02 3.649086023433831816e-01 -6.739006600810829549e-04 1.806799095061955912e-03 5.679292963131322980e-02
3.665799837063169614e-02 -5.551756178394982172e-02 3.652647891004570102e-01 4.282139174074501794e-04 -3.742645345439646136e-04 7.569535342839002479e-02
-1.582786568333929920e-03 -8.860314750282273499e-02 3.651684835366340032e-01 5.296620533863204009e-04 -2.763882295607096584e-04 -2.056218236137202088e-02
-2.401979821343303532e-03 -3.152232734828164240e-02 3.649175358764368271e-01 -6.743641054494697905e-04 7.717251159412800293e-04 -1.024820429179361609e-03
6.298175725099970645e-02 -7.234205770209473085e-02 3.645588904545125075e-01 9.521445071653584667e-04 3.067971256319629216e-03 1.406081719135267860e-01
2.118044341507062042e-02 -3.307758900795454426e-02 3.650536602252571483e-01 -1.097029223947597462e-03 -1.161107025916405938e-03 7.887534713962867858e-03
4.255658068607683781e-02 -2.922425121360710046e-02 3.649151364404407127e-01 1.086295515547738106e-03 -4.886945355096945515e-04 1.366305659094397551e-01
5.590114457941483539e-02 -4.233493555028138011e-02 3.650534675393143358e-01 -1.115364070326398333e-03 6.774216254688671199e-04 1.718805677781806707e-01
6.270420368412929490e-02 -4.512820284582635955e-02 3.651269311462000955e-01 5.956293912998314845e-04 -4.924548411796728174e-04 2.017853685764424143e-01
1.140033043325424100e-01 -5.913682453028384217e-02 3.648128088251980650e-01 -5.959084659618596198e-04 9.854968901199924556e-04 5.561098630019120637e-02
1.057845928637016347e-01 -6.628833782890203308e-02 3.649519685251161327e-01 1.009807230296627624e-03 6.849184697253850708e-04 2.341017912348049290e-01
1.138069306326423974e-01 -8.473147985462853304e-02 3.652401581165081734e-01 3.497346216906619320e-04 8.098323987100357118e-04 1.758946022272292742e-01
9.099016013663810409e-02 -1.797804869539862752e-02 3.648208871457953029e-01 -1.203940400408878061e-03 -3.431133713186551647e-04 1.957054115168853359e-01
1.051242944493216147e-01 9.345999577578785814e-03 3.650438736286308883e-01 -3.594182169739372642e-04 1.566738101903447297e-03 1.867335673092501008e-02
1.138129758186621349e-01 -2.668983809772680627e-02 3.649149642110074421e-01 1.488717194443590864e-04 -1.744279017490261031e-03 1.340165410506293231e-01
7.723247571410783718e-02 -7.717237692370632063e-02 3.649565467800643948e-01 5.298553629057538571e-05 -1.264342359535850695e-04 -9.213590487541703858e-03
9.358798521752562105e-02 -5.790759946389089502e-02 3.651837817013239285e-01 6.080854212166607835e-05 1.244868849712790250e-04 -8.719303806015121783e-02
8.755712134090420928e-02 -2.436256042020825893e-02 3.649954243723624314e-01 -2.531175041756505788e-04 3.713320426219719663e-04 1.528399197020839997e-02
8.947620071716957946e-02 -4.571783757717949592e-02 3.650044895413286916e-01 5.654728366883326812e-04 -2.314560583485177233e-04 1.128332157220083842e-01
7.493269688436908493e-02 -4.480302603503208414e-02 3.652421399287737458e-01 1.264364909886881089e-04 -1.112353736382033428e-03 9.117360303034974245e-02
5.667656983505673512e-02 -3.794918645397585971e-02 3.649493251726053655e-01 -2.148975125207368145e-04 -1.293712408960179987e-03 4.714329064345457176e-02
3.485279213608641347e-02 1.154798842353076289e-02 3.651226718046050590e-01 -1.540099628789190760e-04 -1.552355345816692421e-05 -7.804640670286644433e-02
3.757556267103891873e-02 -1.115266767845549470e-03 3.649261832141307837e-01 3.754035745159422090e-04 -1.073784846355411906e-03 -4.647483615573581861e-02
-1.021359699873491782e-02 -3.862155177997374234e-02 3.651302542778800397e-01 7.960114552560191680e-05 -1.793562726082146295e-03 -1.157131157111264824e-01
-4.943385098447628662e-02 -4.624530559080936715e-02 3.649366441543696604e-01 -2.102187925945985132e-04 -2.268751466759692369e-03 -3.478626222929157713e-02
-5.357675858108579964e-02 -4.396157751647423312e-02 3.649845143085114763e-01 -4.369938510469707923e-04 -1.403778728766060793e-04 1.156593551843288631e-01
-6.550923383990732429e-02 -2.998611813584228097e-02 3.649514892738123795e-01 -1.125941676483922658e-04 -3.589822155356448734e-04 7.250764746868944288e-02
-3.320765987913662509e-02 -6.083724908198835657e-02 3.649913406022007312e-01 4.579411495105825290e-04 2.708562730323189048e-04 5.377454894545717623e-02
-3.866249322540387529e-02 -7.205279774885833821e-02 3.650411910494120171e-01 -5.411571819990026837e-04 1.834229741347012687e-04 6.915472081659033467e-03
-7.494132489612317927e-02 -3.940661881666170790e-02 3.649249181956286670e-01 3.369402346326031156e-06 -7.670920357960133232e-04 5.412501594784523140e-02
-5.903244318768274823e-02 -5.616854580050788942e-02 3.650583148782007847e-01 2.607370832797253272e-04 1.926367706478479460e-03 -1.260692940155364872e-01
-4.387516527019712231e-02 -6.842857032205851286e-02 3.650019305856126439e-01 3.411244768866822114e-04 3.657434534453804986e-04 2.927805433757546538e-02
-4.227919026051623480e-02 -9.338783125385666239e-02 3.649231950427779259e-01 3.847143859887630635e-04 -2.582837586396173743e-04 1.634760112823032130e-01
-1.801288008172799091e-02 -8.510742025549325462e-02 3.650949798675989233e-01 4.045478364490412437e-05 3.724834157008778050e-04 5.756606042360528502e-02
-3.008968547475498329e-02 -3.992858303044803658e-02 3.647744289435802534e-01 -5.153985760594493020e-04 -1.269077570719744866e-03 -1.032794860626875567e-02
-3.326707076714697370e-02 -4.317274464452718757e-02 3.649894047956638854e-01 6.288782029669459357e-05 -6.114456481307228494e-05 1.714675253324799142e-01
-1.537046926990267258e-02 -2.320030648095838463e-02 3.650121287364843092e-01 -2.644249329381927107e-04 1.031405513459300247e-03 4.641079781102145502e-02
2.881074052363107735e-03 -1.868225313795112558e-02 3.651113420903406848e-01 -2.859871175893139079e-04 1.296470261589021148e-03 -4.692358471382616740e-03
5.597075761676167938e-02 -3.097256909202102809e-02 3.650859552924056173e-01 2.210173760048984696e-04 4.799683119220460770e-04 1.290878789947589103e-02
3.191326839678858968e-02 3.439061111410717658e-02 3.650464723478661355e-01 -1.261141104446814173e-03 -1.444375198114624661e-03 2.580702937118749610e-03
-1.617368514350644298e-02 -1.485016549948738745e-02 3.650057108634572334e-01 6.971631030292722809e-04 -1.310863480742011740e-03 1.312728266731164925e-05
-1.940946633980958347e-02 -2.690277485912938304e-02 3.650138536443449655e-01 3.361775542094777927e-04 -2.263255783428991372e-04 9.514858672168530207e-02
2.454264085098163684e-02 1.204045993856599044e-02 3.649167492000024993e-01 3.714614495506152799e-04 9.816593587388278835e-04 4.319585394245349652e-02
1.622597675372773954e-02 3.125236491875298291e-03 3.651126898009412480e-01 2.669239996640787146e-05 9.367852145971467578e-05 -7.041325214015065059e-02
3.197588205060628713e-02 1.180953553383957445e-02 3.649797169932959551e-01 1.842568913028834064e-04 -3.002342822195966767e-04 -1.469568988014005317e-01
1.043186071241421729e-02 1.034399942348366956e-03 3.650123340874061872e-01 -2.205723641207456417e-04 1.237781165943738432e-03 -1.423362625503475642e-01
-8.539442126480714960e-04 3.529400487384813656e-02 3.650033905654865296e-01 1.403338727054851342e-04 1.830338196467384555e-04 -8.724736909705275989e-02
-1.273499254501321391e-02 1.579842649435838741e-04 3.650568700352082585e-01 2.867298394562996103e-04 -1.336980541337752276e-04 -1.249278320318191193e-01
4.414833512114029086e-03 -6.472263027896241541e-03 3.651021593598887671e-01 -3.290439447539569785e-04 8.656035168928356621e-04 -2.715178729083926427e-03
4.699280410400101179e-03 1.232704119808341030e-03 3.651265879652482171e-01 -2.756559396400587165e-04 4.329104959365409123e-04 -3.899352875701740662e-02
1.133390152596274077e-02 1.777389889469549455e-02 3.650146863861467583e-01 5.687770402226749282e-04 8.431122952934715607e-04 -1.252230250032309034e-01
2.021579189065134813e-02 8.565958022094372071e-02 3.650594284283696367e-01 -8.967670825881196399e-04 1.189997538726404128e-03 -1.003291038207054786e-01
3.024470337290233179e-02 5.458266480869062437e-02 3.651050478943109745e-01 5.533211858904342950e-04 -6.206560937470139783e-04 1.227456390411616957e-02
3.796141633142262328e-02 3.907867650812076044e-02 3.650359580880697119e-01 -1.629117317850111812e-04 8.629324283117119007e-04 1.357413917385037194e-01
1.671473704917601083e-02 2.341742420062577559e-02 3.649742539944192954e-01 3.038072712016117729e-05 -1.309572254981310863e-04 1.762593275474791041e-02
-2.944920039698279909e-02 5.239583008759154253e-02 3.650117006463868830e-01 -1.674394482917090866e-04 9.806188284243819858e-04 -2.181441275634508556e-02
-8.627713386997365105e-03 3.688791323352823975e-02 3.651453753636314525e-01 -2.045924576268407684e-04 7.876050795777498042e-04 7.711755286318186520e-02
3.380348088272281531e-02 1.858307037048093427e-02 3.649848606160096542e-01 5.800591834255248340e-04 2.914196293678060902e-04 1.116606061106833192e-01
2.466506343535767795e-02 1.863155871613542472e-02 3.650443834265344467e-01 4.093043621861056612e-05 2.680085566102779690e-04 6.216474416923167823e-02
2.597944898655573862e-02 -1.578831296940554074e-02 3.650341004902696307e-01 5.906107901833616532e-04 -2.540178503948004670e-04 -6.181383760340869622e-03
2.656539867851324260e-02 1.612768263896480897e-02 3.649848349663348257e-01 -2.122333701785771487e-04 -1.384846496255419152e-04 -5.922543607874430904e-02
1.336879981728426522e-02 -1.265917510191221385e-03 3.650501144566080658e-01 1.035183347082773504e-04 -5.282562369522638595e-04 5.997325469598437792e-02
5.611886249299534966e-03 -7.981234968094025328e-03 3.650095544587086960e-01 -3.124489608590776883e-04 -2.322597477542353076e-04 -5.291767640362943920e-02
1.434255789121254704e-02 -1.107969907913660887e-02 3.650130294621525828e-01 -1.411562839112091871e-04 -3.948767230617883053e-05 -2.496815011062829270e-02
3.586471307445747176e-03 -8.047308407644178374e-03 3.650042803081342546e-01 -6.705776305907981119e-04 5.011497797287137743e-04 -6.282532368833178803e-03
2.432332352004064509e-03 -1.407647171534057336e-02 3.649938851127592088e-01 1.708135872000579521e-05 -6.310856311363613599e-04 -1.162061359291559764e-01
-1.198511289300712920e-02 -4.697231749915752735e-02 3.649724421685994757e-01 -4.593365403300948705e-04 -4.520508993991781638e-05 -5.633360169925422101e-02
-1.842901877213024703e-02 -1.707759428158685949e-02 3.650129928853397265e-01 -4.276168148411725297e-04 1.456486203236647889e-04 -7.021852047749485570e-02
-9.019274735454522671e-03 -1.683148753144438070e-02 3.650988022631497243e-01 -5.005044126791375302e-04 -1.556533064365058991e-04 -1.182236213399172897e-01
-5.264229626403078323e-03 -1.313551000445511291e-02 3.649443023153675636e-01 -1.606570980542808443e-04 -4.871130628735314779e-05 -3.572085732388592672e-02
-1.801233087743328576e-02 7.140286342611505167e-03 3.650365040231400293e-01 -1.798117068642283002e-04 5.991708968144240444e-04 -6.803840661353072194e-02
-1.308712887709236267e-03 2.215497831631485851e-02 3.651919909065126646e-01 8.795000588645155489e-04 1.672327337391685048e-04 -7.650020190204354087e-02
2.437435413437334230e-03 4.358384622230248445e-02 3.648390927665866590e-01 -5.853454014188396023e-04 1.335687408324539281e-04 -1.133961466687395669e-01
-2.995275128004430340e-02 2.893179367254451045e-02 3.650894487290892165e-01 3.729495428032057270e-04 -5.084760333206202448e-04 -1.251495083297295974e-01
-2.846519505789527754e-02 2.420444963478678158e-02 3.650616560961581492e-01 3.251932459664604578e-04 6.980726019569606167e-05 -1.022326038706623252e-01
-3.519419994598195489e-02 6.253072105057392617e-03 3.651205310792150494e-01 2.568895708480959522e-04 -5.583773009667972577e-04 -4.174015068724440392e-02
-3.074192639402763619e-02 2.281888637923726662e-02 3.649183159876824289e-01 -5.993205079460130246e-04 1.747490535446683229e-04 -1.125212688319655735e-01
-2.390312410042154737e-02 1.145950471940066460e-02 3.649882630452370158e-01 1.896301328097771177e-05 3.306076547642853940e-04 -1.241584883704470038e-01
-2.125034589257824430e-02 3.186515340021810888e-02 3.650391467317331551e-01 -3.803545297706483136e-05 1.726074080579916148e-05 -1.337860061666201750e-01
-4.643857385194097472e-03 2.360844564576786847e-02 3.651232701327769004e-01 2.982626142688967461e-04 2.126310937239803090e-04 -8.928191069828850246e-02
-1.283042585775913229e-02 -2.258325123968530311e-04 3.649551066793156884e-01 7.027023433718556159e-04 3.064496650704108321e-04 -1.300462393984711806e-01
-2.340366034697315481e-02 3.374427437216215298e-02 3.649890465686723151e-01 -5.408423904805401920e-04 -4.070793343560044956e-04 -1.134647945977358130e-01
-1.748081118783377519e-02 1.848715108433590312e-02 3.649875011058939522e-01 -6.848870570638001002e-05 4.994737455058935021e-05 -9.351860553648030927e-02
-1.295148181649286630e-03 3.055425488716834170e-02 3.650908279491439923e-01 -4.455675848946620120e-04 -1.728246308892008502e-04 -3.188773539549088348e-02
-1.229549070739277723e-02 3.684589638193384170e-02 3.649408227013036798e-01 2.353629826480042064e-05 -5.948901664690024060e-05 -3.681876848963257232e-02
-1.526792375014237799e-02 4.595359218556337860e-02 3.649110162830161430e-01 -3.018120776228529930e-05 7.782304955704975153e-05 -9.830893800393207538e-02
-2.246591583102293746e-02 1.728117696352410304e-02 3.650243751964024619e-01 5.891996179287910295e-04 -1.468395516677391136e-04 -8.838697787945645756e-02
-2.599800946848687677e-02 3.159387187636186062e-02 3.649621172503227373e-01 -2.682002354072582622e-04 3.095979328591128704e-04 -1.426898200268373607e-01
-2.104442841417029919e-02 2.040832816299824326e-02 3.650860054844693448e-01 4.923417044086998619e-04 9.054222903611588015e-05 -1.175792050283274298e-01
-1.118530474802403168e-02 6.204802464039851397e-03 3.649824790359799676e-01 4.611628777117319356e-05 4.041064227824380699e-04 -1.460953008821028465e-01
-1.184100329185112932e-02 1.604055469997109698e-02 3.650110514466938794e-01 -4.362192538333785298e-04 -3.174775453348259988e-04 -1.088980572050736451e-01
-1.593617426257870270e-02 3.259773000944950379e-03 3.650197442252922642e-01 1.320192334760609241e-04 -1.659293955835909932e-04 -1.025781769532793930e-01
-2.157087704775762990e-02 3.070340851498450790e-02 3.649941839804213828e-01 -4.854070387259510851e-04 -1.954359065798128361e-04 -1.079418385048577650e-01
-1.247425366960437827e-02 3.233969772749362842e-02 3.650079639485534488e-01 -3.840466767383165510e-05 1.646016081664492534e-04 -1.161719999069256298e-01
-1.719221916942945821e-02 2.996029182626778337e-02 3.649481002827045240e-01 3.447634479747410077e-04 3.608723771209208461e-04 -1.721520050237236032e-01
-2.598207617226740498e-02 3.100896658058762204e-02 3.649800773121993358e-01 -2.936720904222898574e-04 -7.866307316017047500e-04 -1.155723334028914001e-01
-2.688516674563105197e-02 4.610418806886275311e-02 3.649821816508959649e-01 -5.478130175056171490e-04 2.760575234236525280e-04 -1.300785344237955776e-01
-1.468908000190778662e-02 3.236420891410488748e-02 3.650611489138440580e-01 3.695419087473172286e-04 2.902893402384245638e-04 -1.174532932690340731e-01
-1.069560450629711799e-02 3.096073790787291086e-02 3.650482706852901105e-01 1.747237029013869712e-04 1.047235257367140171e-04 -1.040945913997864958e-01
-5.279856526248775765e-03 1.777149824999698854e-02 3.650335837520434223e-01 2.336320957380431192e-04 -3.261687974569028111e-04 -6.608598056817291400e-02
-1.531286779759732930e-02 9.486281777400157322e-03 3.649415613396500557e-01 1.259164666536965115e-04 1.766309968294046864e-04 -1.104399228539039296e-01
-2.512803361634099921e-03 1.558342444564336272e-02 3.650536433723200469e-01 -1.760721157883666512e-04 1.571920423683361432e-04 -9.708304066274189847e-02
-1.918859223712774840e-03 1.778809405955387307e-02 3.649979027669082443e-01 -2.444983430391938959e-04 -3.023685299696434359e-04 -6.766581328413767693e-02
-1.751098782290555836e-02 5.122544138752228859e-02 3.649135259533422548e-01 -4.291450461509942931e-04 -9.382052367572693411e-05 -1.168619246598334854e-01
-2.525597584011209096e-02 4.364775990829357355e-02 3.648840562509674257e-01 6.634802213684975721e-04 4.364151349928147255e-04 -2.020855670431322970e-01
-1.884891873648016428e-02 3.248633088077221287e-02 3.650846345221473443e-01 -1.003107556709537969e-04 -4.690821904825671169e-04 -1.125574108374450683e-01
-1.828010303507565659e-02 2.629540331545526105e-02 3.650282131868525237e-01 1.196404490008575849e-04 1.232439279742692981e-04 -1.231863763446207627e-01
-1.850594426514405935e-02 2.878405651006990529e-02 3.649791955799156495e-01 6.182503166384442357e-06 3.185230381653406518e-04 -1.474692096920677542e-01
-6.699332693192640992e-03 2.278775857644251002e-02 3.649712420912795130e-01 2.230164752864983709e-04 3.758523016570111436e-04 -1.817281932298987768e-01
-2.185786754615002755e-02 2.892967804145489975e-03 3.649995198564509047e-01 2.920770731968852008e-04 -3.353720198109828377e-04 -1.413813593025621540e-01
-2.109898157845036329e-02 1.380790449207960902e-02 3.650258083610393722e-01 -3.356265311330357205e-04 -3.091925500520713993e-04 -1.192685969416652225e-01
-1.416767649814234566e-02 2.629591940483241852e-02 3.651057522958413570e-01 -2.947238222645874638e-04 -3.582701414243931351e-04 -3.369705355155379334e-02
-2.699975593441654789e-02 2.844183441640836529e-02 3.649590010409464735e-01 1.063402324198475026e-04 5.269534598041797921e-04 -9.438203456554208892e-02
-2.418376192397377403e-02 2.065424380942081431e-02 3.650066864865270655e-01 -1.503922474717173765e-05 7.669534401528480211e-05 -8.693680288811586609e-02
-1.630210551133574187e-02 2.723499916198778709e-02 3.650850113999856150e-01 -4.985472868670889440e-05 -2.288144584669882047e-04 -6.099638516867473409e-02
-4.152006004790732840e-02 3.287108926960094490e-02 3.648289780488869760e-01 -7.187300619095539789e-04 -8.906781123941732861e-04 -2.332601665255645135e-02
-3.292902476550657598e-02 3.579214770805572848e-02 3.650279388713567608e-01 4.602177299029236533e-04 -8.251985800983450883e-04 -1.506172190742219308e-01
-4.912333040168007786e-02 6.361017867243955182e-02 3.648848185765674601e-01 -7.308819098848336670e-04 -4.292438871433148064e-04 -1.582043140843602397e-02
-4.002213184418355885e-02 3.136730615427003876e-02 3.651030000435832590e-01 1.375106490816446151e-03 5.608778067266161635e-04 -1.282502608100100638e-01
-6.026081906768085417e-02 5.083089896552865639e-02 3.650835696290912757e-01 -9.116781414151104920e-04 -8.852127305732963251e-04 6.544261518313304604e-02
-3.572286646959688811e-02 5.386821536301646812e-02 3.650457993712382665e-01 2.937648273988336528e-04 -4.811274780182573453e-05 -7.904731646966862979e-02
-4.315680793955845723e-02 5.533399023524537136e-02 3.650022415396807496e-01 7.342557772321720239e-05 9.991653480777512933e-05 -8.549144819582427113e-02
-7.656329841378180234e-02 4.540524942715792878e-02 3.649740334480318094e-01 -3.623851210125885749e-04 -1.851120069108848950e-05 -3.375104912752173447e-02
-5.405190899030790780e-02 2.444757960952073303e-02 3.649437671820685569e-01 -1.887768138705242884e-05 4.076961247535621164e-04 -5.734396676093173745e-02
-5.721585210546856898e-02 4.867947464128338092e-02 3.649781085166271533e-01 -7.990589359449913826e-05 8.075909904685669841e-05 -3.871093691031993883e-02
-4.768242878208434066e-02 6.301013630709283164e-02 3.648948225832154835e-01 -4.463942241084613034e-04 -1.124061475210166909e-04 -1.424132004089465747e-02
-5.982120095041700697e-02 6.478175891530327246e-02 3.650184373308241748e-01 2.752162088106422278e-04 6.181135505292046305e-06 3.791980343147858395e-02
-4.147968802937424676e-02 5.061544758144230494e-02 3.649723562814851663e-01 7.289680369088490011e-04 -1.069113715127568105e-05 4.649693899720230145e-02
-5.304883823383117758e-02 6.434105091998476578e-02 3.650208041465453634e-01 -3.339486748799875963e-04 -2.958228954093105548e-04 1.033419637507902861e-01
-3.381933100866391095e-02 8.146967895648762892e-02 3.649049987450813104e-01 2.398099788659028111e-04 7.197764405294312809e-04 6.297253738961787473e-02
-1.067830011962138913e-02 5.998636195335208671e-02 3.649782985473190577e-01 5.775280597156435668e-04 4.691776926004668168e-04 -7.849945404492257583e-02
-2.066324049261223858e-02 4.033789294724451219e-02 3.649331922764527114e-01 1.692292704469093492e-04 3.148628788995731917e-04 -1.077465158050341931e-01
-1.735558822481415159e-02 4.893293273727290088e-02 3.649906816035548562e-01 -1.941282634444568982e-05 1.684014653597825718e-04 -9.024638369070600574e-02
-2.573560901715411450e-02 3.438055604703441070e-02 3.649940950016460350e-01 -5.732828381510028437e-05 -2.639022959791882564e-04 -1.722700332993053196e-01
-5.431665646092645461e-02 1.790024584418015846e-02 3.649577621018687545e-01 3.229699809201512484e-04 -7.715841469145654375e-04 -1.211309980733908664e-01
-4.885596143043008377e-02 2.746811298629951541e-03 3.649030815518178317e-01 3.743569668805378243e-04 4.738978762589738888e-04 -1.303934098005762321e-01
-6.816955299627393272e-02 -7.546937295949658099e-03 3.649829573254407267e-01 5.073386804755728623e-05 4.628538034206573223e-05 -2.043834306274839863e-01
-3.213346787588542558e-02 -6.882902365959933134e-03 3.650047433349494219e-01 -2.272912231739564095e-04 2.235291433126659411e-04 -8.052922456182633887e-03
-2.805430592793601088e-02 4.009272799646837471e-02 3.649179171777805486e-01 -1.478725783744835160e-04 -4.809344035629762497e-04 1.351473105116762427e-02
-2.931750928108023749e-02 4.852087321618341054e-02 3.650490407840109031e-01 -3.968012648404271609e-04 1.574093013820184459e-04 1.380046364500184808e-01
7.285192425969380658e-03 3.839915718204462564e-02 3.650097467828976594e-01 -3.367683172906450772e-05 1.875611219133759759e-04 6.072070220653159878e-02
-2.079101566302581777e-02 3.400695665582648131e-02 3.649863226064216093e-01 -1.140833622560128645e-04 -8.798622988816116799e-05 3.674345380400368538e-02
-1.498140577652571151e-02 8.755798062976069551e-02 3.650224934795056053e-01 -6.468877187172814580e-06 -1.895772103749609864e-04 1.567307088277165583e-01
1.336965857752595715e-02 7.492756280558170168e-02 3.649060098219716886e-01 -6.646693393079714245e-05 -6.850458483216944781e-04 4.196447296110194375e-02
-2.695144574924505584e-02 7.110111563624324504e-02 3.649248389345066679e-01 -1.500277019394517190e-04 -4.125532316329098121e-04 3.445640057588449101e-02
-9.543035672959426091e-03 6.917372992552851818e-02 3.649900442998630368e-01 3.315533166553287503e-04 -7.729869625811676892e-04 1.073473488496528294e-01
4.757341986480448544e-03 6.025808292142587064e-02 3.649495997135517866e-01 4.418059667816783974e-04 -4.939011001924436834e-04 3.835486589543642133e-02
2.897792857366427149e-03 3.731078831679501828e-02 3.648572010000111776e-01 1.625719684030570980e-04 -1.895470377696904579e-03 7.423654950060118440e-02
1.607290278389408855e-02 4.250084451754057580e-02 3.650181973830040061e-01 5.418934155504010527e-04 9.185807278140437375e-04 6.362397208792036629e-02
-5.012045285999998552e-03 2.944486631209926666e-02 3.649215477677453801e-01 1.674146656238316943e-04 9.223167466226595956e-04 -2.757419975549800506e-02
-5.400585189807166793e-03 2.502674388239621572e-02 3.650505601994566418e-01 2.896304518352081137e-04 -4.289646555718155778e-04 -9.472900290629891751e-02
-3.320400488161889818e-02 1.930462664544620524e-02 3.649663144149338789e-01 -6.668297036330536999e-04 -1.076305440307561085e-03 -1.526124036880868173e-01
-2.188430956301122554e-02 3.034151140763228019e-02 3.649237411215451310e-01 2.837108459484504017e-04 -5.936428724264908243e-05 -8.452466758389488855e-02
-2.281897340339411953e-02 1.308190725507201932e-03 3.651014539757349020e-01 9.576925241416697147e-05 8.803827309489378533e-04 1.573701241233538967e-02
