1.540449364336068591e-02 4.726342392500301748e-01 2.089797374287605813e-01 1.379218320543594056e-05 1.055242818109649325e-03 -7.068765265221181593e-02
2.095876458374105675e-02 4.931191272592328478e-01 2.093657564670459159e-01 -5.471555576189623049e-04 2.134845621606515028e-04 -1.898999447840046539e-01
8.559572736434964413e-02 4.177716639228889473e-01 2.095638001367809422e-01 1.063134604343036636e-04 7.214194360318542309e-04 -7.118164418760400403e-02
5.517699951102726652e-02 4.251567395318497922e-01 2.097416508489570730e-01 2.586046481305718961e-04 6.737231638210369094e-04 -2.106453362516645667e-01
9.683067980677734221e-02 4.273201069732592283e-01 2.100916743531214825e-01 -4.876059696561990892e-04 4.152618861750128677e-04 -3.536180648304886320e-01
2.027680230854798579e-02 3.757823319840015164e-01 2.091992773053489296e-01 -1.200946356627111540e-04 -3.922499907101367083e-04 -4.680939328797046883e-01
5.246720551745873845e-02 3.555722173931059604e-01 2.091343635737851203e-01 -2.260885666168887110e-04 3.672325563079094574e-04 -2.638467536929234303e-01
9.443160699005395675e-02 3.873787669155449032e-01 2.095282481783097284e-01 1.806362725746173603e-04 3.352836153643802965e-04 -2.989558833085004252e-01
8.635009009060723439e-02 2.953311469603322470e-01 2.098764070790098968e-01 1.819632437469168214e-04 7.702182198542353257e-04 -2.065920021725416722e-01
5.390986567567260246e-02 2.636830792910502264e-01 2.100682808817556091e-01 5.219538789963689860e-04 -6.081981322495775069e-04 -6.353140327330754067e-01
3.481598509217333215e-02 3.638421407448323430e-01 2.099688024103897876e-01 -1.501806305771316639e-04 1.165445627975331437e-03 -3.381682010841610686e-01
3.251966429105345585e-02 3.702802848277108039e-01 2.089757989178965825e-01 1.077532860477852541e-04 1.398822196118896600e-03 -1.963460072687009950e-01
5.326669559372824991e-03 3.860835369431243613e-01 2.092611412005618843e-01 -1.726735449831508096e-05 1.423541727876016360e-03 -1.724421939161762118e-01
-4.113786302108196624e-02 3.263891259592918703e-01 2.093284701721354057e-01 -1.656256168387819705e-06 1.428216979073496920e-03 5.085240578686398005e-02
-3.755128892908127236e-02 2.944597912842806253e-01 2.095780616782185746e-01 1.084377999320162484e-04 8.358673457270478051e-04 -7.616069111176777817e-02
1.972275719743845496e-02 3.562771979581472181e-01 2.096309360957250290e-01 1.060951002362031198e-04 1.234259843173064058e-03 1.530936428620359620e-02
-1.814875185926129522e-02 3.682482703867474561e-01 2.096410469177636959e-01 3.780647292364632317e-06 1.230395519090373129e-03 3.143438309979093570e-02
7.374980471886713462e-02 3.673032396949413858e-01 2.097695103704256825e-01 3.235400139809449239e-05 2.192811827651324451e-03 -1.772671391866127433e-01
1.250240363003845001e-01 3.488695730615297697e-01 2.099415144481561746e-01 2.723135348267383907e-04 1.276278025252612983e-03 -2.604102345688389941e-01
1.656238011068184579e-01 3.461957700835300300e-01 2.100714731152000803e-01 -3.815254732291096162e-05 7.818428336912309996e-04 -9.781997275363568667e-02
1.707665358414551388e-02 4.067975053067950930e-01 2.099971938450400089e-01 -5.029472406145544389e-04 4.375702607356599235e-04 9.981750868860186920e-02
-4.004179152907155065e-02 3.931945569538434215e-01 2.090122668486187885e-01 -7.976053903375222647e-05 9.554250621370341057e-04 -6.513014137446966612e-02
-2.881021126012017416e-02 4.710562200053540760e-01 2.088997316228348167e-01 2.985823642256851839e-04 1.046339839039734905e-03 -2.340560904652748409e-01
-6.725556381585112709e-02 3.495701510790079070e-01 2.090810212555543890e-01 1.960543382146547997e-04 5.973034666643894063e-04 -3.012801742621400852e-03
-4.126893646310062641e-02 4.001732090343321779e-01 2.092772268788026246e-01 -1.003974141536142703e-04 2.847959571675903723e-04 -6.013110143981758443e-02
-4.215334684086832762e-02 2.610792812849074274e-01 2.092579352754005417e-01 2.573387370121216016e-04 5.730013040498361555e-04 7.716036699318304382e-02
-1.691807561652285408e-01 2.111552293241388822e-01 2.094895437502338198e-01 1.630812553029458909e-04 -7.358370840555685313e-04 -1.775674675880689335e-01
-9.420834710892465880e-03 2.893971696390302273e-01 2.091164686024654662e-01 6.350452852315980137e-05 8.385603632432587357e-04 -2.066031896565425074e-01
-2.253561638157224392e-02 1.957529825432171855e-01 2.092310263683360705e-01 -1.472540568900232200e-04 4.357397685768016316e-04 -1.541687940489839537e-01
2.130809291113103937e-02 2.683638691363121609e-01 2.091739784573645178e-01 -1.066508435505123231e-04 7.593635073793867556e-04 -2.891398692861173458e-01
-2.179390566175207558e-02 3.045961624088489583e-01 2.091570784358369184e-01 3.236837554092632566e-04 -2.245248365841145445e-04 -2.243770350779097644e-01
-3.886947632516773304e-02 2.184004331430395296e-01 2.090650286879391917e-01 4.419917185773607855e-04 1.450050480231419934e-04 -1.915618960708692642e-02
2.688750039092117905e-02 2.574152996979491292e-01 2.102942318409100619e-01 -9.233797634681342227e-05 1.789996428819088390e-04 -2.036236926915789835e-01
1.178181934497109576e-02 3.173323455093439716e-01 2.102050548030920396e-01 -1.245810892635732664e-03 -2.613137797039239265e-04 -9.840979771440376556e-02
6.835552484651541416e-02 3.220189183323613480e-01 2.102048448684175619e-01 2.666443102188919331e-04 1.207975911699199229e-03 -1.650361903243619810e-01
8.132999546905629595e-02 3.016338929707181871e-01 2.099924083059064861e-01 -5.484082601818900419e-04 9.163731843044062124e-04 -8.971067772757135295e-02
3.276568081837147317e-02 2.984498362960480433e-01 2.101176261453547300e-01 7.057511044387674345e-04 -7.313275021998201812e-04 -3.210163384692035771e-02
-3.820330485976197038e-03 2.505032712896069769e-01 2.101310809476493735e-01 -3.855691715189599449e-04 2.203530533932425276e-04 3.544231897549061233e-02
-3.432505769204231838e-02 3.505976835696835159e-01 2.099607620499593374e-01 -1.011063832411911731e-03 1.443599206887336310e-03 -2.375726388217404006e-01
-2.839869725494216512e-02 3.550446888431678105e-01 2.097269616811923698e-01 7.314126917962474267e-04 1.958802110160199803e-04 -3.576750097391220296e-01
-8.926366874602406631e-02 4.553410495363318655e-01 2.097543724544904675e-01 -1.005032469484427567e-03 1.229754643427434491e-04 -2.853971848282146895e-01
-1.681098483278847810e-01 4.101753909768658946e-01 2.096757504987905585e-01 -7.713928779194152013e-04 2.225841498659938370e-04 -3.292474835717961734e-01
-1.122794196640452408e-01 4.212021380025739448e-01 2.092586149188899736e-01 8.710405459830491449e-04 2.030253921496164623e-03 -4.114406232206486158e-01
-1.313504392153405920e-01 3.807490105665950475e-01 2.090272553971480596e-01 2.205962393165325931e-03 6.953069947925002742e-05 -4.303798183234122665e-01
-1.028987622610193498e-01 3.669487810618030643e-01 2.095531404841126655e-01 -8.810236279951518500e-04 4.357463152079746696e-04 -3.638754043195728816e-01
-1.721166208119976060e-01 4.171382302424897492e-01 2.093053053360655058e-01 9.942398890223371442e-05 -1.777046322696172688e-04 -4.804476763183080923e-01
-7.272969258359440747e-02 3.845975715025182207e-01 2.093355636718481905e-01 -2.795275905779431662e-04 3.927385181329999444e-04 -3.256866636487000255e-01
9.455859643294945577e-03 4.340531914003909475e-01 2.094355162639435775e-01 1.714689601474080375e-04 1.225660286782753305e-03 -2.563724964827069353e-01
-1.118252859554670353e-01 3.276761534765255668e-01 2.093022671968046144e-01 -4.047972388152683222e-04 5.294527107196524271e-04 -2.535612684946235706e-01
1.609703608316609413e-03 3.695673128107212491e-01 2.091759855368595100e-01 4.657994428386804699e-05 8.611872479305979471e-04 -3.698333618282148016e-01
-7.919180737963274486e-02 4.455053023565873072e-01 2.091966016879913126e-01 -2.670090111191565033e-04 2.254944316407081272e-05 -4.490516677821727587e-01
-1.173322526262794430e-01 3.598683398836737823e-01 2.091270704116017232e-01 -5.820056423840451226e-05 4.391885080778477218e-04 -4.754539370431378753e-01
-4.629082209245695412e-02 3.435986773280838014e-01 2.090152770118345327e-01 7.437363979537141398e-05 1.086635507836203286e-03 -3.771038455345812057e-01
-8.616668582781157604e-02 4.149889802677654282e-01 2.088450927462274787e-01 -2.595488572714495907e-04 7.586754711794484272e-04 -3.367643877309378642e-01
9.667002349501158109e-05 3.723648986204877720e-01 2.101901507671781189e-01 1.257884361322146810e-03 9.386918100856817644e-04 -2.699553239674226668e-01
-1.422500184620789469e-02 3.657905589464969243e-01 2.100402447509899795e-01 8.324407649237345813e-06 8.750032394697722024e-04 -1.790216686040675687e-01
-4.128130109783614138e-02 3.319243327534091570e-01 2.100569521268276785e-01 6.986869428040983127e-05 5.442394016584169939e-04 -3.035135668149081534e-01
-2.496439283160751046e-02 3.490362727945042765e-01 2.099729535676219117e-01 -1.072926539441129657e-03 2.001941400026580574e-03 -1.711393352240694610e-01
-1.166334100825023173e-01 2.489472810489002097e-01 2.098583439049603316e-01 4.706484350630212509e-04 1.017922119872875829e-03 -1.763896731836778753e-01
-9.935237369084137793e-02 2.391769970962479008e-01 2.093124476034125547e-01 -5.612038902176845755e-05 2.210072437685465553e-03 -2.866101861622487590e-01
-5.088361110913766638e-02 1.901585281346306611e-01 2.100344749559111546e-01 4.046259514966349911e-04 1.897549982758393655e-03 -2.251348918851915071e-01
-3.401606258360707902e-02 2.204540499460087011e-01 2.095718429085046131e-01 -3.370795065039746698e-04 1.791441785760254559e-03 -2.444035480300888463e-01
-8.966739587728049521e-02 1.822605136342749788e-01 2.102071608399257996e-01 4.577163784386348061e-04 1.453991396507089279e-03 -3.211534766918945905e-01
-5.253881649814540200e-02 2.076748268615168924e-01 2.095039416729539417e-01 -5.629991507301051632e-04 2.557827353475543471e-03 -2.287147006047547115e-01
2.047689167229070628e-02 1.889895736893945632e-01 2.099719629498387752e-01 6.803680545124565489e-05 2.037754815293695097e-03 -2.709447504990182831e-01
4.397680751914360975e-02 1.631988596761205224e-01 2.103084836368587229e-01 -3.530598397701031964e-04 1.910375187440937301e-03 -1.932783130377657976e-01
2.528616111749107734e-02 1.628822146518209280e-01 2.095581917415779150e-01 -3.650211530580599063e-05 2.051306195538861715e-03 -2.585438926101199519e-01
7.028312725603892697e-02 2.650896872321689690e-01 2.097514145869831537e-01 -3.372870301377384672e-04 2.146959965642798295e-03 -2.527767809856868997e-01
1.925384000623836869e-02 1.103873564326741663e-01 2.100534006226789097e-01 5.905929033959225489e-04 1.763142428897160503e-03 -2.310282608321700126e-01
-6.598338488021739806e-03 1.763908012333364750e-01 2.102679435232784888e-01 -6.241404231673589259e-05 1.873440630772972570e-03 -1.657380947394617721e-01
3.749996281128501613e-02 2.131704105466058485e-01 2.094015762792213464e-01 1.863976734208113676e-04 2.087095942114381049e-03 -2.041183720204599872e-01
-2.284888371802920939e-02 2.805147475942888491e-01 2.097721170556744452e-01 -6.979454100432508183e-04 1.547139492052335185e-03 -2.548974435854660103e-01
-5.069647888272257180e-02 3.514210268037412654e-01 2.102902544765322679e-01 -1.114287592414785243e-03 9.248860111348894322e-04 -2.627439801409680031e-01
-1.304250043003461410e-02 2.283150014448797338e-01 2.097887360945965285e-01 3.847639057247178164e-04 8.995823018877126438e-04 -3.945644732318701053e-01
-6.938915558212271906e-03 2.176994860368741402e-01 2.102400239358959699e-01 5.552485016171921674e-04 9.262108340833115436e-04 -3.464834098498004722e-01
2.530783193743021964e-02 2.158765065489138824e-01 2.095093402298671692e-01 -1.920652461802485481e-04 1.049613144384774774e-03 -3.552462479310475318e-01
7.283321891725602626e-02 2.539391045036608063e-01 2.103233439662172133e-01 4.154643643581541540e-04 1.101274007498168278e-03 -3.628078979863919029e-01
1.079044835086212795e-01 1.858449480247542918e-01 2.096878340010479014e-01 1.656842190249201705e-04 1.197468219344922360e-03 -2.663284323349882077e-01
1.074251356011015068e-01 1.773296945287298476e-01 2.092842333778303643e-01 3.865744088418887045e-05 1.518070653641413617e-03 -2.779968020841179777e-01
1.065218907792439690e-01 1.638394249071261910e-01 2.101042496550558636e-01 8.241066899654009618e-05 7.960203729078602292e-04 -3.157052581235809119e-01
4.176961223304252735e-02 2.201013351563715359e-01 2.096350579585473106e-01 -3.211197213353442930e-04 8.131690933479784151e-04 -2.483746383721214257e-01
4.291189051766532148e-02 2.634389623423978311e-01 2.090936634788426729e-01 8.481057827180513826e-05 8.350962582805128778e-04 -2.782001235664508521e-01
1.716357791455446272e-02 2.073525225658165438e-01 2.100096252557070997e-01 7.605714354153432456e-04 8.638833757199387451e-04 -4.141284512824738168e-02
-1.104499950554989514e-02 2.887277682525428157e-01 2.099752158048577289e-01 -4.091252224396623219e-04 5.056160437336980513e-04 -1.088392016610225943e-01
9.160167889499838678e-03 2.775039025521061076e-01 2.098653290814015970e-01 -3.466856849960727816e-04 5.610071793606616081e-04 -2.363886508041158352e-01
6.422555427087906638e-03 2.939987890992770136e-01 2.097775934818189580e-01 -7.434204478181275313e-05 1.030008549124631625e-03 -3.438089830530775548e-01
4.400445687639656378e-03 3.124180240239984863e-01 2.096372097625912589e-01 -8.756584157306371145e-05 6.204953534731993741e-04 -4.202144416271329508e-01
-7.642059060645325225e-03 3.430736320214066715e-01 2.094987850860242640e-01 -2.817715609446071599e-05 6.547213417713787032e-04 -4.507537482449712751e-01
-6.510868907375556847e-02 3.144409715089906965e-01 2.093548670438694081e-01 2.469430548484083778e-04 8.416445506092645702e-04 -3.458891106799452109e-01
-2.801275335029731681e-02 3.056076287317617823e-01 2.092101883378591487e-01 1.374662408614612434e-04 8.452593256574016589e-04 -2.409608200605021233e-01
-8.381308258865965977e-02 3.353817843909418506e-01 2.090659895781450950e-01 -1.804050236144902916e-04 2.856110135447123490e-04 -1.177433399923208807e-01
-6.928024931775600415e-02 3.859858458405340254e-01 2.089238225127582615e-01 -4.167161294013200081e-05 -2.397119459440615887e-04 -3.574962990872266322e-01
-6.266583174132378531e-02 2.808688790493281684e-01 2.104144365183829857e-01 9.292173992725336594e-05 -1.487164073708080675e-03 -3.539110274070934037e-01
-7.363514494026274226e-02 3.185065762725471927e-01 2.101615119266014298e-01 -1.899674592387377080e-05 -1.297664085783875685e-03 -3.864549239985521911e-01
-7.852746284175871061e-02 3.735260697078886527e-01 2.100296139508649462e-01 1.077357233598754617e-05 -1.634929386098255607e-03 -3.613952315553368155e-01
-1.760252403807267829e-02 3.153352141962352251e-01 2.098842168562069510e-01 -2.799729814351699180e-04 -1.726475993842660614e-03 -3.198310507569874783e-01
-7.283844357914109197e-03 3.936601205714438945e-01 2.096667677500733684e-01 -1.769960491050623667e-04 -1.852205293405458780e-03 -2.689767664800080671e-01
-4.631342986208242252e-02 4.177780005133672203e-01 2.095532255866935367e-01 -2.116269754471746087e-04 -1.951299095430500830e-03 -2.149694046752346210e-01
-1.618402748219967269e-02 3.486730916396166280e-01 2.094881688893891480e-01 7.284930405972039631e-04 -1.908610926562759064e-03 -2.000304877725161135e-01
-4.499386988099236817e-02 3.281594333460048363e-01 2.091206514754134216e-01 1.004456737276622491e-03 -1.780112259493942754e-03 -1.379078267946696745e-01
-5.026921744858180163e-02 3.172190522292727688e-01 2.089976524578505690e-01 1.074621202334740782e-05 -1.248806362939095102e-03 -2.279627652084000866e-01
1.664838651537701997e-02 4.104325667232883168e-01 2.088046043110277084e-01 1.898148511834401740e-04 -5.183882747987420816e-04 -6.408019726639151668e-03
1.556174465109893407e-02 4.320241792976683426e-01 2.085456124443429426e-01 -1.932637103619900382e-04 -4.875586927605584688e-04 -8.517565408083424550e-02
-3.261993749288082112e-02 4.821853680831197919e-01 2.083952425109611428e-01 -5.715350554360910430e-05 -6.280498482449102830e-04 -5.887272249337648089e-02
-1.589878470962561782e-02 4.030433924599766127e-01 2.093083021748956551e-01 3.955288314297614898e-04 -2.326437701934817338e-04 -1.453660508625671255e-01
4.903879955905550425e-02 4.863437161472390358e-01 2.089707069674593964e-01 -4.440888554219256574e-04 -7.967432497831410413e-04 -7.657808848975548865e-02
1.226834672420067801e-02 5.128540009155210244e-01 2.099050901405802860e-01 9.150635054375975139e-05 -8.161649471557963671e-04 -6.600023615901048912e-02
4.038470754453031553e-02 4.966678667572408390e-01 2.096899678432010417e-01 6.246703934270668793e-05 -1.142247564776717732e-04 -1.590411881433576036e-01
-2.217970091958958861e-02 3.973568071856581896e-01 2.096936365182234252e-01 1.075449458764157762e-03 -1.005163144777378561e-03 -1.949165049809875039e-01
-1.294330786987371584e-02 4.304366349120731794e-01 2.093829598394169600e-01 -3.140678322142672393e-04 -2.937625559190069381e-04 -3.586116048796464395e-01
-8.086983514380644000e-02 3.431149577352401447e-01 2.091924508601806232e-01 2.609325256729192713e-04 -9.373921862600129466e-04 -2.972791616162502870e-01
-9.178314560487707552e-02 3.247755206802408479e-01 2.091493817817341450e-01 9.554641039487350349e-05 5.594585836871034069e-04 -2.063586187733898181e-01
-1.080253679626390489e-01 3.187047382313491495e-01 2.089247328019891992e-01 7.948969111141668742e-04 4.390574650330581982e-04 -2.595476636226676237e-01
-9.221190603304159350e-02 3.209667761279376696e-01 2.101630393561578769e-01 -8.852628381790485972e-05 -4.255421252860081026e-05 -2.070980558674906102e-01
-1.365320774818318261e-01 2.717200420860524379e-01 2.099279391481179702e-01 2.056660205549039897e-04 1.613436757428841916e-04 -2.647159323772323991e-01
-5.364568802129644765e-02 2.980484844582233506e-01 2.101406397169436890e-01 1.414475512875372162e-04 1.079943202029414991e-03 -2.199544941521803798e-01
-2.526446071495998605e-02 3.205483071706236586e-01 2.102143872424467874e-01 9.521473662271518791e-04 1.606556948477962923e-03 5.164381709768411932e-02
2.612901250279404258e-02 3.187033338170805474e-01 2.100118026036449370e-01 -6.306672782964313755e-04 1.388209464886452959e-03 4.648996498229999302e-02
-4.460531255312549792e-02 4.015195948556228300e-01 2.101083555520772972e-01 -5.902714233028822895e-04 1.898319268328680764e-03 -7.189404383246993427e-05
-1.751681687099038154e-02 3.885856951235159840e-01 2.092703100407784511e-01 5.085915163798586554e-04 2.662526078375927405e-03 3.356354482461829103e-02
-4.483910643926534295e-03 3.656267203939496668e-01 2.090776542093812362e-01 2.025786481107381162e-04 2.464166119956103483e-03 1.493800650654207307e-01
2.594697574168356932e-02 3.510846006825413812e-01 2.092356328728046666e-01 3.462463966732795420e-04 1.661830413280353724e-03 1.366359592964761505e-01
-3.114816715061479238e-02 3.527343059933310543e-01 2.094441062026756728e-01 -4.663537856656480170e-04 -3.014722516296170483e-04 -3.926604190739174660e-02
-3.154420934144402944e-02 4.044698956215954100e-01 2.092961431536364825e-01 3.372432097204180980e-04 1.457436104297930640e-03 8.290733631714926333e-02
-5.969722801326269451e-02 3.624784346784600264e-01 2.094775903643256720e-01 -9.119995997035807746e-04 3.197716964246521574e-04 6.928593895175909345e-02
-1.832763905272697877e-02 3.073363974684393818e-01 2.093176447531513995e-01 1.517462194209106933e-03 1.647444306915492014e-03 4.073732807830848790e-02
-2.767863693688336554e-02 3.281412245468381395e-01 2.097171494572203088e-01 -2.963547657463972123e-03 -4.876724817439730169e-05 7.544630507914323880e-02
2.216534943290877219e-02 4.051667722439288299e-01 2.091089516717544727e-01 -2.103897776648043863e-04 1.051010883566022439e-03 -1.144601092586924329e-01
4.378887581847060173e-02 4.193856131025162637e-01 2.094517470494701161e-01 -3.935242307980842797e-04 9.613508347637370868e-05 -1.069464865142152055e-01
-4.210836268372340763e-03 4.722976590882757564e-01 2.092563418251544571e-01 -6.014674989757941206e-04 -6.940054104329803882e-04 -8.442729956056059526e-02
-2.044674684953127347e-02 4.496286723972259813e-01 2.092574015368351414e-01 -6.700544629083660499e-04 -4.938181260507554802e-04 -1.229402298229418100e-01
-2.575683457053642295e-02 5.131239392756806739e-01 2.094332225802573166e-01 -4.188530168222556749e-04 -6.521510273229711536e-04 -7.110315675078232589e-02
-1.180391522411273868e-02 5.317088015741033846e-01 2.092231259418391720e-01 -4.296791994463974168e-04 -5.139845098856944206e-04 -1.955141998925762348e-01
7.341867048212170899e-02 4.879153343354591943e-01 2.093041680418820105e-01 1.540964373366256667e-03 9.594273662533079564e-04 -1.542684516261426941e-01
1.250882996610063747e-01 4.844970279389322343e-01 2.092812761980491487e-01 7.549644588748133953e-05 -1.102687664658029984e-03 -1.120191301119808497e-01
1.609966600932715430e-01 6.050312074537530505e-01 2.093511102850174055e-01 -8.521885349511064498e-04 -1.078816456572227528e-03 -1.705193648289541342e-01
1.705612343455741864e-01 5.394092061344369915e-01 2.092639145854033877e-01 5.957908756103481298e-04 -1.111125970991194267e-03 -4.103831158703851179e-01
1.500918423669551360e-01 5.578661545243704944e-01 2.091950923096819182e-01 2.278975401108376635e-04 -7.041659888178699016e-04 -5.376130700648169558e-01
1.560020477164203723e-01 4.507141806443170085e-01 2.093634445171613789e-01 2.205262875297762969e-04 -1.103913934980735832e-03 -4.666715188630434219e-01
1.164653658224947402e-01 4.542801120688692573e-01 2.092827716126736126e-01 6.060032554066376032e-04 -1.120839508012511174e-03 -6.556781768731404503e-01
8.330018874229859482e-02 4.299678435657230957e-01 2.093836970068769232e-01 -2.169906484253028122e-04 -1.343689592698702525e-03 -7.001284474100730737e-01
1.474795391211601234e-02 4.587210837687429876e-01 2.094936260415837803e-01 3.600956413348273272e-05 -3.172752828419421207e-03 -5.730351537566604758e-01
1.915061672263637313e-02 4.592545988226771070e-01 2.093934181643349879e-01 1.153219917720480154e-03 -4.802083987348308865e-04 -6.068044731404212966e-01
1.154650284441161162e-01 4.135463761708001451e-01 2.095574222993345503e-01 3.988260020556097713e-04 -2.605698026538326591e-04 -3.935783940987839236e-01
1.181906857951706413e-01 3.743285103573558148e-01 2.096290275148715576e-01 2.633099635175738143e-04 -1.914442252049556551e-04 -3.868389358970832914e-01
1.012932403845157314e-01 2.956339835750013689e-01 2.098980958286045806e-01 8.675040502066352433e-04 -7.615888913264512320e-04 -5.977066091819493998e-01
1.170202554343796053e-01 2.899915936237302816e-01 2.099007180436163189e-01 9.702976868310258477e-05 2.293832367184243991e-04 -6.367831928928274765e-01
1.347681225918965220e-01 3.289182477990165165e-01 2.102035771746870174e-01 -8.540686960141261443e-04 -1.540782145921762067e-04 -5.937006870241150480e-01
-1.378786838420392041e-03 4.596254025279496447e-01 2.093364165971636770e-01 -2.048930201883238230e-04 7.993135005458524428e-04 -5.181425364127020261e-01
-2.038000621891277592e-02 4.937586765138749501e-01 2.094750301525178937e-01 -5.851705112552271553e-04 1.078577303880105158e-03 -7.872990579539285161e-01
1.546618817036015531e-02 4.816639603975410022e-01 2.095250563554806322e-01 5.673565888388683786e-04 1.733689799586301530e-03 -6.175341561865730355e-01
3.918334706372599008e-02 4.142699149800633251e-01 2.096366082363129157e-01 4.928632198770625892e-04 2.427916824351024523e-03 -5.577403235762354861e-01
6.712051046889802586e-02 3.453966100904171110e-01 2.097609365764648293e-01 -6.939273392887423367e-05 2.546801971045550405e-03 -5.214670254292862461e-01
9.661284849157171506e-02 3.327520352095182377e-01 2.099747283892471894e-01 9.139088393969265920e-05 2.206625345160521945e-03 -5.767439584027547195e-01
2.739051259489004922e-02 4.357540780374951628e-01 2.100789436411098499e-01 -1.315775856621444228e-04 2.176737036737876399e-03 -5.858062426606233108e-01
-1.008910707904563456e-02 4.874453716547779147e-01 2.088992818107704430e-01 2.181966800070537409e-04 3.806773552837575906e-03 -5.938112197273530679e-01
-2.407646768270465740e-02 4.173339136728261844e-01 2.091919550218607204e-01 6.862061359203323581e-04 3.214835966993772037e-03 -4.611700955535571467e-01
1.258806652429533129e-02 3.585266109666089829e-01 2.092516309090302062e-01 5.312622769209865859e-04 3.245843211279459198e-03 -4.071247521645576239e-01
1.202585588672470257e-02 3.769095474856798966e-01 2.094058740213294301e-01 -1.785212767183326764e-05 3.229654342184487548e-03 -3.397204685082273468e-01
2.137056955604406394e-02 3.818120356257608261e-01 2.093937306981640267e-01 -2.336185656667332945e-05 2.902325465257475645e-03 -4.740080783225129601e-01
-2.968020083512566687e-03 4.007517936582008500e-01 2.093873155314530110e-01 -1.783543008944708862e-04 2.818384850439449498e-03 -3.098883543793625739e-01
-8.640740169494235540e-03 4.389540506996610914e-01 2.093215062603121512e-01 -2.309862208183411248e-04 2.667366785047755109e-03 -3.042547195779574110e-01
-3.932992956282732600e-02 4.568483491765752968e-01 2.092972925853652799e-01 -2.588890082872528225e-04 1.615395816039610390e-03 -4.480365358578872748e-01
-6.166100557562279039e-02 4.875549118324898901e-01 2.092219365873057568e-01 -1.844109156465690961e-04 1.640400784063858084e-03 -4.096332491745862669e-01
-1.165779864152145517e-01 4.396024378450070214e-01 2.092055476254815471e-01 9.133499098708020058e-05 1.203576771539651650e-03 -2.541837231188425195e-01
-1.071788300095232738e-01 4.391844884044616704e-01 2.100660092476142049e-01 8.328124015679765451e-07 8.929004769617896907e-04 -1.778534708329886083e-01
-3.916274132300655297e-02 4.170984860727373067e-01 2.095869015300620974e-01 9.620914115412561394e-04 5.224708361430952224e-04 -4.504788430855584391e-02
-9.918581190781269874e-02 3.025303679580287897e-01 2.094817265615201429e-01 9.672526641092050624e-04 1.028743073528237657e-04 -1.745166048035869666e-01
-7.248385433260451371e-02 2.659866475933617691e-01 2.101475711842556993e-01 -7.886707049672438651e-05 -6.359172211587245296e-04 4.969673318572950804e-02
-1.167458310750248696e-01 3.016365523041650842e-01 2.095665843622835922e-01 2.530847937778096275e-05 -3.193835788356209969e-04 1.511412529724175391e-01
-9.593536522266329913e-02 3.210262834771467899e-01 2.099775292912169911e-01 8.079035885228609310e-05 -1.073426371675115752e-03 -6.895100805667279953e-02
-3.934580395282326337e-02 2.994570501224004810e-01 2.095143974814885346e-01 -1.078782088144163327e-04 -1.171528176460617625e-03 4.123143420715299351e-02
-1.680054739351887622e-02 2.344316128607230876e-01 2.099154096568008887e-01 2.731968517386533664e-04 -1.266955849571308650e-03 -5.583576078879499971e-02
-3.689369107040882390e-02 2.234790739561257622e-01 2.101230384848667421e-01 4.790076748791002935e-05 -1.348222868409218933e-03 -4.216363028649983136e-01
-2.094670474690557560e-02 2.240281045435576768e-01 2.092533090433544296e-01 3.920955616392291215e-04 -8.419815388934909217e-04 -3.487964553644327115e-01
-8.015685722946266911e-03 2.467787057936477457e-01 2.095172456770146296e-01 2.081399172343664363e-05 -1.893124255021732183e-03 -4.489671780035350279e-01
5.695663441322088016e-02 1.385483830703874153e-01 2.096604063764672121e-01 1.329726544828512425e-04 -1.991258166188808465e-03 -2.864067680499493562e-01
1.626830195116782743e-02 1.696264200839783798e-01 2.096369550294658879e-01 -1.558099288703903250e-04 -2.128364070676862143e-03 -4.793468876977058923e-01
2.101745240425801492e-02 1.083605798360277317e-01 2.097382586293229378e-01 1.474298169488706136e-04 -2.515506508590242656e-03 -5.260313201201374245e-01
1.064814187834259296e-01 1.519592061377317005e-01 2.096186630628388281e-01 -1.774619546264027419e-05 -2.212826743621314034e-03 -5.869199872700779919e-01
1.093664560221503240e-01 7.014242584643204381e-02 2.096021073473655072e-01 2.776721628213154111e-05 -2.345300417906033812e-03 -4.177180497098690326e-01
1.087708491439467740e-01 1.210557422130023597e-01 2.095791459794679734e-01 -6.945939220291744143e-05 -2.291845102294970925e-03 -5.702542086477622174e-01
9.755752225138923650e-02 1.410210504617720462e-01 2.095599286036267106e-01 1.125915265380649730e-04 -2.324029594929811603e-03 -5.273080847180672270e-01
9.953915221098305621e-02 1.575150170904086322e-01 2.094951954560907992e-01 2.785436303559436591e-06 -1.704010650348415038e-03 -4.915338124621129179e-01
5.905604870586179944e-02 1.103311485135691772e-01 2.095561650493556471e-01 1.042216660610385213e-04 -1.677209899446444009e-03 -4.461368311053927616e-01
3.313136457240162952e-02 1.275414655446298617e-01 2.096068447796981538e-01 1.337406123613009391e-04 -1.085742486986140216e-03 -5.404418868681851729e-01
-2.294451923364270243e-02 1.414696629469546496e-01 2.097934849919632083e-01 5.731386825798008957e-04 -9.654810076351791857e-04 -3.723002925912914929e-01
-3.559973605833903487e-02 1.162405540623539513e-01 2.098753706425542376e-01 1.460501388826624227e-04 -4.708820524467988118e-05 -3.094301203904324393e-01
-3.105526506779704432e-02 1.018744086382826070e-01 2.101277748155327973e-01 1.886668877264868153e-04 3.991057416719368325e-04 -3.749283276849541546e-01
2.622417759804608964e-02 1.423955428103280407e-01 2.094090001215101471e-01 -2.262615705720120627e-04 1.181411342333856408e-03 -2.983925675285721280e-01
1.809836846297603608e-03 1.221189161993605221e-01 2.097766495711942403e-01 4.292856968118694835e-05 1.092068334446337887e-03 -4.082175907980366003e-01
-5.596316550762549247e-02 1.324407130203847371e-01 2.101000995558776618e-01 -1.422247043214961034e-04 1.314473853819613566e-03 -6.127514426450408891e-01
-6.846994190664686120e-02 1.577034699347118207e-01 2.095216462397793133e-01 -1.967825269439635620e-04 1.859317962484231075e-03 -4.545801279429225183e-01
-8.438962641999393777e-02 1.347844367312761027e-01 2.099560082496298996e-01 1.970864001270960781e-04 2.392436649431769168e-03 -4.473040274885023426e-01
-1.412602606962804208e-01 1.972328729711447515e-01 2.094276566094406267e-01 -3.621042729278208883e-04 1.897351016328815282e-03 -5.615373664586362779e-01
-1.020877299606939015e-01 1.955166499473374175e-01 2.099507743472487364e-01 4.335498680900199715e-05 2.484694890050764826e-03 -6.077900838409890927e-01
-1.255502663067203928e-01 1.938154258528069773e-01 2.094678960897997655e-01 -4.374363723448427340e-05 2.576980872843087720e-03 -5.072074523219932685e-01
-1.047780788468650887e-01 2.128556887477544290e-01 2.101340674216027882e-01 -1.362107419735689756e-05 2.274410951536852497e-03 -4.337074733652322989e-01
-2.190499567410575943e-01 2.523906730339092741e-01 2.096927515699351097e-01 1.289713303914090376e-05 2.625656622301266591e-03 -3.707634530810026141e-01
-1.576908197372594023e-01 3.218346498922453613e-01 2.092732245934557089e-01 -3.453013536543542887e-04 3.171946368172322197e-03 -4.336982304336928218e-01
-1.618773373117449732e-01 3.594762850173399138e-01 2.099349271419267415e-01 3.695701327600923081e-04 2.555320748216243984e-03 -5.147025008299935811e-01
-1.591814199611533143e-01 3.568050661478703867e-01 2.097347952677154903e-01 1.083752926212698309e-04 2.252353759681405797e-03 -4.746532976493337830e-01
-1.515019902914113703e-01 4.598020341199022809e-01 2.094483992769756164e-01 -2.571635544848556177e-05 2.293788230529667134e-03 -3.701062338969912102e-01
-1.604732673069127202e-01 3.977042255069814236e-01 2.094123375725308600e-01 1.697740195620949769e-04 1.421924574694262422e-03 -2.116648976205804111e-01
-5.853515300095987750e-02 4.153039383904268411e-01 2.092385412244830434e-01 2.365035284599483227e-04 1.701335094103992394e-03 -6.173496857382447522e-02
-9.141978782803540649e-02 4.146890848060720280e-01 2.090983522017831886e-01 7.678919376444785913e-05 1.505284614173708381e-03 -1.300785349587307294e-01
-1.105341715654813012e-01 3.611529804235162344e-01 2.092527303776132719e-01 1.090140417281338167e-04 8.113174639200399548e-04 -1.093263255288489250e-01
-8.005949036338187719e-02 4.588820554204929847e-01 2.092885809844790002e-01 -7.355291946403617550e-05 3.961270625648302397e-04 -1.761466192488107263e-01
-7.116077359724080897e-02 3.803891652924322742e-01 2.094829991649675427e-01 5.026004402474873429e-05 4.569899865325940448e-04 -1.334792102320802309e-01
-7.133249561669236655e-03 3.898095736315003723e-01 2.096011315770160977e-01 5.180673665482429016e-05 -1.580227639958177265e-05 -3.410010290487865969e-01
-4.956181845887259324e-02 3.885109764344876759e-01 2.097584070195395722e-01 -1.968936666593832285e-04 -1.139872469017179612e-04 -1.998530899748465761e-01
-3.809262236690728193e-02 3.759715516749468911e-01 2.100659908094189565e-01 1.883026204766419633e-04 -3.435919633024013043e-04 -4.268201921339595528e-01
-8.152114603123639114e-02 4.534769784447679752e-01 2.086914247411162937e-01 7.229832869880903421e-05 -1.801074417703365008e-04 -3.575616641844961419e-01
-4.557183821944919833e-02 3.990941893231949589e-01 2.090568965872675600e-01 1.586025936617788178e-04 -1.328711655893844172e-04 -3.130757573421047990e-01
-1.569280670874934752e-02 2.944910715619785124e-01 2.096164958615238105e-01 2.271194318335014307e-04 -7.183788903666888910e-04 -3.843434479974902618e-01
1.599538221978491492e-02 3.022364202591449889e-01 2.098593496138113079e-01 7.230574211822079112e-05 -6.586628907987010419e-04 -5.608802918164439433e-01
3.395695763593577915e-03 3.314836719488942207e-01 2.103087926475062375e-01 -1.034618981252323651e-04 -1.112677208425613424e-03 -3.699410871353152608e-01
-6.467507056901829199e-02 3.656551114229353305e-01 2.094138777347347991e-01 -1.227869075948997339e-04 -1.223571842697726390e-03 -3.424827889812674386e-01
-5.676818147866051489e-02 3.275295089666391823e-01 2.099920034878074437e-01 3.614663480354978939e-04 -1.903398017497846860e-03 -3.604735665237069342e-01
-4.489957311042580557e-02 1.800584006949634552e-01 2.092870671508026414e-01 7.662697718918681095e-04 -2.066925530329652861e-03 -2.102778243772652489e-01
-5.594627127886421525e-02 2.148028627810051050e-01 2.098739491056496598e-01 -1.225875884611408290e-04 -1.896124002615736954e-03 -1.622447735057987728e-01
1.376715657445419516e-02 2.032186280917662458e-01 2.093808052161469924e-01 -3.958769737297184138e-05 -1.834724317630598940e-03 -7.264927667595352800e-02
-3.062388064069808055e-02 2.566389578021529561e-01 2.099835735605042331e-01 -1.061635998899467518e-04 -1.597557014809427439e-03 -6.482694588370187250e-02
-7.207894954355571759e-02 2.462256045040939478e-01 2.098688022407179665e-01 -1.117059730491926550e-04 -1.046025684632510095e-03 -3.044976512270885505e-01
5.872766130693922448e-02 2.394302555763222207e-01 2.098580765527559011e-01 9.765842196939400282e-05 -6.619254129497538757e-04 -3.410428672733347155e-01
2.101718942828095793e-03 2.381655060949624814e-01 2.099122669596772406e-01 8.903180924526068861e-06 -9.225949707255894257e-04 -3.073494007597155631e-01
-1.574648269551657404e-02 2.265601383309594763e-01 2.097391264942683464e-01 3.474502790458307018e-05 -4.047235866356743987e-04 -1.335418871306051636e-01
-5.044210108464665387e-02 2.717931457579668697e-01 2.095726763395831527e-01 -9.031012891249581181e-05 -2.570862686910873490e-04 -1.593796491798457615e-01
-4.619498003224377369e-02 1.350002710275541029e-01 2.094803745718658572e-01 3.234396193637152270e-04 -7.235253105985239874e-05 -3.718403174254624188e-01
-8.582874828731193451e-02 6.498103032076867069e-02 2.103421966283148814e-01 1.428256417839863222e-04 -1.455964428587239829e-04 -8.128666303816926841e-02
-1.518056439914983874e-02 -3.097903044385615784e-02 2.101262032066328334e-01 1.654797642346929505e-04 3.457655808957233899e-04 -2.258582355362342142e-01
-9.996449881599725473e-02 -2.620668141853550390e-02 2.095845382772309473e-01 -8.531314056190616416e-05 8.111281981409770316e-05 -1.389084883769965417e-01
-8.409015207818132387e-02 -7.940322195696537799e-02 2.101945419231949774e-01 2.082387351491809993e-04 2.737866808285938981e-04 -3.135077761146773945e-01
-9.117199438902991171e-02 -6.922703709830571595e-02 2.107497162999215079e-01 -9.617990706289114902e-05 3.865335582187681869e-04 -2.637843549515404562e-01
-1.886456896147056250e-01 -3.484836929004715700e-02 2.098129564011733672e-01 -5.166002966434441639e-05 2.885083305267146505e-04 -5.224589061252468136e-01
-1.391028964472036111e-01 3.480070847494560332e-02 2.101289851152555177e-01 -2.543363749797439505e-04 1.260792016324057286e-03 -4.400440436068162597e-01
-1.757321507548441630e-01 2.030035739040685072e-02 2.094185528316137024e-01 2.754270389494730591e-04 4.791245367140728592e-04 -4.108298742631074085e-01
-9.683660650508457701e-02 -5.247075336862119105e-02 2.098240336670285644e-01 3.447681491547737267e-04 6.344428371274066008e-04 -3.868690225341861466e-01
-2.330372773015979004e-02 -3.159199072187449109e-02 2.101730814778098866e-01 2.874829304167495414e-04 8.250495910910528481e-04 -3.259564599863542522e-01
-1.443920896276127686e-01 9.835831672686083660e-04 2.096579232692649120e-01 -3.828822678409768258e-05 1.353276574237070266e-04 -2.922416206113796489e-01
-1.091241705903932269e-01 1.799333790260561339e-02 2.101821346276550040e-01 -5.455475771962518263e-05 -1.044702747605412988e-04 -1.778985964608140458e-01
-1.075951209694956390e-01 7.116153197188263002e-02 2.097472175178849985e-01 -1.087865002095176578e-04 6.664029818755723238e-05 -2.896412870970296316e-01
-1.194928589901360916e-01 8.580594725822419944e-02 2.104209956599847331e-01 3.317237886219156497e-05 -9.149035303628121854e-05 -2.746168101934715611e-01
-1.380173567487635033e-01 1.196316591376945515e-01 2.099894788001075430e-01 -5.628223294298672890e-06 2.896851537457886447e-04 -2.458930142845095479e-01
-2.046730192307750495e-01 1.633053527828693952e-01 2.093856948527512696e-01 -5.523567348964258402e-05 7.278637935009576836e-04 -3.293589032580414577e-01
-1.393222341736488068e-01 1.929776823188306123e-01 2.102413447495584675e-01 2.770425137673579973e-04 8.856895001002960781e-04 -2.591913730144964623e-01
-9.831550781881380485e-02 2.050419262001422771e-01 2.101033683484312409e-01 -3.929883246060894569e-05 8.907923827087224113e-04 -3.277434375569568403e-02
-1.793142988127655324e-01 1.840741674951586193e-01 2.096604034743061451e-01 -3.995204632504526703e-05 9.222116721632589009e-04 -1.287857845629836462e-01
-2.162973556112841866e-01 2.264646938610611060e-01 2.097300411517132868e-01 2.127690666511035430e-05 8.647687414535079912e-04 -5.210124221485162854e-02
-1.746005371173027509e-01 2.651336004259022272e-01 2.097005570279741882e-01 1.525259480614517531e-04 8.862756401212879605e-04 -2.475924876563556920e-01
-1.856296211978381572e-01 2.377882927595453832e-01 2.097785465841922048e-01 -5.049817276506769551e-06 5.939194960796163403e-04 -1.031315945203418877e-01
-1.139678420135363662e-01 2.492074442532072054e-01 2.096855690916767379e-01 1.545081579075122937e-04 3.558668879736844753e-04 -5.550462780528027384e-02
-1.717412758686122087e-01 2.863539468568123691e-01 2.097163659074904318e-01 -7.011199193031317678e-05 -5.540944611048904196e-05 -7.639657114955070161e-02
-9.989068921489541175e-02 2.968377556925193006e-01 2.095634775419651374e-01 2.303542301170655908e-04 -2.294207594167880354e-04 -7.637123916398633194e-02
2.621433371763511738e-03 2.849483849503817168e-01 2.094968604436881487e-01 3.971969314995817704e-05 -3.954389759914517374e-04 -1.976461620891912241e-01
-2.511550985970593952e-02 2.598070953724592180e-01 2.096212522962271896e-01 6.606738641903141765e-06 -1.035465453714475015e-03 -2.741427565771216712e-01
-2.243834136199174267e-02 2.069136735669039606e-01 2.095620076735341675e-01 1.005387094284765001e-04 -1.018925545097366936e-03 -2.068371772797417130e-01
-3.169702276265239094e-02 1.810991528547972462e-01 2.094821261128727019e-01 6.336856725412438009e-06 -1.134883947967966437e-03 -3.636471384916579175e-01
-8.244612248023995560e-02 1.965599516044915229e-01 2.096588258729225052e-01 -4.645681985710208473e-04 -1.838089721265000198e-03 -2.293602034703683679e-01
-1.080905199745534340e-01 2.740940146303191272e-01 2.094376153855242451e-01 -4.936047375545734450e-05 -1.520790764803882497e-03 -3.774371441473029498e-01
-5.890481526103198695e-02 3.146595215418521718e-01 2.093616239301516191e-01 -1.469464080685126681e-04 -1.287283231692531440e-03 -2.694287364389003625e-01
-5.881951927242858730e-03 3.703713983968597301e-01 2.094819412852857443e-01 -1.336444223089796257e-04 -1.593960040652129834e-03 -2.820641829337589557e-01
-1.981581483084614639e-02 3.818094549804719184e-01 2.095256032994964324e-01 -8.610276842306214293e-05 -1.826801326927125204e-03 -2.830719752785896270e-01
-9.582159021584460423e-02 4.071126540591754051e-01 2.095900078599434724e-01 2.008483623714387898e-04 -1.575639986245375504e-03 -3.110164753871149657e-01
-6.040336575023240451e-02 4.366955930624444315e-01 2.096114495551176238e-01 3.304439035039852718e-05 -1.401539398278251781e-03 -2.269051992293059650e-01
-5.066233057966170600e-02 4.146993636056092170e-01 2.097579524434080578e-01 -2.137381783674176976e-04 -9.980562223513751458e-04 -1.120443489960722405e-01
-5.658536365510530991e-02 4.350064796476012519e-01 2.097623200987386860e-01 -4.382815917299414949e-05 -1.109519176091799128e-03 -1.702000892376932251e-01
-9.530520360743655051e-02 4.508118518502305383e-01 2.099006437017721383e-01 3.149813630602259109e-04 -1.167309966822426210e-03 -2.098185078688558358e-01
-3.207506198625002802e-02 4.271770078968686324e-01 2.099254382918203654e-01 1.788285631422649870e-04 -6.694408608697021172e-04 -2.297191914333593377e-01
-1.801381957314886900e-02 4.241784246738262709e-01 2.101229843100703709e-01 6.656542576176993967e-05 -6.970013843801515585e-04 -1.002643422506871718e-01
-5.067619158352695830e-02 4.535688369618623428e-01 2.102966252675608771e-01 3.515964185098812366e-05 -3.355255500880198775e-04 -7.780153167657842539e-02
-5.799698036304180154e-02 3.928300327095520794e-01 2.094853735839361519e-01 9.543541998395846902e-05 4.324326495908083180e-06 -1.161176903283967082e-01
-3.381799714947284624e-02 3.493048887783422596e-01 2.097368705148365819e-01 1.270385652214581511e-04 2.200614072482488966e-04 -9.604860010617097266e-02
-3.141115438315796038e-02 3.990509486432410879e-01 2.099605417920288875e-01 -1.274917445213972816e-04 8.318734526741059995e-04 -1.478028836761908528e-02
-5.326704557204442469e-02 3.688554249356568726e-01 2.090647803499509627e-01 2.858237470500831889e-04 7.110965476764899169e-04 1.568148711029365217e-04
-2.779760949930957029e-02 3.657573605407110073e-01 2.094230726956575195e-01 3.678608606011957399e-04 1.416167168358295697e-03 -2.287754982696341144e-02
1.291583031016486915e-04 3.308709354890014276e-01 2.097374250158957620e-01 -2.657045073166437884e-05 1.347556500909849811e-03 2.990766482310914902e-03
4.278596965563697535e-02 3.739745276182763201e-01 2.099983280342225256e-01 -3.873331820582394418e-05 1.222325949998000205e-03 -1.275524261383798041e-01
-1.012721824930408743e-01 3.997845365716006794e-01 2.092825069531660254e-01 -4.679711442791523418e-04 2.241010796108557643e-04 -9.980568401622069707e-02
-2.568192471613222824e-02 3.733048506856475046e-01 2.097051781753164201e-01 3.460670193697187522e-04 -1.729285355119107570e-04 -2.382295556711284679e-01
-8.176648186526484785e-02 3.532735664664823361e-01 2.099790901317492575e-01 4.084922240641359432e-04 -1.018142662170104566e-04 -2.481013306455725209e-01
-6.816019363597455860e-02 4.087683350356359213e-01 2.092310547611600513e-01 -2.294806573509617343e-05 -6.248848216506601915e-04 -1.849755149522006037e-01
-9.233268955978286840e-02 3.160267301834178699e-01 2.095812637041943871e-01 -4.105312963162927953e-04 -4.198022746444490458e-04 -4.103164859524039976e-01
-5.686945082555749931e-02 3.127852847620069543e-01 2.098643218990712822e-01 -2.213995338254918258e-05 -4.384356080004453860e-04 -4.143228930828599110e-01
-1.099393567002447947e-01 3.512371889246361789e-01 2.090937748380062300e-01 3.174299503371097328e-05 -6.198154736025722131e-04 -4.931642295441667212e-01
-1.380872395665473651e-01 3.552470535359352199e-01 2.093098692088617430e-01 -3.802968684592603088e-04 2.688917178318099414e-04 -4.897212285832711065e-01
-1.026520514507511389e-01 3.899589837382982926e-01 2.096063676571350842e-01 1.394289626073728612e-04 2.647652675286716641e-04 -4.551770988405201557e-01
-4.943122648321282564e-02 4.591197141788850855e-01 2.097837251232677058e-01 3.266824667155723448e-04 3.627327335011320078e-04 -1.594840050083273231e-01
-5.302235736341281980e-02 4.268207363271869781e-01 2.092609033419076670e-01 1.216275023639987407e-04 4.864138662604585404e-04 -8.670626781919020531e-02
-1.305488570054286479e-01 4.698088093263578791e-01 2.095543255420050377e-01 -5.339964496970514216e-04 5.120709233112154561e-04 -1.486932916072976969e-04
-1.203537806478852390e-01 4.770577833454395233e-01 2.098612048405524289e-01 1.984046531823510412e-04 6.967942231636564286e-04 -4.959193489257931456e-04
-2.483454858135019372e-01 4.240969085860540333e-01 2.092448721666132494e-01 1.883730568772624286e-04 -1.520343473197846354e-05 1.491816194101584780e-01
-2.124588142320727457e-01 5.112605806439696199e-01 2.093542269735652050e-01 -2.496868487777655684e-04 1.819210039286336478e-03 -6.058054582186189058e-02
-1.941006069058786310e-01 4.580206717853307907e-01 2.097368381097271528e-01 -4.627622202132195385e-04 1.891829558595137847e-03 -1.876629850940925159e-02
-1.580031289290348695e-01 3.863391818895423047e-01 2.090990795337813735e-01 1.801062127871216195e-03 9.429924378776223179e-04 -5.892050630154674340e-02
-1.813769677766174371e-01 3.443149577224928204e-01 2.091088036892972957e-01 2.786253267917209180e-04 1.993132193307107624e-03 5.060693842146780919e-02
-2.522765049885445157e-02 3.773336612318102246e-01 2.094201739389326966e-01 -4.129344689060500569e-05 2.411708611229619690e-03 7.260429398581508265e-02
-5.125878040968771809e-02 3.022172596328412397e-01 2.097239637717607796e-01 2.000676156587764083e-04 1.823299421980011494e-03 2.934682072641018880e-01
-5.489752414893805943e-02 2.917918288879367550e-01 2.100335315580524886e-01 5.854343489776870182e-05 1.161784440166707460e-03 2.082803668128058172e-01
-1.317508823490954120e-02 3.217833805867722496e-01 2.102328014708261250e-01 -1.179431123381220053e-03 9.285218008072066483e-04 9.743172316146996026e-02
-1.242882414942320102e-01 4.529359220161354727e-01 2.092754639940441197e-01 -1.275692843728313272e-03 1.193509075753113350e-03 -2.288795337321512247e-01
-1.799855627280913528e-01 4.122233027592729360e-01 2.096061080146455202e-01 1.125774832111970433e-03 1.880415854488093645e-03 -1.071274886401415022e-01
-1.706374567571995182e-01 4.366528524740982964e-01 2.098859695508993317e-01 -8.671058347923446931e-04 2.460881699407015642e-03 -3.162885707303760285e-01
-1.491643384144583084e-01 4.623104341099473769e-01 2.089351538214598847e-01 2.810974813079425666e-04 2.210836742736308966e-03 -3.869573493977170320e-01
-1.170700516534845526e-01 4.274477480756653791e-01 2.092336874793672696e-01 3.546702989545966102e-04 1.981260735255949753e-03 -4.136295621567933067e-01
-1.536736475265882140e-01 3.881003262365994577e-01 2.094713488431836912e-01 2.715324089491906478e-04 1.821477310042701747e-03 -9.894437503721885407e-02
-1.859336855250501574e-01 2.925189816328546688e-01 2.096157920381204187e-01 1.409902260213183453e-03 1.894538123483797271e-03 -5.895508977881937229e-02
-6.740051070462904637e-02 2.757086963752639064e-01 2.098953959817688730e-01 -1.206396117113671558e-04 1.908823361515959776e-03 1.341736479965944251e-01
3.025716528746959233e-02 3.876412593020825970e-01 2.102273733387250432e-01 -9.581150366074723135e-04 1.336735403148034407e-03 -2.955103555214120270e-01
-2.980610652348961165e-03 4.536236285673143631e-01 2.092375832182722384e-01 1.239991340412795792e-03 2.910457532786785042e-04 -2.803959867278706386e-01
5.448849629159438490e-04 3.860211822614678101e-01 2.096512440239075570e-01 1.900587876339458054e-04 2.244651800790577851e-04 -2.205341965951510552e-01
-8.378623277747286602e-02 5.070002859713081955e-01 2.097704723634036261e-01 -2.227452984938096080e-04 -1.696773805860649911e-04 -1.261105894528081472e-01
-8.622525113987901391e-03 3.964899065653794685e-01 2.102101829034369596e-01 -2.781153951155502526e-04 8.686801385541808619e-04 -9.145942514815305624e-02
-1.033230408179706440e-02 4.957832037562044381e-01 2.091329134255225375e-01 3.378135006720036520e-04 1.570302385127481050e-04 -2.537588720326524605e-01
