-1.428711499740824460e-02 3.828494587815321759e-02 3.652056658636828046e-01 4.971256059265495575e-04 1.702960787360812724e-03 -1.380999720659636595e-02
-4.131912917138131497e-02 2.846465303643059067e-02 3.675124023270756601e-01 -4.630926431629186113e-04 -1.445500664346991869e-03 -7.087492797239648701e-02
-3.282624321718526778e-02 2.111910354011834259e-02 3.661587777210745243e-01 7.733173588346075721e-04 1.094046523354264651e-03 -1.084649741238622456e-01
-1.452725930308533878e-02 1.243331437144539788e-02 3.662130473538055542e-01 -2.745881208874605245e-05 6.910533347962465652e-04 8.402361796306209718e-02
-4.614304544318896875e-03 1.707871091060713525e-02 3.675113385127625198e-01 6.993227419197418394e-04 5.100506675448840182e-04 2.093607839637821877e-02
-1.506861377451608475e-02 -1.075015320656798161e-02 3.641616282281922024e-01 2.435453554817571084e-04 -4.294332220061957686e-04 -2.875308600871200396e-02
-5.106873253845712474e-02 -2.520925794261501610e-02 3.641997639366751915e-01 -2.196224191918738590e-04 -8.913754123347641207e-04 1.419301030622658333e-01
-2.832176357469398664e-02 3.695598411779290379e-03 3.650124652911609369e-01 -2.670516799119938139e-04 -1.906947070736467989e-04 8.406761132080980969e-02
-1.255404389212987429e-02 -2.754300119854985462e-02 3.648645086826209916e-01 -6.006154341816239035e-04 -4.741134382569705690e-05 3.223138260947889383e-02
-2.556928172135122107e-02 -4.278374746578324922e-02 3.635651539082971340e-01 2.873603581668309918e-05 -1.211583214105295576e-03 4.520222996364842843e-02
-4.314001967117190445e-02 -6.049162944308088957e-02 3.660908917851594113e-01 -6.807056371344045976e-05 2.912321117051397596e-04 -2.079228503615446894e-02
2.189706511647430617e-02 -3.650090286198482813e-03 3.645611463162234944e-01 -1.661886775742849303e-04 8.408546604086660501e-04 -1.297079075779809243e-01
-3.770561175567353589e-03 -1.243142179272937846e-02 3.700054417905199178e-01 2.361873752846035089e-03 1.122944740938983631e-02 -1.988780350537670549e-01
1.104553233900901384e-02 7.947740212267928941e-03 3.648579920948189503e-01 4.319746872450048363e-04 -3.990500173752598370e-04 -2.634279205269581814e-01
-6.423759468713917745e-03 1.892202422172847148e-02 3.667030915840092664e-01 -1.141326305100792086e-03 3.272183973101040299e-04 -2.264701446331190138e-01
-4.033185476834617693e-03 2.079331003595985897e-02 3.646755538845657396e-01 1.016665087261410728e-04 -1.885053334759066094e-04 -1.400627635718347530e-01
-4.080589092638519516e-02 9.241725281772441430e-03 3.650877173693967692e-01 -4.301443352024364800e-05 2.749926156503925898e-04 -2.049873701169678264e-01
-5.734280280905152544e-02 5.512705798765411142e-02 3.634215682823765947e-01 -7.413263420088646392e-04 -8.511139151164281861e-04 -1.655797246656005028e-01
-5.270039734415813554e-02 2.913548125607418049e-02 3.647032621317632950e-01 1.080486281335531120e-04 -4.385139184490748987e-04 -1.712688896685481965e-01
-5.192809511701246272e-02 1.922032287706713222e-02 3.657172180782729543e-01 -1.117852517042292569e-03 1.868340852260994217e-03 -1.653520333511367402e-01
-8.752944949933674779e-02 2.747209344521530858e-02 3.636106629630120324e-01 1.760101136850498842e-03 -4.374502800757086238e-03 -1.385297570018286517e-01
-1.042671921151440834e-01 2.554049039886862119e-02 3.659861035304395882e-01 -1.656387454307850070e-03 3.674646307396563346e-06 -8.349943062539952332e-02
-9.132342355682618318e-02 2.461640609812382197e-02 3.519215044070943543e-01 -8.654170561574924675e-03 6.820937383298879622e-03 -1.168676034457018231e-01
-8.027712595188714328e-02 3.503020743810834892e-02 3.659845487697579447e-01 -7.465814335591283366e-04 -4.620986605983315362e-05 -8.072765920968751063e-02
-7.087060894783533960e-02 -3.123204013666100454e-03 3.646725441245846078e-01 6.978228270140081260e-04 -8.851037157285441257e-06 -7.010527064854878143e-02
-5.470275825611326664e-02 2.189389777350045363e-02 3.649662689659841641e-01 -6.068420199799682158e-04 2.777131592695083508e-03 -5.808737300407563336e-02
-7.256913823681042375e-02 2.328020514901689778e-02 3.650639732071115917e-01 -2.671369205174343705e-04 6.392241212048734261e-05 -2.847512090835232525e-03
-1.029979087933493437e-01 2.030735045175328241e-02 3.650937474198859278e-01 6.682956494864114409e-04 -1.253155357684359716e-03 -3.257687647653355334e-02
-1.014621010897179820e-01 5.546092521577695306e-02 3.648615809668633858e-01 -7.935447396790726348e-04 9.362555337253387596e-04 3.698909592771588983e-02
-9.336767435240328483e-02 8.480738185967642839e-02 3.650228673123357970e-01 3.866427348249548067e-05 2.210238484439476275e-04 -1.881352359419796727e-02
-9.705608141188643012e-02 2.866440626939385436e-02 3.650095927327593470e-01 -3.909550775007155889e-05 -9.606380323841336643e-04 3.477647686885112100e-03
-1.073298377304535284e-01 3.197911415203235491e-02 3.649738284247101006e-01 -8.356523391947648469e-05 3.404343545132678902e-04 -4.100351012708751408e-02
-1.028695873008102779e-01 5.425325529054351309e-02 3.648008180594705663e-01 -7.562709611376226913e-04 -6.114146575267395288e-05 -2.433279381361566629e-02
-7.365102248641795801e-02 7.479052069746788822e-02 3.648234262362539670e-01 -3.638185751535060581e-04 2.728464172338676639e-03 -3.634673191527829778e-02
-9.219430963262488510e-02 6.412189591721824400e-02 3.650660547555413249e-01 4.763896596223327973e-04 -3.889749316966774296e-04 -3.647275238117949486e-02
-2.132814323038648499e-02 4.644038494692743352e-02 3.651096512943377559e-01 5.392326322321860411e-04 6.405134128556674031e-04 1.685474454284900392e-01
-6.085356474199191124e-02 -2.956409199346803768e-02 3.650297409184782849e-01 9.281042763731060579e-04 -6.892930965496708211e-04 8.627254518589552723e-02
-4.392141603407651029e-02 5.875948295156726425e-02 3.648405896760316680e-01 -9.792371715654637836e-05 1.341878027747225432e-03 5.145963649351904118e-02
-4.334668960918117153e-02 -1.067130152465721807e-02 3.650102176556252465e-01 1.822361627637205056e-04 1.010461715513924627e-03 1.467714726957378424e-01
-6.454100864938752680e-02 3.777419511576281252e-02 3.650381332500169940e-01 -9.361599089461961618e-05 -2.378784811834268049e-04 -2.732333149283254492e-02
-4.574160787471399925e-02 1.734283218526464637e-02 3.649375818554890794e-01 3.535500071852386251e-04 -4.917816110480900020e-04 -1.103886849450960717e-01
-4.637197944996479526e-02 4.108688738691733400e-02 3.648174836066193638e-01 1.150079632792699368e-05 6.409803262503378134e-04 -1.270405226729277304e-01
-5.729214568373051236e-02 7.704489845635420497e-02 3.650904570688393580e-01 -2.434520079541248664e-04 -6.225285249195012171e-04 -1.363070083542713973e-01
-6.251936567589518046e-02 1.039150614312485260e-01 3.649156856807934668e-01 -6.519126442258071832e-04 9.040973877707096130e-04 -7.932825672784614424e-02
-1.033287365491764864e-01 1.209459909019084956e-01 3.650083282999282419e-01 -9.482285495632775509e-04 -1.112054285976988254e-04 -1.540841317998444260e-01
-1.201372795129521526e-01 1.452473322813716272e-01 3.650023705397188456e-01 6.444752206326496676e-04 -1.346823424805820163e-04 -1.615164988557502013e-01
-7.453366694807193882e-02 1.621313695957341816e-01 3.650022351366784545e-01 -6.540611273535686067e-04 1.287560306236376195e-03 -6.063574363310531012e-02
-8.896188776146043975e-02 1.515057240985183962e-01 3.649611566865454404e-01 3.888716873868089288e-04 -2.498404616034264150e-04 1.274169865816471466e-02
-4.907771947736799811e-02 1.407674473504481327e-01 3.651798314594482120e-01 -2.888388414340166757e-04 1.717901812753141457e-03 2.206645091398379277e-02
-2.330928349732058757e-02 1.489006987472732968e-01 3.650035574188731924e-01 6.737077669028519386e-04 9.819711308570976127e-04 2.942623830142000046e-02
3.344535961381971470e-03 1.186768416482357341e-01 3.651090099618494733e-01 6.440529975834337123e-04 1.221687585249297105e-03 8.967805419644879483e-02
1.895814002194588918e-03 1.014820234038271707e-01 3.650455251633347720e-01 6.278766615364556915e-04 -4.361896610159327124e-04 1.521957924979440713e-01
3.152158547382222405e-03 8.523520149261497314e-02 3.650300896570571885e-01 9.361589591676135571e-05 1.028601987376083103e-03 1.419629874587758078e-01
-3.434286882854768047e-02 5.967773864263695854e-02 3.649588075411196453e-01 2.925471093902152456e-04 -2.496907469811914773e-04 -4.791278895949057509e-02
-2.719054399446833165e-02 3.857731022761384104e-02 3.649651173445344621e-01 2.690706973148717491e-04 3.433805845962213752e-04 1.030941940640215868e-02
-3.966328045613820574e-02 5.168583253445385717e-02 3.650093595006906888e-01 -6.351882464237470127e-05 6.731029996115247876e-05 5.035348620912022399e-02
-5.801178977557052557e-02 6.903833717291865679e-02 3.649813169974791549e-01 -1.882312068395605286e-04 -5.273033073326025260e-04 -4.193724266013875573e-02
-5.858539684651509205e-02 9.013979527326296259e-02 3.649925866772814609e-01 1.076940539200307287e-04 8.793307869119198475e-04 -4.441694366944969746e-02
-6.255901500147588445e-02 8.269756110088134771e-02 3.650093271897366654e-01 -8.490598895601774964e-06 8.003813076301868066e-05 -3.802413641369505048e-02
-8.048657484211231561e-02 1.061055144698617447e-01 3.650045850765297750e-01 -9.934357649959757236e-05 -3.361116068962667972e-04 3.631332891527510459e-02
-8.337202362900322794e-02 1.319701179237212363e-01 3.650257984311819914e-01 -2.869474662951498607e-04 -3.666987702719223005e-04 1.400553793785973555e-01
-9.793940257378259961e-02 1.191476621152597337e-01 3.650396688708803516e-01 -2.650636790302067437e-04 -7.586911891383766498e-04 1.854802431686755626e-01
-1.846869260494980736e-02 1.002371866931578287e-01 3.650220158524075664e-01 5.962167310514985240e-04 7.716554249362740994e-04 1.607155517901645569e-01
-5.344369877703653016e-02 4.479255160325318341e-02 3.649976618580129117e-01 1.013891120505376321e-05 -3.020520196210980956e-05 9.263795687211184848e-02
-6.193375161417468550e-02 5.659684189589773984e-02 3.650252400352217430e-01 7.780529701544331854e-05 1.280268004860659931e-04 4.846645348001508286e-02
-9.649011508273876159e-02 7.292043018523192144e-02 3.650382684652376808e-01 -2.999892428238556041e-04 -1.186920280856812091e-04 -3.099739564489512739e-02
-6.248532981611631953e-02 8.514840108497845339e-02 3.650527297208551181e-01 1.474987294541803069e-05 5.378727474781537033e-04 8.161156650494308384e-02
-3.882423974090917773e-02 1.127125323762344505e-01 3.650003510077250990e-01 -4.771212828165312630e-04 -2.845610624857824057e-04 2.724158417144188771e-02
-3.592825842437002287e-02 1.099892950132405206e-01 3.648725112005908877e-01 -7.284314805786515087e-06 7.660814324223524279e-04 7.324141811561943327e-02
-4.347949686240521611e-02 6.521685981393800235e-02 3.649245778400485030e-01 9.432620585719249279e-06 8.970582739866398564e-04 9.114866340829091973e-02
-3.283904869542499799e-02 6.641015443075388991e-02 3.649991794150279634e-01 -1.767375367307089419e-05 1.515549356594965728e-03 1.428571675910950134e-01
-2.589400238811543145e-02 7.040875030046118976e-02 3.650126293014784307e-01 -6.418960934466342281e-05 4.612668067989321853e-04 6.799481700972798137e-02
5.474553767960002072e-03 3.810864284641420074e-02 3.650215337233778667e-01 4.669135083833499643e-04 1.112872518420916215e-03 3.201999471932581720e-02
-1.740089716551547483e-02 7.602043529682275813e-02 3.650394604180198233e-01 -9.961383432283024784e-05 -8.161645910533221445e-04 -1.555394902556662268e-02
-3.528389885448060537e-02 6.666011973182939254e-02 3.650800945258740882e-01 -2.337712518422760052e-04 -1.211305656363128105e-03 1.550719697566375344e-01
-3.647634155379609472e-02 6.996074154204788564e-02 3.649554371099089645e-01 4.213638051444596594e-05 6.908894569961670151e-04 -1.088164490834387342e-02
-2.604059073912215819e-02 1.062320972094528970e-01 3.650100746601906976e-01 -6.723128835492024396e-05 7.958782579134483825e-04 4.511552644774007720e-02
3.605300545359072656e-03 1.022677271161394480e-01 3.649839842888216723e-01 5.907906293450736543e-05 1.940849902943151859e-04 -1.362531537850607613e-02
4.040790006592114708e-02 9.271397259920381717e-02 3.648729093409878166e-01 2.221474153541358367e-04 1.637614056122883160e-03 1.427123875700269176e-02
6.396415175174079149e-02 1.180773389734055961e-01 3.647894245994043882e-01 -2.861600923801575986e-04 2.606437254643890252e-03 8.710325792491548091e-02
2.938747991679288227e-02 6.357734460923210318e-02 3.649413641572065714e-01 4.000890801895934747e-04 -1.577690664163909553e-04 2.833586686952315956e-02
3.279227899136898626e-03 4.963586385834299619e-02 3.650017536433954324e-01 1.795033256109424436e-04 5.724705460472502756e-05 -2.326771485320739546e-02
-5.035292884100373012e-03 7.776310391361279661e-02 3.649866089840549943e-01 6.214920117436882076e-05 1.450497994411180272e-04 -4.667617558800486038e-02
1.076406758258526518e-02 1.067117362359047000e-01 3.650806934733579756e-01 -2.257400423167491889e-04 -8.990909211499371022e-04 6.141915600646800921e-02
-7.193939636666853675e-03 9.022481134867234298e-02 3.650208621417854182e-01 6.923169639258555880e-04 2.118259665725987257e-05 7.000787931239182971e-02
-7.005568575897434987e-03 8.671812907683047744e-02 3.650123993851901449e-01 -1.724186386379928325e-04 -1.261545819048197521e-03 1.287793265795229014e-01
-3.529502351577258612e-02 6.647264031345379021e-02 3.650191211207456932e-01 -2.104808093522344875e-04 -7.718069700383894472e-04 1.456918162796350391e-01
-2.540370752877613852e-02 8.205702464624586856e-02 3.649289093823241403e-01 6.612506040842536746e-05 7.318756932610627009e-04 3.618935323087748429e-02
-4.009289455638338773e-02 5.794648987051673195e-02 3.650491193861030714e-01 5.864882002373780290e-04 -3.513880863184185629e-04 1.449602837101068020e-01
-7.379115350547628405e-02 6.734638284482014070e-02 3.650273857029564528e-01 5.581143392748155915e-06 -4.047435087509883154e-05 1.056089703203587915e-01
-6.073752394555496925e-02 1.082341288525183048e-01 3.650187050166012748e-01 -4.081310079935814906e-04 1.987065891595176043e-05 7.577111689200974332e-02
-7.483431478956001359e-02 7.169377087668672710e-02 3.650093511953003689e-01 2.794377736657269163e-04 -1.936076943858354099e-05 9.936927594275728193e-02
-1.682509516545758685e-02 8.357590709433126985e-02 3.649880672421542682e-01 -2.660899251848946852e-04 2.145723118204799669e-03 4.358460474397597012e-02
7.222886516991786597e-03 3.439434358270777869e-02 3.649332887619572974e-01 5.131903216578852749e-05 9.455533866881196941e-04 4.775715549719192904e-02
1.153404021156278006e-02 5.489117654679254166e-02 3.650250452166816650e-01 -1.522155675350708379e-04 -3.970873653379793935e-04 -9.607042046827334860e-04
4.457359390804054022e-02 6.559088286952971525e-02 3.650228576024982519e-01 4.421892333290283576e-04 9.166690946116318444e-04 1.853684278101173574e-02
2.594524060636483817e-02 8.268029144647384698e-02 3.649995974109978558e-01 -5.615993245817566286e-04 -1.980456632751923570e-04 -6.160807187470655755e-02
-1.923497645007140114e-02 9.566891545745785652e-02 3.650024644504128446e-01 -3.658948376251454772e-04 6.183833166348188604e-04 1.355282043482707477e-04
-1.048306924245530694e-02 8.954771360232337274e-02 3.650062439005978265e-01 1.634656598290667995e-04 3.728957918075003988e-05 7.962306153042884860e-02
7.215870651465642813e-03 4.958301499062149620e-02 3.649728722111201806e-01 7.301763721653972922e-05 -3.369870720891090599e-04 1.478102012978034230e-01
-3.900631569553876521e-02 1.022041375355385584e-01 3.650046195553008355e-01 1.070368080384245248e-04 -4.770153748520277403e-04 1.221591004402081682e-01
-1.838830741301239122e-02 7.188404637224236893e-02 3.650244422995649884e-01 4.445885661742686478e-04 -1.114953841071759862e-04 6.359752220120247490e-02
-8.343829067089704107e-03 4.525595774377792063e-02 3.649544288971396933e-01 -1.975270263887462021e-06 -2.189984505390251475e-04 1.737352494769505568e-02
-1.777869132634239333e-02 7.766442580447699418e-02 3.649653895292994665e-01 -5.147800205539656079e-05 4.630889819569896336e-04 6.954335851758350340e-02
-3.735702564849292806e-02 6.000681836106225298e-02 3.650158254904528610e-01 -1.733267759373734092e-05 -9.686799537818020864e-05 -1.780915164976333218e-02
-2.307682517981740275e-02 5.103135896495619023e-02 3.649967872273807701e-01 -1.342948879508029791e-05 -2.301688193246273181e-04 -1.333309443182763288e-02
2.577750002206255150e-02 7.930580074970491888e-02 3.650171303690017410e-01 6.071501891579580003e-05 4.814568826441283653e-05 -6.634161768395109571e-02
1.266864959109801139e-02 1.543820586385489906e-02 3.650009286392167374e-01 4.262038375547306471e-04 3.778837226258708985e-04 -1.898546448482706095e-01
-1.675784207325259692e-02 1.557204828072929204e-02 3.649940051401245888e-01 -3.879720421846641191e-05 -4.475149729818221579e-04 -2.829553603782184457e-01
-1.952844086705058865e-02 -6.683214781639974789e-03 3.649788202334258713e-01 -2.589306666760769629e-04 -1.777760026258434311e-04 -6.002940424066660619e-02
-4.444110781724438380e-02 1.651853961396756651e-02 3.650291496214325138e-01 -1.222343314493845221e-04 -1.879138900647861173e-04 -9.281777087632889223e-02
-5.017567845537491272e-02 2.183787252350798819e-02 3.650106055242953174e-01 -2.075173843315646547e-06 4.129762116798274866e-04 -6.835720400506781376e-03
-4.349103374190430027e-02 2.556048521757898345e-02 3.649434473516980360e-01 -1.507330060908568855e-04 8.789501320638039088e-05 -6.481805404943986881e-02
-2.243762688368221986e-02 7.706917638314637886e-02 3.650291689047731047e-01 6.108642342885423949e-05 7.414838535060583932e-04 -2.421509277032914912e-03
-7.425885352864362854e-03 4.952772427704432018e-02 3.650451184861649434e-01 4.271429484640885564e-04 2.874772498914341095e-04 1.178926927077969013e-02
1.720596946792874241e-02 4.656927428545110104e-02 3.650464523162451624e-01 1.316967509212749166e-04 1.263868321162089242e-04 -4.699100729713891894e-02
1.156990566116283467e-02 6.618708146828093664e-02 3.649473206400509762e-01 -2.035491268528832312e-04 -2.490192094368601163e-04 -1.139629565065588962e-01
-1.453030051350005791e-02 9.576859920279787164e-02 3.649844839661285922e-01 -3.860995410467576256e-04 -2.471762868973353630e-04 -9.463124113487650368e-02
6.857414944937967327e-04 9.254697812211849783e-02 3.650535084788751883e-01 3.514962995756875232e-04 9.906008003653016855e-05 -1.153024135571392578e-01
8.894547115325815781e-03 9.700886865601014708e-02 3.649371873151742163e-01 -2.595308665885167156e-04 3.154713390112280549e-04 -1.344242308578507406e-01
-1.093499482647026719e-02 7.710603672963549371e-02 3.650214503494952911e-01 -1.024852897403018249e-04 -2.832216604739284016e-05 -1.130551454240937420e-01
-2.021645333992127657e-03 6.004854646945005647e-02 3.650398071491421925e-01 5.090384939452169367e-04 1.802883039665161208e-04 -1.140094652326350683e-01
1.725368755756508804e-02 9.794052674462222496e-02 3.649660952712711071e-01 -3.824627979823455918e-04 -7.929159579902957545e-05 -1.748098607351184219e-01
7.520476339814070009e-03 1.097763220064736089e-01 3.649498607238272907e-01 -7.139755628807400046e-04 -1.844339219442198138e-05 -1.268739356251591954e-01
1.822481960371059861e-02 1.001085897985735107e-01 3.650102186517658609e-01 9.302399010487689046e-05 -1.816588289495079007e-04 -1.519868483260812184e-02
-1.160640059013616499e-02 9.717477961470899483e-02 3.650297739393989493e-01 3.877128172184151895e-04 -3.207609084294356372e-04 -9.679633235068871300e-02
-4.003220836415047335e-02 1.046973321414834679e-01 3.649767845138624511e-01 -1.240245115008745374e-04 2.528960975106244249e-04 -1.227606075959643966e-01
1.014651768261686481e-02 1.114437721346594606e-01 3.650955325205367252e-01 3.335549483076964868e-04 3.191893918645643939e-04 -2.275897410987297032e-01
-1.472394478746043376e-03 9.002180545138611933e-02 3.650458977735899779e-01 -2.242583847968466961e-04 2.906949294047592950e-04 -6.009698455872622413e-02
-7.703766283896762565e-04 8.914113531639981935e-02 3.650859461895563651e-01 3.598735034339115035e-04 -3.905486745949381805e-04 -5.198481400924254842e-02
-8.390259987762549443e-03 6.787619996834494407e-02 3.649716151974873313e-01 -1.378286457941093463e-04 3.471317639735335583e-04 -1.334308775846793638e-01
1.766262394008318807e-03 5.798053370621981950e-02 3.649901608607429848e-01 -1.575639377613571830e-05 3.645555878157174016e-04 -2.252563068346738195e-01
-1.389178922478488329e-02 1.110287344384825042e-01 3.649112883582716904e-01 -9.004681281183813269e-04 2.471938114183314409e-04 -2.050746357207604564e-01
-2.319698031126060309e-02 7.157710739332379113e-02 3.650080362056060124e-01 4.961848808640027158e-04 -3.519715349792504290e-04 -2.826664097685675503e-01
3.972687861546783487e-03 8.386795901368231110e-02 3.648968079964179934e-01 2.100202783323161775e-04 1.134560731874825236e-03 -1.506972243324737060e-01
5.024562707210707309e-03 1.097466616816788337e-01 3.650487089953840525e-01 8.398977326814271923e-06 4.182430682309037695e-05 -1.600314916020564859e-01
-7.796343618414466187e-03 9.623914218760801220e-02 3.650510815484168670e-01 -1.906628808884142800e-05 -3.340781460555408938e-04 -2.387278158197071454e-01
-7.839657819677342369e-04 8.467546677948634137e-02 3.649486392546966718e-01 -7.751101087253594148e-04 5.095839766440888197e-04 -1.584126926560747994e-01
-1.306290198352419267e-02 9.526193562283565008e-02 3.649324467790693305e-01 -2.231631428677609882e-04 2.594893573477232524e-04 3.116048817389032582e-02
-1.055715029180775109e-02 1.049092212219127074e-01 3.650458020333713360e-01 -3.365414856349839838e-04 -5.063145688698005541e-04 -5.915863390550295947e-02
-5.560125902430385764e-02 1.196228127703328203e-01 3.650027660484476133e-01 4.506856965803515453e-04 -3.119433605949203155e-04 -1.513162331753271639e-01
-6.202818256718737461e-02 1.077744188569218636e-01 3.649597613039281541e-01 -2.622107772674307823e-04 5.437894503237710104e-05 -8.129362607826123854e-02
-3.060983902288684499e-02 1.181170368786511465e-01 3.649215754411420098e-01 -2.858212058365990267e-04 1.111987830185288289e-04 -7.473378949935345628e-02
-2.649417973343878158e-02 1.068109732773312864e-01 3.650143043862191794e-01 2.794136536012110797e-04 4.245085785010177960e-04 -9.435192045577009412e-02
-5.411178693595126293e-02 1.066108785668597875e-01 3.650207668164038299e-01 -1.738050169859954759e-04 4.606488123140366989e-05 -5.625310510130952790e-02
-5.943568340076635370e-02 1.197367657381041561e-01 3.650557063698891547e-01 4.087719286648841890e-04 2.617520272643033066e-04 -1.224226666102533195e-01
-3.373917873091434455e-02 1.203888502420342871e-01 3.649168138655396465e-01 -2.654691289892310282e-04 4.595909391102501315e-04 5.184466046610090167e-02
-1.890476642020394796e-02 1.289765199194480572e-01 3.649957704268459446e-01 -9.950988501428779216e-05 1.009227757788252299e-05 2.604990606385588006e-02
-3.006415150098471628e-02 1.036135145267415569e-01 3.649944590711584613e-01 2.408946044589665915e-04 -1.118771887245754472e-03 -3.796116673192452724e-03
-4.501857852945752997e-02 1.503017276565346561e-01 3.649828906379480320e-01 -1.834872247277491187e-05 -5.700100878462934710e-05 6.595952319806477893e-02
-2.994615405801676414e-02 1.634017703297215574e-01 3.650167045836232305e-01 1.313868430787327744e-05 2.548780924067406200e-04 2.751357949157538438e-03
-2.372594547073186497e-02 1.263629164322881970e-01 3.649896128887525348e-01 2.123003691794059418e-04 8.145478059989034623e-04 1.041108156060757267e-01
-2.422418103230849704e-02 1.494956600217376419e-01 3.650484728898384379e-01 -5.835992677890855778e-04 8.040603426218772632e-04 -8.886393832221342604e-02
-2.958205862001609537e-02 1.118045834282515166e-01 3.650448251800413324e-01 -1.412427488719041047e-04 4.580853413574342923e-04 -3.980187626364421055e-02
-2.710424249861127788e-02 1.317985368640140209e-01 3.649691215473870876e-01 -2.666378671205445455e-04 1.733719484024602212e-05 -1.536146081546457300e-02
-1.428041114361712147e-02 1.127031964785856488e-01 3.650075528921489232e-01 1.065251850226039146e-04 1.527662772661107673e-04 -9.031092488949643907e-03
1.918084894161018036e-03 1.194195261624652754e-01 3.650085346499448713e-01 6.000528511421134617e-05 9.677939759838390978e-04 1.664466590211229058e-01
-2.154346438616271467e-03 1.158760016982834651e-01 3.649901109324191761e-01 2.355752979003562591e-04 -8.646792888940241879e-04 1.062439911658430575e-01
4.642021240173933340e-03 6.326594637301111157e-02 3.651150021878136753e-01 6.238392082949234660e-04 3.900470693814344367e-04 1.398783184877438746e-01
-1.169233488265200224e-02 6.457207678827533992e-02 3.650096564673947497e-01 2.293134741304535108e-05 -2.437621463067133959e-04 7.931997675367219447e-02
-1.451218185120265250e-02 8.967451499184639352e-02 3.650027996146323339e-01 8.154378451187211177e-04 8.818237899403633421e-04 6.768159893534375637e-02
3.683864367198091613e-03 5.606259290018397734e-02 3.649560387634488423e-01 1.555766696153108885e-04 -1.583227049925363958e-03 8.958240488307224469e-02
2.777284950876945588e-02 3.658751268553663699e-02 3.649695520319536368e-01 3.555149369773985264e-04 6.227760947719627538e-04 -3.892335575095695610e-02
-9.195567983431735329e-03 5.416298439380343166e-02 3.650053348054147495e-01 1.807680672685679009e-04 -2.623044335899555398e-04 -1.375694849537963671e-01
-8.268336846818831465e-02 5.349435989602832620e-02 3.650059719439878725e-01 -8.375042172133004704e-05 -2.486315548835025071e-04 -9.941591286549728013e-02
-8.122728579799358417e-02 6.091525436317233450e-02 3.649172437849095285e-01 -4.413016999860503060e-04 5.242828179691945943e-04 -1.793368903506011580e-01
-7.226159517709393465e-02 2.007463086104028377e-02 3.649583492800461682e-01 1.835528070848954640e-04 4.576063755896085639e-04 -1.713591185038881859e-01
-8.743399180608850407e-02 6.912669223804365770e-02 3.649398935893566343e-01 7.038715438223720733e-05 7.372542896937892606e-04 -1.016222373553231639e-01
-9.876817120274210271e-02 7.538751921423895996e-02 3.650190310273054295e-01 1.579441885519504787e-04 6.974622577879127183e-05 -9.306638611779786963e-02
-8.774123019479047880e-02 7.824972618212194808e-02 3.648391177334389113e-01 9.832495749450631886e-04 7.390848172352684851e-04 -3.085385350164625562e-01
-9.848612285952455803e-02 7.450696037918953796e-02 3.649580083363104244e-01 3.671178017856748833e-04 8.484259483822785346e-05 -1.218310699097304994e-01
-9.710782966489837909e-02 1.216488031120716712e-01 3.649333923559116011e-01 -4.205449694058254330e-04 3.484027081907297351e-04 -4.902480357284651202e-02
-1.038506906036775895e-01 1.296000838287828250e-01 3.649975860878768019e-01 -7.837005153401187718e-05 2.558306176446931710e-04 4.820043974413167759e-02
-1.053713334733966805e-01 1.121594342103302278e-01 3.649852390006589342e-01 -2.921731803284549639e-05 -4.364303955998963139e-05 5.990657998983595078e-02
-1.005494414291519256e-01 1.327979756908297393e-01 3.650224499554846069e-01 4.767435870173579665e-04 4.234246308247033362e-04 -4.639661328082965441e-02
-5.042178861241650850e-02 9.322894607603546269e-02 3.651141191194321456e-01 7.796668850083957091e-04 5.242017076914811183e-04 2.852096158891104238e-02
-4.545488668822061928e-02 8.228585757035801473e-02 3.651441578942388189e-01 -2.618593596375933885e-04 1.146385481670769224e-03 1.659697408533806207e-01
-3.194765024624156291e-02 7.753378523210506523e-02 3.650664218287150709e-01 -3.484539587023121232e-04 1.126373601554199423e-03 1.094472650305775008e-01
1.559024676694559589e-02 2.833903821007304272e-02 3.652018752469859963e-01 1.179530977291161223e-03 -5.455046870709560512e-04 1.972291878538006971e-01
-9.397114331352023758e-03 4.042389635740343407e-02 3.649003066217282321e-01 -8.178202794246977082e-04 -1.810141319062899394e-04 1.992584142170893691e-01
-2.814862926737573059e-02 5.943440749145895152e-02 3.650347008992562703e-01 6.122510850714877944e-04 6.394687816879102800e-04 3.491285741999446829e-02
-2.352887698110130502e-02 3.477003745194223727e-02 3.650030465674274915e-01 3.340552132739685125e-04 -1.866112251093465476e-04 -5.402999507423377618e-02
-3.243920848456767481e-02 4.764068675524106566e-02 3.648956671524674067e-01 -2.525330337875019739e-04 8.866103914950862648e-04 -8.534675413786914355e-02
6.268802318266188979e-03 6.684823697765461537e-02 3.650509753286613202e-01 1.707719539672729965e-04 -2.562508795894363560e-04 -8.363630146623446393e-02
-2.434148782110314921e-02 3.288712759168214289e-02 3.650016300800875690e-01 2.773321685426984951e-04 -5.580100096338616936e-04 -1.197949664880070542e-01
-3.151042277744924014e-02 5.499043318780071771e-02 3.650506596339201937e-01 4.167316098651470630e-05 -4.083714226909543788e-04 -2.110855350373658790e-01
-3.761633687650341867e-02 2.172852013939280749e-02 3.650368885781820616e-01 2.202906800701706896e-04 -3.894712263260878202e-04 -5.282760609485027264e-02
1.055861382446092109e-03 2.465034666995521984e-02 3.649578326234615977e-01 -4.393900465777912044e-05 2.667163220437769665e-04 -9.427264133415022562e-02
-5.381724571185226777e-03 2.587158085093924434e-02 3.648804204670912377e-01 2.003119810000538955e-04 9.294644237262861177e-04 4.172810579317345892e-02
-1.192844779331434651e-02 7.830448176988406839e-02 3.649563248469411825e-01 -1.774374781957813825e-04 -8.553977850369569454e-05 9.184530066839323784e-03
-4.975133088796541980e-02 5.500104722795803869e-02 3.649574746779387091e-01 5.063183722963528037e-05 -4.174346988246754289e-04 5.464998078132037029e-02
-7.527771742263411614e-02 9.482842682869623008e-02 3.651256769782876832e-01 -2.604202400610478398e-04 -5.866768288310369572e-04 -1.061759888487908282e-01
-8.993218836995289789e-02 8.590699752225530728e-02 3.648664229908166745e-01 3.491304303028905549e-04 4.228580793403837325e-04 1.319666408787274585e-03
-1.077100818805524080e-01 5.853428446870969498e-02 3.650243333358080822e-01 -2.068176601092646489e-04 6.245043969330925241e-04 -8.514684842252592811e-02
-1.109484148052516661e-01 4.232757127659262514e-02 3.649423644952883850e-01 2.842071708523886855e-04 9.148161544222251605e-04 -7.862042996224380409e-02
-8.730259914332753890e-02 6.649124537645884070e-02 3.650428742570291929e-01 -8.601203020062932626e-05 4.842335407972609058e-04 -3.580893171505342143e-02
-4.385619922017846423e-02 7.563837625534909626e-02 3.650703084818200383e-01 1.267507409938658396e-04 1.324904926974529050e-03 4.868374086984864069e-02
-6.171821360338143603e-02 1.071240255704565963e-01 3.649854673119087289e-01 -9.977576168519364957e-05 -1.513183031122968219e-04 9.431033057371275563e-02
-6.332583857186667442e-02 8.438512784521291776e-02 3.650372245380888447e-01 2.750156838477730409e-04 1.782024661399031788e-04 6.720383133424856492e-02
-7.440846527624013496e-02 9.462226999152022200e-02 3.650040217766130635e-01 3.167510188505005776e-04 8.930237434889878281e-05 -1.366244651446051339e-01
-7.856969238952214718e-02 8.517989446693600974e-02 3.649610632514592723e-01 3.891329890971072919e-05 -2.139188710850635174e-04 -7.036945998475617470e-02
-7.881024028442808194e-02 8.065856031343567045e-02 3.649503619177031366e-01 4.854105619034396467e-05 9.091683264964445926e-04 -1.973196608590121470e-01
-8.250058606395591076e-02 6.644130453767892186e-02 3.650214525176751490e-01 -1.348602436720340746e-05 7.579458269749224548e-04 -1.031801712117857289e-01
-5.493852429526552977e-02 2.995228310759794760e-02 3.650071910106553741e-01 8.716482224591139963e-04 2.627384711471267287e-04 -1.378613619657312883e-01
-7.568721114710220965e-02 4.027686081602670221e-02 3.653587719709373016e-01 -1.387371017516800221e-04 1.778262673983544177e-03 -2.091541756001284447e-01
-8.621829415476800484e-02 7.687837780516738884e-02 3.650299312692283360e-01 -6.976656304381211775e-04 -4.574068770021809372e-04 -1.681991013542743219e-01
-1.117837305030077583e-01 7.592012550618600086e-02 3.650089808014037596e-01 -1.564024319308821517e-05 -1.044217133598682526e-03 -9.862908260261545046e-02
-1.251713755315362053e-01 8.298875097708040272e-02 3.649890932954181766e-01 -1.027446383247386519e-04 -3.869528081406402678e-05 -8.414697641614728163e-02
-1.179242927126414181e-01 3.327820643108059945e-02 3.649364092323509334e-01 3.912971673047948326e-04 8.625787791014463018e-05 -9.703009221792924244e-02
-9.026132181680127098e-02 4.924803593268291431e-03 3.648306424689963245e-01 3.753172508908033701e-04 5.450142505778250062e-04 -1.321024260273240547e-01
-1.111870481957494411e-01 3.263410557097168319e-02 3.650019496666768726e-01 -3.622068945474928915e-04 -1.350399366454018054e-05 -1.627553459700056548e-01
-9.942779311918906182e-02 6.033262387978864660e-02 3.649403249244581593e-01 -4.012523477760871030e-05 3.128423170735561832e-04 3.095870379782584766e-02
-1.052137638795163643e-01 7.919763158170357864e-02 3.649730118537276580e-01 7.997820930813801356e-05 6.052255278588443421e-04 -1.747867792639591078e-01
-8.551434485488428050e-02 8.036257263516871641e-02 3.649477457991709972e-01 -1.385738832068292758e-04 3.112695554033022109e-04 6.585928094499306391e-03
-1.115902099468444875e-01 9.561323167429422454e-02 3.650041771188415329e-01 1.077905390274041153e-05 -4.351622239389597749e-04 -4.238547110991778980e-04
-1.483779845159325650e-01 1.173851562683657229e-01 3.651184623096684900e-01 1.540531147564813328e-04 -4.231578615047395771e-04 -1.506591275938999608e-01
-1.990252197263810974e-01 7.852112074746744885e-02 3.650328737063796569e-01 7.829678846739214406e-04 -4.130720987116106679e-04 6.153304277364127391e-03
-1.861730849430367485e-01 1.010002209967568731e-01 3.648348053967674920e-01 -2.147877737768776702e-04 3.178125390000528143e-04 -9.784444530143267260e-02
-1.480187184609352002e-01 1.383140559053614160e-01 3.649585555601223552e-01 -1.461710505135562627e-04 7.834474389876081414e-04 -4.590927289142125722e-02
-1.306514339515088552e-01 1.449126900396315865e-01 3.649462577372809546e-01 -1.216529465461872354e-04 6.531661360359142232e-05 -6.432902074743131193e-02
-9.664385938441641399e-02 7.814783162448364628e-02 3.652248390505983822e-01 7.304281544805634125e-04 7.904725344505743627e-04 4.577053737448787130e-03
-9.386524830604227321e-02 6.359043889896337509e-02 3.649715517791251029e-01 -2.808324479863163483e-04 1.418400750930283808e-05 1.217940581923765073e-03
-1.013366439970134758e-01 6.989980738328629983e-02 3.650044595362060829e-01 7.194957342188588697e-05 2.841619627412855158e-04 1.792810074379012561e-02
-1.057289840544245046e-01 1.078385390240836766e-01 3.649879440611513148e-01 2.035782957733609692e-06 -1.893482685520488074e-04 -2.399325392806458401e-01
-1.715278713210056649e-01 8.357444433677582718e-02 3.649864640092689294e-01 2.411210655040739914e-04 3.655371501343540933e-04 -2.746618628865385991e-01
-1.376530779147643879e-01 1.628690134949699053e-01 3.651258508829886007e-01 -1.186332277599010197e-03 6.698005784681930691e-04 -1.634695191942885928e-01
-8.711204696745461495e-02 1.099551378494650761e-01 3.654076001278975250e-01 9.359759430185557363e-04 1.240572049634995665e-03 -1.632067778886705234e-01
-6.810237368971676364e-02 7.091047012170874353e-02 3.651322795318638348e-01 2.158345799979113054e-04 1.721357097965634756e-04 -8.744407472133901293e-02
-4.514223351836915005e-02 7.855000524178518129e-02 3.649650676076024447e-01 3.837488032337289324e-04 -4.256402884593178714e-04 -1.836413940375010712e-01
-7.524145392643130648e-02 7.215754559997428208e-02 3.650307524261303116e-01 -2.754455552488924673e-04 -3.859392074745716136e-04 -4.726759279647534812e-02
-8.550285867903674453e-02 2.468132148427002598e-02 3.650294434793470710e-01 7.220834605399173911e-04 -2.279786071740152402e-04 1.999925038738351035e-01
-1.349213342817878747e-01 4.324260301496007236e-02 3.649695070906113226e-01 -2.870373737258619061e-05 3.030965135445533852e-04 1.453232069304048746e-01
-8.731151605241230240e-02 4.944713906845894791e-02 3.650749250639582222e-01 3.601036010817131212e-04 1.336084602415994011e-04 8.962671033903936435e-02
-1.085009751209771028e-01 5.491775170261159467e-02 3.650468161917087562e-01 3.160495044567122923e-04 2.379286534042812998e-04 1.332512757579266960e-01
-9.087212241306887039e-02 4.042966804896608313e-02 3.649299184354787284e-01 1.068215332870979387e-04 6.027713972351670481e-05 1.606743888323588221e-01
-8.755974069493388523e-02 6.307322559463600375e-02 3.651190518602800417e-01 6.227248596531124308e-04 1.432545135619112532e-04 1.896051464836542022e-01
-1.023592544244917857e-01 2.309887116919095637e-02 3.650119781251632833e-01 2.761190811518737039e-04 -7.668929905529356036e-05 2.211700036758635912e-01
-5.515360924517941771e-02 -7.495280701501713487e-03 3.649276230517399799e-01 7.908338603703516864e-04 9.127681118468299742e-04 2.772831708697186537e-01
-1.073334346380266403e-02 -1.205106978003169307e-02 3.648150820378768255e-01 9.577994481293008750e-04 1.127586756725224015e-03 3.275270071158025154e-01
2.341739695528937543e-02 9.057058515754095457e-03 3.649370682776714170e-01 2.901095227971448053e-04 7.545135479861094559e-04 3.679180354455222623e-01
-2.886906758235650156e-02 1.873027349194082702e-02 3.650076868217355108e-01 -3.054110968812723801e-04 4.481853347787275458e-05 3.235101846842567408e-01
-4.152956051833910089e-02 3.290317687701450888e-02 3.648772052383202347e-01 -1.550458740810789883e-03 -1.384783909379382451e-03 1.426170150341922634e-02
-4.293029591735425532e-02 1.297242733257373826e-01 3.649867331345305610e-01 -5.492020122894923856e-04 2.107853886015218197e-05 4.242420891019643703e-02
-5.718047922446731907e-02 6.816958021603679307e-02 3.649644129589773023e-01 6.038846179707516720e-04 1.753608442656212282e-04 1.172385292979774424e-01
-1.103163012278842309e-01 5.590216100590518489e-02 3.649938580946669453e-01 -3.753610092918271934e-06 -9.885772600625200265e-05 -2.149282383346815418e-03
-9.881591274159984284e-02 4.487818607640216284e-02 3.650281424678225584e-01 3.835019702362049221e-04 7.816091818166873064e-04 -3.633440439283149720e-02
-1.364241883945341016e-01 7.012597046244856136e-02 3.650318792147148605e-01 -2.523279051463735417e-04 1.906005950448350452e-04 6.812420140160688198e-02
-6.206973975716410102e-02 4.368415536114896025e-02 3.650806232254000805e-01 -3.728106744378262825e-04 7.426130930809233264e-04 4.828906232977326490e-02
-8.197941445975026609e-02 3.615686837953907551e-02 3.649208750289043568e-01 -2.049275715267763563e-04 9.042251009784214898e-05 8.607240558840885403e-02
-1.111599549966281880e-01 3.569851874034506156e-02 3.649675804171646498e-01 -1.716266094678244543e-05 -2.488545784889215464e-04 2.403306034326600435e-02
-8.424009587818771794e-02 3.607857597471306188e-02 3.650820044598514502e-01 3.286788542770755113e-04 7.258794423821511143e-04 -2.174296729958525437e-02
-5.258890263352279659e-02 5.328563033342692545e-02 3.649697260017369937e-01 1.246405484596446159e-04 9.944645874677021137e-04 3.009341171100581372e-02
-6.144755656823090023e-02 6.335115332209989569e-02 3.649807829982661400e-01 -8.704162868742798607e-05 -1.742131598862779035e-04 3.403811139574634825e-02
-6.299355434213375904e-02 8.861941175726757713e-02 3.650850518079724605e-01 -9.668690076584542494e-04 -3.733707901799017469e-04 7.697667234121848001e-02
-7.111207556038073863e-02 7.427905124515107871e-02 3.649367440478259450e-01 4.417987255151162741e-04 -6.995233976221775516e-04 8.570987931758443368e-02
-4.812526837475659264e-02 5.404931792246404215e-02 3.649916872496583586e-01 4.288651764923029987e-05 1.569393290939608866e-04 -7.167391026627974171e-02
-5.024924045803812883e-02 5.114229653864773434e-02 3.650023586446101698e-01 4.626930905203108886e-04 1.358937122159686470e-05 -1.992830350748238388e-02
-8.748251355597119749e-02 2.714493793322039425e-02 3.649980629804298049e-01 1.593014048215240250e-04 -2.358205722170143609e-04 -5.234106726069075871e-02
-5.127891381970613172e-02 4.026881501070221636e-02 3.649869818187838066e-01 -1.462259924893659910e-04 6.456786403863022617e-04 4.130121638972929915e-02
-6.117187390668785141e-02 6.079770343647784847e-02 3.650587175030141074e-01 1.598248310890813231e-04 -1.313014039680918154e-04 9.351059780366020174e-03
-8.731796969904538630e-02 7.105735983789231158e-02 3.650060296000083859e-01 -5.046849247019237917e-04 -8.133660592120492633e-04 9.394149507886914718e-02
-9.481865500799251112e-02 1.060890098883186666e-01 3.649864344726017062e-01 -8.677028096210672716e-04 1.315412884380992174e-04 -4.740200926957796601e-02
-7.046171737597052565e-02 1.198342428964399992e-01 3.649201324210493702e-01 3.063366353254268052e-04 5.932962409087421665e-04 -1.576405810719271050e-02
-4.739677614785620802e-02 9.326244004524010534e-02 3.648842592246491212e-01 2.543077596226795941e-04 6.140717097409506857e-04 3.632920479943506364e-02
-3.940247546900796372e-02 7.881817677192945459e-02 3.649673450557003873e-01 2.630303572355582268e-04 6.462510696631563502e-04 1.606154171102044904e-03
-2.339746542502510462e-02 1.088193651534036938e-01 3.649698960806176395e-01 6.600271459007901352e-05 6.683875451678407712e-04 -5.952226870210849952e-02
-1.238958744617088201e-02 1.052605415470148770e-01 3.649510123173465015e-01 3.459400430482542497e-05 3.617198401058465806e-04 -1.125865157325724591e-01
1.703773757973026104e-02 5.800539898818096729e-02 3.648976946993165993e-01 -3.693751853180929633e-05 2.549640353156145756e-04 -2.180064559729385232e-01
1.315850956095633052e-02 5.549038804506466194e-02 3.649732712173809901e-01 -5.183026923793937398e-05 1.817617848826599066e-04 -3.106314329415042486e-01
-4.881033296765607821e-02 5.591422549517212348e-02 3.649456056859206599e-01 7.846429939200466348e-05 1.648192389570012152e-05 -2.264166008159180232e-01
-6.802708281111984057e-02 7.962130636540533379e-02 3.649958884214303811e-01 -2.632107760819681085e-04 1.474051572286404828e-04 -4.520238768194480977e-02
-4.983159689316239011e-02 7.505807636520650528e-02 3.649668866243739318e-01 3.624395643113875395e-04 1.782768910914776231e-04 -2.624162130928136064e-02
-6.977953236942417703e-02 7.135770909394173467e-02 3.650508339034747030e-01 7.526220095112944129e-04 2.385755563896395869e-04 1.086742303529721898e-01
-2.778615807789970235e-02 7.770642312407062546e-02 3.649890269965043177e-01 -2.911615498698508914e-04 3.844521174153631019e-04 -5.224009679309548661e-03
-2.449178750714510466e-02 8.687408013771279192e-02 3.649940723242195428e-01 1.342438315255875710e-04 3.753461569026582726e-04 5.987630131280375972e-04
-6.177007117383419288e-02 7.522753227516179586e-02 3.649975024824932968e-01 3.091775418866099631e-04 -3.640570612479891981e-04 -5.979718569168973596e-02
-7.720072615641183911e-02 3.695730522077312480e-02 3.649921503840579673e-01 9.795824792974480852e-05 1.854226831025246878e-04 -1.686321383683897779e-01
-6.516835909889463763e-02 1.504904910542959051e-02 3.649950426590750086e-01 3.635604025271653222e-04 8.356332023225824482e-05 -3.118701343421309558e-02
-5.271623097347991060e-02 4.400397363656079891e-02 3.649752399248956669e-01 -1.000263819147313878e-04 -1.947567447607573819e-04 -1.046226644068535688e-01
-7.299342635345196229e-02 1.519448810763498331e-02 3.650599141524151214e-01 4.576169386943560141e-04 -6.600199813712708929e-04 -5.929865603919044076e-02
-8.670032447229551742e-02 3.874306740401275290e-02 3.647923988904455683e-01 3.241681816200256633e-05 -1.405546337855480494e-03 -1.796391021592644577e-01
-1.012543846214904592e-01 4.390110933387599002e-02 3.651470346244009013e-01 -2.047149692102207257e-04 1.708863647813393342e-03 -5.263006031125561091e-02
-8.746040135925804704e-02 3.148089094737219207e-02 3.649841414366082892e-01 1.514989610220210143e-04 8.651064833924723523e-05 -3.670701979936172310e-02
-5.323157743869367381e-02 2.448612666828579171e-02 3.650504030964418778e-01 5.883921191861793859e-05 6.843238138550865410e-04 -9.151124929629850246e-02
-8.383408254092646061e-02 -3.430045948444684824e-03 3.652513552891243909e-01 -1.446526866038093406e-04 9.176187485739518849e-04 -3.249128149743001851e-04
-4.256333710634288559e-02 6.701210673018967445e-02 3.650934939079683583e-01 1.954796301938037335e-05 1.963461103435217752e-04 -1.526600532224145143e-02
-5.980486947588425917e-02 1.353312777495455609e-02 3.650218346323766960e-01 2.043713211719128195e-06 8.294616467645061879e-05 7.494161370960766844e-02
-2.634281497577208725e-02 2.733061710149419996e-02 3.649020604119573852e-01 -4.383368325180010423e-04 7.331135846732761560e-05 6.196515217753607863e-02
-4.180608877650476840e-02 3.129940638347227400e-03 3.649853060302583607e-01 -4.323097769240992982e-04 -1.254970746555500708e-05 4.662476129401451480e-02
-2.439008430094010901e-02 6.617074357765577453e-02 3.650878092820175613e-01 -1.333167870354789390e-04 1.169671312135272872e-03 4.991379288663230079e-02
-3.416195727182638059e-02 5.495483322312612329e-02 3.649591102730078696e-01 3.997748941461583237e-06 -2.777193664949422522e-04 2.286081154738652532e-01
-6.064996954694016479e-02 1.848917026707698821e-02 3.649906298388704284e-01 3.445694740044700339e-05 -1.381860138445214440e-04 2.111502090350747540e-01
-6.563058392174070388e-02 2.979489422471313237e-03 3.650525432260094405e-01 -4.478135205071306457e-04 1.494894440105890834e-04 1.028772304030814086e-02
-7.841080161861813114e-02 2.088844670261237255e-02 3.650039805004937632e-01 -1.348689185737449918e-04 -5.065671684764133523e-04 5.513231264116496416e-02
-9.094876412369636010e-02 5.979978635889657973e-02 3.650406958831181603e-01 -4.244955341797488767e-04 -4.312485816201906642e-04 7.538133426763624079e-02
-7.108091246000335095e-02 2.435006384845489480e-02 3.650082786125309342e-01 1.386423360181333669e-04 2.250401445008169384e-04 2.996422043956024558e-02
-1.692746939360049996e-02 -3.724837447396714234e-03 3.649849324887374791e-01 1.801859694770432377e-04 2.875487734255320529e-04 -6.529952644572117361e-03
-3.442670387909183699e-02 -1.378077787106031515e-02 3.650456080021096117e-01 5.489184039974551914e-04 -6.913789329864265939e-04 -5.824832715723948784e-02
-1.925953849780295823e-02 -1.933951360230038927e-02 3.650009320311025096e-01 9.021832875664374373e-05 9.968785645888368152e-05 1.212966815824945005e-01
-5.320170833666119925e-02 -8.433088759222023834e-03 3.650263189418622156e-01 -2.310351456967921007e-04 6.067277982207006174e-05 -8.800993473627972963e-02
-1.185331275507323263e-02 8.098157442428079774e-04 3.650139519148546396e-01 -8.312403829233832046e-05 2.243235758244762766e-04 5.375544386468784214e-02
-2.653924652002304790e-02 1.903065578722495932e-03 3.649436542065878086e-01 4.348657129387019891e-05 -2.575402625346200785e-04 -2.848599164729296446e-02
-2.019484357597363042e-02 2.695782620525438364e-02 3.649890849083377575e-01 1.117614425504086325e-07 9.733557191849931010e-05 -7.116917130631743305e-02
2.742428308068415449e-02 4.723103237450759773e-02 3.651600197378513935e-01 2.723788956141795598e-05 1.126547856528322539e-03 -1.259883571600038943e-01
4.333641800882895995e-02 5.102333256080388013e-02 3.649538987770301057e-01 -1.394537273875623814e-05 4.930134853898134842e-05 -1.324359689667147823e-02
1.397903232466130366e-02 8.737508890540299222e-02 3.649931471532947835e-01 1.433227703562738422e-04 1.114453287361152347e-04 2.974200702608935723e-02
2.591777841863469097e-03 9.876413021460486719e-03 3.649473988209775976e-01 8.380862920904273366e-07 -2.514633036981118869e-05 -6.214834512535331174e-02
-2.007164255244794915e-02 4.129379501512875361e-02 3.649934353500940976e-01 7.858735702990899915e-05 2.302178901863280745e-05 -1.855526600322797426e-01
-6.020165770064587682e-03 4.435191479864490638e-02 3.649531690150726870e-01 -1.286616764085024075e-05 -4.307228591018860800e-05 2.177052497533753586e-02
-7.768788620009137343e-03 2.267310606820561319e-02 3.650136447835793385e-01 9.401280611750889289e-05 -4.885375314875731650e-05 -4.535363045639258933e-02
-3.739980743007869507e-02 4.060654006662377247e-02 3.650364217532785505e-01 -1.006489997465620279e-04 2.153254136587140423e-04 -1.589262710518452026e-01
-2.992367124187746488e-02 -6.800629733889497659e-03 3.649622014368241185e-01 1.170424223579780680e-04 1.199043174994554910e-05 -8.432447913676999196e-02
-2.509479334192074411e-03 -3.145185203760537951e-02 3.651292466697472205e-01 1.980660145686848246e-04 1.394488404690325564e-04 -3.562070077865499285e-02
-1.652369856114910187e-03 -4.969932412309212982e-02 3.649729486949362389e-01 -2.684319900096993473e-04 6.452450081516191837e-05 1.255241075397989514e-01
-1.660596207735574696e-03 -2.871857278988526607e-02 3.650313086568076071e-01 -1.197404118408838808e-04 -2.354882699035998556e-04 -7.341671942939263784e-02
