-4.757492740561670291e-02 -1.915099841517548807e-01 2.100710752255141034e-01 -4.102434923124894522e-03 -2.293954762004100228e-02 -3.435748748472599590e-01
-6.928758336221647884e-02 -2.356235583227144770e-01 2.100614829693925878e-01 -4.612648168047486959e-03 -2.287264077598858553e-02 -4.987991052852707163e-01
-1.033616520418020324e-01 -2.528960794661319067e-01 2.101246326892274863e-01 -5.416737376086100224e-03 -2.300908006965630276e-02 -3.319486498354523030e-01
-5.386817873843459392e-02 -1.818182912745185120e-01 2.100155055309657071e-01 -4.783885247937202760e-03 -2.255816739145458105e-02 -3.943686283733220943e-01
-1.879195179537122493e-02 -1.760467905996930815e-01 2.098840731145192873e-01 -4.491348835591475394e-03 -2.199990005624042136e-02 -4.640643243821500064e-01
-1.288161894075964264e-01 -1.745450263357224419e-01 2.103665166201836301e-01 -5.200739809460211763e-03 -2.424476035770856130e-02 -4.358829121541588081e-01
-1.339259149020449180e-01 -1.651409918160930690e-01 2.100493643204933147e-01 -4.301200568671105680e-03 -2.269874916072292872e-02 -4.254546042936433459e-01
-1.136902449277327337e-01 -9.077729219285511630e-02 2.100371364200878110e-01 -6.186954515853729242e-03 -2.252869036996036148e-02 -4.461158390176052091e-01
-6.727179780087784444e-02 -7.218854312486998326e-02 2.099594292243856519e-01 -5.222450273256066221e-03 -2.239972780704933483e-02 -4.265938823173321959e-01
-1.526982878871653397e-02 -8.399014143020953893e-02 2.099411788641762366e-01 -3.367620949515407261e-03 -2.225181883275430608e-02 -4.420828548801572500e-01
-5.126380754483704505e-02 -1.304221810890904276e-01 2.100503222968648220e-01 -4.060090720965138858e-03 -2.277282655558571928e-02 -4.240662340645905970e-01
-7.123787375937165600e-02 -1.113383244287323992e-01 2.100738138035547764e-01 -5.369604568130990213e-03 -2.273483892482888735e-02 -5.103291428150489306e-01
-8.255698993800786312e-02 -1.324682797862166694e-01 2.100101025437967617e-01 -4.606272313403938883e-03 -2.232073848991359202e-02 -4.074406668215530547e-01
-1.103430940232051349e-01 -1.400350473686790553e-01 2.101463690382796012e-01 -4.563710247975276933e-03 -2.274241470404521348e-02 -3.407507336483644456e-01
-1.196881007461972485e-01 -1.219041312320991582e-01 2.102240087879816421e-01 -4.294575901710917000e-03 -2.256973403339277914e-02 -3.418062125561530107e-01
-2.695478910717807874e-03 -7.475307149601934098e-02 2.099739957735085594e-01 -4.894235510299909352e-03 -2.091342199155440257e-02 -3.549071917511980034e-01
-1.136170138043227605e-02 -1.346843366051719004e-01 2.102736116679517764e-01 -3.475561877280577017e-03 -2.150796028763829471e-02 -3.372171888650055682e-01
-1.388646600908833087e-02 -1.458530809969034170e-01 2.105788181229597544e-01 -4.259232286790601632e-03 -2.202268823304604634e-02 -4.163778896235889038e-01
4.157806667355661012e-02 -1.121453413005749911e-01 2.108000168532581653e-01 -4.307933487362343092e-03 -2.188891446972876867e-02 -2.928555840005611088e-01
1.594348724623791819e-02 -1.426014145154737012e-01 2.108311972388164923e-01 -3.167805280229223606e-03 -2.087292247374935780e-02 -3.003601584774334698e-01
-4.883631383735424075e-02 -1.424687830159359070e-01 2.110920777386142699e-01 -4.742577148469220849e-03 -2.080539186883480912e-02 -3.360745914240771404e-01
-4.972852373178380386e-03 -1.410722269312985333e-01 2.111936641691172234e-01 -2.698808469637076646e-03 -1.936332821480477029e-02 -1.946774311105591293e-01
-1.552329967363319171e-02 -1.313647582154978122e-01 2.117700434568351997e-01 -3.239669508358403258e-03 -1.941100327745026027e-02 -1.359636101040916645e-01
9.218254865846420981e-03 -5.437026009728980480e-02 2.120886100042210232e-01 -2.999972319127503124e-03 -1.688839925182069462e-02 -1.336191871605239001e-01
1.639920986054757557e-02 -9.985372241273196559e-02 2.126716025305474544e-01 -9.749702546870464342e-04 -1.405394292996738244e-02 -1.484581488982029684e-01
-3.065781405302124216e-02 -5.590803652104509025e-02 2.133113410017958289e-01 -1.835861962535543070e-03 -1.046288580492254518e-02 3.896945018665003146e-02
-7.187237863175703623e-02 -1.836461633998801024e-02 2.139274394332105755e-01 -4.918834084087948810e-04 -5.373956478643798253e-03 1.285379777204125329e-01
-7.061956742627921446e-02 -1.183621201490192149e-01 2.144063694736261794e-01 1.827364868845886671e-03 1.629620593717479721e-03 2.362340767910455219e-01
-4.048194907758002892e-02 -1.027238884476540381e-01 2.152235311539007490e-01 -3.409992227373456227e-05 7.612983736757808657e-03 3.598180491580250107e-01
-7.522007375239136984e-02 2.171011732173790815e-03 2.086432974619569780e-01 -3.094969194139713352e-03 -1.554995350806976165e-02 4.054831602569305971e-01
-8.044042220703048751e-02 -9.898122646219619999e-03 2.093036586329038440e-01 -7.839072654980234426e-04 -1.004103587845029885e-02 4.065318694096319851e-01
-9.999579790587755090e-02 1.367961190923465062e-02 2.101174732294767145e-01 -1.477463911355283760e-04 -4.087707045756951499e-03 5.780697730649030364e-01
-8.386768592001084266e-02 2.922580521927854030e-02 2.110806490363100196e-01 -6.649049327280073406e-05 6.136179908217327152e-04 3.463702004776414989e-01
-1.166385230156207764e-01 5.612161527832004726e-02 2.120487823696188268e-01 -3.141551688969691542e-04 4.412988642947176035e-03 1.408417193234118847e-01
-8.946821838922133785e-02 4.042695913499008004e-02 2.131984243021632919e-01 -3.758337868304421686e-04 7.867181874228121319e-03 8.866576911541480810e-02
-1.162263413823073216e-03 -2.487604973695265176e-01 2.142783538742532023e-01 -6.954951925298349241e-04 1.096006996836129503e-02 -6.074562800203296697e-02
-3.590791526363065755e-02 -5.736850474778888709e-02 2.149941175316147368e-01 -1.800470885579147536e-03 1.412916061209939893e-02 -2.664832240870381175e-01
2.016053307902884728e-02 -4.966531054091984781e-02 2.159967477871824193e-01 -2.696348384939512878e-03 1.658158523585763142e-02 -1.629453623289420922e-02
3.635618494743618478e-02 7.841511376916195097e-03 2.170500150277685503e-01 -3.196236780311748679e-03 1.843123554043062454e-02 -8.657141586875617689e-02
1.174842243244041823e-03 -3.646061025274064532e-02 2.179920945039248159e-01 -3.837328384016786345e-03 2.046655711100097905e-02 1.276381322899116655e-01
-2.427282895890241488e-01 6.985365326020545607e-02 1.989956239756848211e-01 2.629695815162555006e-04 1.388893970067597199e-03 1.702913878596493125e-01
-2.847311416344363022e-01 3.270563456760464116e-02 2.000492220794800602e-01 -8.597231868858131213e-05 2.217854092571797456e-03 2.067539714317885580e-02
-2.717619828207222255e-01 1.242753275298281723e-01 2.012306345991308754e-01 -8.268802125077015107e-05 3.539775952075344123e-03 -1.486421265955026605e-01
-2.321243844054827754e-01 1.322395013016412768e-01 2.023090733539731345e-01 -4.288385343619970503e-04 4.428604073879497185e-03 -1.601125973946336545e-01
-1.794399961002292043e-01 1.175088795150815990e-01 2.037832497948576238e-01 3.524041616366702036e-04 4.969523140755121096e-03 -3.607459075315899155e-01
-1.266698076587250144e-01 1.033866699007768841e-01 2.048789685181285347e-01 -1.812177433481086631e-04 6.080433901472509159e-03 -3.390594836830019831e-01
-1.302738935660294750e-01 9.187071928217124817e-02 2.061618565698933314e-01 -5.864436134541844460e-04 6.057178203582320140e-03 -2.408519629493288960e-01
-6.586767294994386179e-02 1.073764925468421727e-01 2.076784444193666701e-01 -4.483408314984414778e-04 6.309860086742103552e-03 -3.053194330163541137e-01
-7.266675311560491513e-02 -2.582100853908941840e-02 2.090406683501490614e-01 -7.580900427125034568e-04 6.307746503647092273e-03 -8.996996805847633227e-02
-1.287053885557592203e-01 1.766326431802390240e-01 2.103209417974130635e-01 -1.516903933844574153e-03 6.554848235053921043e-03 -1.848495192978133472e-01
-2.129295010228381829e-02 2.083581444727977405e-01 2.122093679985462833e-01 -2.190004782558025657e-04 6.695469066811286438e-03 -1.103081636392571202e-01
-8.554154717900380733e-02 2.330908467593884037e-01 2.137458852767081807e-01 -4.234764824613134631e-04 6.433345685298299046e-03 -3.029190660089226550e-01
-3.607033428299685762e-02 1.093443375155999375e-01 2.152232119545721689e-01 -8.698829746551844586e-04 6.865580934383107813e-03 -1.695259630084255398e-01
-1.798875916721912049e-02 2.216511636123895401e-01 2.168636469355531560e-01 -6.605805007151023230e-04 6.848768316876220445e-03 -2.219075223843187117e-01
5.006346857548669288e-02 2.664391430906236646e-01 2.187691605418281560e-01 -4.259881661578897489e-05 6.910309140317439855e-03 -2.508226166817422165e-01
-3.297774965558284421e-01 3.262031441453751013e-01 1.992832755689799007e-01 -7.298830041792585743e-04 5.400731898866435905e-04 -1.792110972645044875e-01
-3.305305587471444317e-01 2.650629323531511483e-01 2.006017881123544622e-01 -1.801492192192470296e-03 1.682245177865698046e-03 -1.324378263122137356e-01
-2.642487951153268955e-01 3.190215592824292012e-01 2.028536172196484522e-01 -4.500391584824316106e-04 2.879972381993354332e-04 -5.264157725802705301e-02
-2.900196681271182131e-01 3.248690833231640540e-01 2.043940065949937934e-01 -1.711458368895689723e-04 1.070387130238498923e-03 -2.160656067776983158e-01
-2.432994301102975321e-01 2.892589581960624545e-01 2.063348263770434787e-01 -2.846313481965193396e-04 1.124389823936590123e-03 -2.084445999498800162e-01
-1.987351071500105537e-01 3.071287709119389087e-01 2.082378239648743912e-01 -7.884619901810648935e-05 1.159355844260924560e-03 -4.274055855883213129e-02
-6.715568047977696353e-02 2.451300481500914841e-01 2.100796397883523681e-01 2.157056624496258440e-04 1.155092687902812762e-03 -1.890450352920307331e-01
-8.706824359615580877e-02 2.488674459667944705e-01 2.121427452942407643e-01 1.928270821702212723e-04 5.240661072403470346e-04 -1.163584544727520043e-01
-6.818260491387828637e-02 1.896379518282261256e-01 2.141744582132301677e-01 1.272014897591032881e-03 5.217572479803902086e-04 -1.524628789175548893e-01
-4.743908293109666552e-03 2.036079732584152868e-01 2.153133940619569864e-01 -2.640317146977650634e-03 2.581573414861010329e-03 -2.913714291802851353e-01
8.728823390770495960e-04 2.271006496858365420e-01 2.173324075495421392e-01 -1.234154205657658114e-03 2.466130801996994828e-03 -1.484692420068288443e-01
8.610087644005143259e-02 2.019105648418536014e-01 2.198661567313859311e-01 2.411215307812953647e-04 7.297942142765466737e-04 -1.831938208771586862e-01
-2.200131219775837699e-01 2.531190859299189411e-01 2.016758130866053156e-01 7.485041526251160924e-05 6.372487894677605685e-04 -1.039010362961321904e-01
-1.811238553071017610e-01 2.448876851964690293e-01 2.036963655814161278e-01 2.391952469138154734e-04 -1.777464725184375741e-04 -2.199910334183778904e-01
-1.731706074304518450e-01 2.253150818671176281e-01 2.056596592171944238e-01 8.271784874413363456e-04 1.529693558645315601e-04 -1.747824937194041861e-01
-9.850824236996413852e-02 2.670924459550090835e-01 2.077884829761206253e-01 6.489956989228917597e-04 -6.105490344502581285e-04 -2.442516322110685201e-01
-9.019991149666277408e-03 3.016947927261207085e-01 2.096528382781054356e-01 -6.438798035252790621e-04 -3.225478096532285359e-04 -2.727959447098682322e-01
8.779006327588881331e-02 2.974807017939055664e-01 2.116483515709498553e-01 -1.899645477375711325e-04 8.253396469111400335e-06 -2.544574747432649109e-01
1.706394752544876936e-01 3.018772303800671408e-01 2.137870914861415561e-01 9.417604977414203819e-04 -1.485239919819609166e-04 -1.729390153420082843e-01
2.270247736593818955e-01 2.728993957317338293e-01 2.158416013074896389e-01 5.824788282574747469e-04 -1.482772781848946085e-03 -2.153629885364122809e-01
2.562790731483712836e-01 3.175755390521882715e-01 2.176897769555896645e-01 2.873814502244949115e-04 -6.473040195557281523e-04 -1.402732002913007203e-01
3.574804168302896379e-01 2.164031912111764877e-01 2.196731104378290000e-01 2.660114155594181192e-04 -1.373298261036607921e-03 -2.419813400390599112e-01
-1.893030161995152005e-01 3.375082640558903502e-01 2.013602201070106013e-01 -2.700602317811775567e-04 4.493014796458687232e-03 -2.782841223891374116e-01
-2.343197459498849722e-01 3.741080044062515264e-01 2.032419109325827589e-01 -3.110063958032299367e-04 4.433741129770892540e-03 -2.703744890587192473e-01
-1.292217368345989215e-01 4.035596754035081224e-01 2.052563306651363217e-01 -1.529645741658712684e-04 4.337166494828522713e-03 -2.805750960531419036e-01
-1.675602916654818642e-01 3.609671143838328322e-01 2.071787389851804662e-01 7.386530231116254001e-06 4.179510411673457472e-03 -4.250910023892247591e-01
-1.031621930841781776e-01 3.686589461642949539e-01 2.090428912972618902e-01 6.017274568319177472e-05 3.513653503842611124e-03 -5.096692995307009477e-01
-5.940988533111691422e-03 3.439870180728772930e-01 2.107795029666877373e-01 -2.162670742889238570e-04 1.454539956287948703e-03 -5.341747185079457338e-01
3.244491018199109622e-02 3.407356869090578111e-01 2.127725063761680135e-01 -3.104681812117651804e-05 -3.470229886986176044e-04 -7.251200920125061566e-01
9.606877013097030182e-02 3.486827477800162334e-01 2.142520993109111593e-01 -8.608610196430170950e-06 -1.637862930694160540e-03 -6.236030250207549308e-01
1.958497184024192150e-01 1.700001963260517890e-01 2.160150142967232623e-01 -1.765863372969767053e-04 -5.191278567094240182e-03 -1.111607635175356101e+00
2.358703586573255018e-01 4.272485500754705928e-02 2.178597848711280593e-01 -3.785195792198758511e-04 -8.868025502086098258e-03 -8.757706932882577400e-01
-3.827176169484146073e-01 1.011643364994581074e-01 2.048874398543550357e-01 -3.261452242873237768e-03 1.639906785816082346e-02 -1.149605090062914670e+00
-3.444615044706311746e-01 1.721371229425630034e-01 2.064569665199153525e-01 -1.521816675804386681e-03 1.224528109243296081e-02 -8.891066438652945880e-01
-3.219893137635853608e-01 2.007549735586360851e-01 2.079351427960559051e-01 -6.984304016251270284e-04 7.301753000232160881e-03 -8.256882145364585757e-01
-3.276805684801691876e-01 1.324720713097819746e-01 2.097399400452504836e-01 2.867612491441346996e-04 2.075014063203862308e-03 -9.767058331811838690e-01
-2.302759975792935399e-01 1.250060437965803961e-01 2.112835038574463198e-01 4.264072541898123315e-04 -3.028729996331023730e-03 -8.109212377925122395e-01
-1.394751387497910611e-01 1.338486927078159083e-01 2.125087778275021044e-01 -8.771004535868970071e-04 -7.690290280148496214e-03 -5.178962976853058731e-01
-7.195948862855781891e-02 2.110430730406739341e-01 2.139115902114275825e-01 -1.846428036425593012e-03 -1.289561244168860657e-02 -9.964168781625887261e-01
-3.188347529112357803e-02 1.934513292539737639e-01 2.156333794868137144e-01 -2.296454890468231560e-03 -1.723524745329767585e-02 -7.628370899872892741e-01
-6.636811384563399141e-01 7.143437307477901177e-02 2.032614468509164052e-01 -8.361057010719678047e-04 8.931346721963122695e-03 -7.098017513708517745e-01
-5.742973362822102468e-01 7.522608417919443569e-02 2.047269292570018662e-01 -5.464886242752493633e-04 6.704984252028822929e-03 -5.586965409406722260e-01
-5.094028299650721348e-01 1.832095118897536790e-01 2.066358256652814362e-01 1.215194755256422451e-06 2.805225801207214889e-03 -5.092014845558515690e-01
-4.804681230194234320e-01 1.435510429229155394e-01 2.083227153273389809e-01 -3.810407632830449613e-05 8.170487906187668672e-04 -6.664766487695215902e-02
-4.207298198544177636e-01 1.651059265011340649e-01 2.101011958335773921e-01 8.473464619967016793e-05 -2.095937159250684933e-04 -3.835497144275602510e-01
-3.728506442747503979e-01 1.600124305154796422e-01 2.119928564263396376e-01 -4.021953336048956010e-04 -1.675467572227388015e-03 -3.998156219452945331e-02
-2.951612487945959873e-01 2.389960310968444746e-01 2.140770054952675361e-01 1.086867170749979274e-04 -1.595297387813713729e-03 4.503321458405491751e-02
-2.360066483538585946e-01 1.983234834460514961e-01 2.160026508503514742e-01 1.380958271106943590e-05 -1.230160154426650828e-03 7.334457816654782469e-02
-2.478733634380887174e-01 2.224029265415706780e-01 2.180266242646629604e-01 -3.361009328605649290e-04 -1.797320312690068971e-03 6.819985390416832827e-02
-6.419773152013359407e-01 2.875578663370854660e-01 1.998062009961303898e-01 8.603194793166206965e-04 6.268791659785307238e-04 1.814034906780328735e-02
-5.239153014540987030e-01 2.456791763649365523e-01 2.021978367233827623e-01 -7.025240434456740853e-05 1.272746627959771585e-03 1.550569359161033944e-01
-4.600677047609653125e-01 1.721929688532719271e-01 2.043902564749283668e-01 6.602811291248930452e-04 1.141107559626040749e-03 1.082879407821036866e-01
-3.400318204318568682e-01 1.336915704068940836e-01 2.065637971092622038e-01 7.396665340435185435e-04 9.176114787177195795e-04 2.256816143522894294e-02
-2.884434965295262221e-01 1.985753238664882403e-01 2.087413684714805595e-01 -3.476662712047155334e-04 8.017430390242344168e-04 2.239463713847039406e-01
-3.818207705194988089e-01 1.297504125669920738e-01 2.109452568180543719e-01 -4.713455352995812126e-04 5.656406180172788038e-04 -7.387058120583085696e-02
-1.382809056380831514e-01 2.832132024323473218e-01 2.132344463485216779e-01 -7.258007983862683078e-04 3.802465211748269191e-04 6.822804197201488841e-02
-2.278620109194670063e-01 3.369379071419263405e-01 2.151563948185665764e-01 3.029121371178646592e-04 2.987510572214236034e-04 -2.417868598720770701e-01
-1.262665284794970144e-01 3.138843056090114270e-01 2.175983599005857916e-01 -2.401880020114070574e-04 3.795678819289345922e-04 -1.619025587836607364e-03
2.358060832987858915e-02 3.359684587591942329e-01 2.197776914757280653e-01 -4.650839471474982139e-04 4.920654537965555349e-04 -4.515331348174998066e-02
-2.916594640627163670e-01 3.350493946306753457e-01 2.010741611449189947e-01 -9.354885280207234435e-04 -1.133971076181984443e-02 1.624828618161709981e-01
-1.644248748728740495e-01 2.718416790324699184e-01 2.032301878839515852e-01 5.835482729835187420e-04 -8.598810304089538406e-03 -7.525586382573407063e-02
-2.492146114864567941e-01 1.992755121221592707e-01 2.051482414146187927e-01 -4.642007820817178085e-04 -7.037058845907240637e-03 -2.879199369195886010e-02
-1.944206718825411961e-01 1.539175345322142119e-01 2.075604983813799098e-01 -5.255763256698252383e-05 -6.132762043223932182e-03 1.027336369927463050e-01
-1.157036524412946438e-01 1.968368007235863359e-01 2.095196107829601084e-01 -4.103438591432848601e-04 -4.217282631134747044e-03 1.953429816986712031e-01
-6.248266108919454942e-02 2.366412419079757246e-01 2.114189411666885232e-01 3.812870542183677616e-04 -9.324180567832752011e-04 1.249703879730595657e-01
-7.959014216643006678e-02 2.163645056224597074e-01 2.134037612638036707e-01 -3.439924927884468445e-05 1.203227581819145886e-03 2.838330433263205888e-01
-8.017121244175942629e-02 1.989552291696947139e-01 2.153738710884174901e-01 -1.868252906165875993e-04 3.715509917774764692e-03 9.860537617754075446e-02
-6.557103158592936243e-02 2.207328161969929203e-01 2.171306051736055509e-01 3.939886712164991666e-04 7.121022335387329309e-03 2.201613355871657324e-02
-1.511391917124969009e-01 2.186888328938012549e-01 2.188777580394831168e-01 -7.133592561422948727e-04 9.755301637819317404e-03 1.026252543954734170e-01
-4.278101436113345146e-01 5.967217458762416604e-02 2.005508189990701795e-01 -6.624678395474370212e-04 -8.136803147574802816e-03 3.689690754703956466e-01
-3.205744307415035466e-01 1.227814067972209794e-01 2.020539359517049549e-01 -1.116196781880383427e-03 -5.383668087727914650e-03 4.023228252116839432e-01
-2.999615775826452446e-01 9.865323302948907080e-02 2.041867738746311889e-01 -4.200302882748861689e-04 -2.967964264001885476e-03 3.141095908480370791e-01
-3.808235472042338365e-01 -4.108647928599678048e-03 2.060505455046414136e-01 -3.305336327342745764e-04 -3.619432980480564912e-04 5.153996392539237359e-01
-1.918514656759073012e-01 8.061862069991732049e-02 2.083493817966202144e-01 5.356566544829460515e-04 8.591220355186227975e-04 3.697822729618083226e-01
-2.039646167272231858e-01 1.586960971000411780e-01 2.104104133240650154e-01 3.963223311509322553e-04 9.305257397357216513e-04 8.239604502781297524e-02
-8.382190658513097303e-02 8.844629980813142889e-02 2.125280718224747956e-01 -2.227430188027203586e-04 2.530637770334781284e-03 -1.763755024561198745e-02
-1.144160310048613904e-01 6.185221844538244668e-02 2.148004349495708509e-01 -1.899608297850126240e-04 3.751279269627865766e-03 2.823378901373044259e-01
-5.921892779215061353e-02 8.175676571891023203e-02 2.166557285836118729e-01 -2.762280585317196174e-04 3.340808747474578559e-03 4.283460298098958341e-01
-2.386926256575726615e-02 1.088527819090833598e-01 2.191392952162039554e-01 2.850126195075551876e-04 2.855002459037733319e-03 2.752030461500593606e-01
-2.636873367475663921e-01 2.265648274721579758e-01 2.007504586162777716e-01 -2.644014016527499033e-05 -1.536779187332740302e-03 1.908270668298326644e-01
-2.500508528047175605e-01 2.760268811579011383e-01 2.030376235951104613e-01 -2.736666048764054113e-04 -1.000492536995008317e-03 -1.790053501038215908e-02
-2.344948180639374047e-01 1.603202270914198813e-01 2.059791290770442429e-01 5.273725675034709928e-04 -1.928533698282697143e-03 2.038048093424480456e-01
-1.853614208852404077e-01 1.549051698901554586e-01 2.078665802090805537e-01 -7.131536237920615845e-06 -1.210010121743146242e-03 1.742143432285217786e-01
-1.594610288685208710e-01 8.527967230570768220e-02 2.104385661160351195e-01 2.524093718872756826e-04 -9.871447021617850079e-04 2.534624898567270912e-01
-1.661542702976973040e-01 9.541480645260905225e-02 2.124783173980472895e-01 -3.996418659412116851e-05 1.510158201897934187e-04 2.789600604767921710e-01
-1.579206700313238732e-01 5.679903586077279104e-02 2.148076582906280341e-01 1.913697054773205405e-05 8.285242412753220662e-05 3.405579939036327275e-01
-3.614829974759603548e-02 1.182883147556720999e-01 2.170395104483503479e-01 -9.653737624706896960e-05 1.129978539312671794e-03 3.142181272458820507e-01
-5.327593189678128671e-02 8.444250708496497948e-03 2.195749041069006147e-01 1.983321109115891419e-04 1.117353901855681545e-05 2.182930788324215221e-01
-4.237436230481250732e-01 5.942968702456009888e-02 2.012330056324514449e-01 -6.418122258690469499e-04 -4.811650552269258752e-04 -7.161445117596695886e-02
-4.576222583465295313e-01 -1.713625714292985741e-03 2.034672104071321153e-01 -4.136263566612005194e-04 9.434442843636136992e-04 -1.465050258216498147e-01
-4.380061129562325961e-01 1.178525805841949825e-01 2.056469663432672346e-01 -7.002166800227958105e-04 8.178126937208371862e-04 7.261987505200816206e-02
-3.730974026125039589e-01 1.557207507332352692e-01 2.080377284759115097e-01 -1.225077967547664906e-04 1.201227107786207284e-03 -1.390062951085718201e-01
-2.121496254074360654e-01 1.595899549722555044e-01 2.101671655676733974e-01 -4.332333003341632912e-04 1.087713382686232230e-03 -8.235223560022671141e-02
-1.297326861475503190e-01 7.963208602280348603e-02 2.126613430170494201e-01 4.616171188517813849e-04 1.220879391744076866e-03 -5.529285705924871092e-02
-1.549297231517008100e-01 6.906721200192736387e-02 2.143604895123462084e-01 -1.081107177927272134e-04 2.747904141222486628e-04 -1.902335927233713142e-01
-7.572255577211647881e-02 6.373618288785667940e-02 2.172502113342779650e-01 6.444600057996808509e-04 1.402946696633870999e-03 -1.324602834419087716e-01
-9.045465666076142608e-02 1.439482101759018973e-01 2.189249200304612120e-01 -5.291082017804017712e-04 3.051608176864791942e-04 -2.065744119372367182e-01
-3.456001783848866582e-01 1.792671756973342745e-01 2.012907101188374792e-01 3.860306261847299791e-04 8.792114581699082311e-04 -7.617732684931419196e-02
-3.468462070494486293e-01 1.543829520907978869e-01 2.032459235320224211e-01 -3.855028567055833423e-04 1.057805532005175577e-03 -3.185512617993598722e-02
-3.294024210686110066e-01 1.753025682777108463e-01 2.054953529419520364e-01 -3.199885633800237847e-04 1.002796960001566332e-03 -5.089065121412945925e-02
-2.524286195025934321e-01 2.151552432810870941e-01 2.079244156009954492e-01 4.322171428786329554e-04 7.328553777009993043e-04 -1.930698578156173628e-01
-2.103608424661541076e-01 2.190488978249496010e-01 2.102715929463837563e-01 7.427532125170154551e-04 5.235366625630768957e-04 -2.736281519750846103e-01
-1.084203969956219933e-02 1.391523739085731293e-01 2.125399416298177080e-01 1.128760915471144341e-03 4.893862457997104126e-04 -3.523535015472414322e-01
7.811772266243682816e-02 1.674784847402364940e-01 2.145714647264851949e-01 -2.904961642093572172e-04 -5.236095828484770226e-04 -5.086957099095605894e-01
1.404253215337821215e-01 2.163336380595153041e-01 2.166797282319231077e-01 5.589728995004754342e-04 -5.148645699070299159e-05 -1.474009084817533566e-01
2.279052154721197820e-01 1.713797301732442047e-01 2.190396492741830681e-01 1.723960286976583848e-03 -2.983752964941282690e-04 -1.332394155307781713e-01
-1.987413842737277836e-01 1.394893923666368774e-01 2.007048704059876676e-01 -1.215508808161144252e-03 1.122544575360579812e-02 -2.666474867208745714e-01
-1.216532643196278074e-01 1.518633786380426398e-01 2.029221299040154802e-01 -6.132627814318076598e-04 9.289073779118479923e-03 -4.733139005899431595e-01
-1.407362502864188125e-01 2.382295639298715462e-01 2.049251874911268700e-01 -4.073145509448594334e-04 6.752098930202681155e-03 -9.519891493551935202e-01
-1.454365925801907183e-02 1.655855033761480244e-01 2.070993579667128048e-01 -7.564368252994093853e-05 3.954443374886372140e-03 -5.469783817775338841e-01
8.571391231124766974e-02 2.130079145343617419e-01 2.092409327709497391e-01 2.160968685028255511e-04 7.012034077511010736e-04 -6.435327921096219983e-01
1.058111476118069744e-01 1.356889419462704860e-01 2.112017912511441331e-01 -3.527813686934435419e-04 -2.607020172741543549e-03 -6.699033283002628902e-01
1.767841416509955410e-01 2.393483822342748757e-01 2.133819944147408720e-01 -2.938306324247591788e-04 -5.590128242848366180e-03 -7.187850464940113149e-01
1.874501806181277930e-01 1.120083211489161790e-01 2.155646846885435619e-01 -5.992052671289101445e-04 -9.050216448996150839e-03 -7.624014036516699733e-01
2.277812439828871272e-01 1.626913908592074465e-01 2.176216853956370323e-01 -1.068382412131900971e-03 -1.140789738969594062e-02 -7.680101580364204761e-01
3.005835136868362789e-01 1.845491901205516261e-01 2.198665953236354498e-01 -1.345137187219413739e-03 -1.323893037013467583e-02 -8.004311635942298331e-01
-4.262668543285700884e-01 2.391891423755812540e-02 2.014597799333402439e-01 -5.363165902284026173e-04 8.168184550212832101e-03 -8.726376539372138197e-01
-2.828706228534249023e-01 -1.351071710369577961e-04 2.037318951723465221e-01 -3.651967089657829225e-04 6.405191610558124207e-03 -7.587532210746846806e-01
-1.835534007722991190e-01 3.350202811650556528e-02 2.061196362233337909e-01 -7.687192882723089746e-05 3.698412464464635903e-03 -7.996275641168629766e-01
-5.825777047782074169e-02 7.336993356624998616e-03 2.083733538821171960e-01 4.348959207289099601e-05 1.846274754078251843e-03 -6.943475620583442476e-01
-3.240023639054351312e-02 -7.288850622175485627e-02 2.110734440260476075e-01 2.270330560193519647e-04 -1.053555861064928633e-03 -5.294527598971642268e-01
3.320347940943280118e-02 1.542372058006196908e-02 2.132522864030877985e-01 5.753299097432868951e-05 -1.610780410836231379e-03 -5.255977423268862747e-01
1.920123123934676657e-01 2.960943974630939057e-02 2.156829141184622434e-01 -8.631467129175501277e-05 -2.082836941408348647e-03 -8.017169228300943251e-01
2.873584405647034434e-01 1.577540154865503252e-01 2.179978033251086522e-01 -5.252111339684239295e-05 -2.508198974790528789e-03 -8.935166496303551531e-01
-3.041645911233819555e-01 5.574777569876929184e-02 2.001101198698513883e-01 2.458587566572009828e-04 3.731352104185129987e-03 -6.141666390077417104e-01
-1.665471944887151889e-01 -6.921217232463638958e-02 2.024060982044374457e-01 1.586729112778253905e-04 2.172007169483145504e-03 -5.592476808823834133e-01
-7.760107822360882979e-02 -9.660791029233287142e-02 2.046901375686565050e-01 5.323426788210545361e-05 1.379143452580673234e-03 -4.284928909070174208e-01
3.454972803194014674e-02 -8.558648809505496613e-02 2.069927833108481940e-01 -1.338979297215624686e-04 1.034165848111429694e-03 -5.308484923622497353e-01
5.100458381398024349e-02 -1.354134771266956860e-01 2.093047743423284146e-01 -2.229813762169974680e-04 7.612617560298754783e-04 -3.792046342414929216e-01
6.687954183833250132e-02 -3.864047607916426541e-02 2.116991547410437269e-01 -2.758989842244755474e-05 -7.356343334232061837e-05 -5.207134750894670816e-01
1.934726908288338654e-01 -6.930958530513173232e-02 2.141078298599325969e-01 4.739598900112203554e-04 -4.689663284416346976e-04 -4.954025537524379685e-01
1.818231340187889122e-01 -5.261766343786617589e-02 2.161532372977928995e-01 -3.926997491191745585e-04 -4.521139582455188763e-04 -5.695407812678042747e-01
2.717326028731067988e-01 -1.392962550451219694e-02 2.184686605471353182e-01 7.831236059760805291e-05 -6.112111613662532181e-04 -3.819751083058696706e-01
-1.582916694949184633e-01 -1.107390160746996206e-02 2.003494880681100931e-01 -9.121265548199185248e-05 -1.666506942937529814e-04 -2.695378336250220386e-01
-8.363342926922875953e-02 -4.733682300145385102e-02 2.022615482170483925e-01 -1.205354688118818091e-04 -7.977236333098075560e-04 -1.263158706905622430e-01
-4.389588489103084246e-02 -5.463755060573706468e-02 2.043400863792492195e-01 3.271475741087465625e-04 -1.069289394132215106e-03 -2.773973536382138838e-01
2.984940220576270953e-03 -1.097655882026650348e-01 2.063259614951724608e-01 1.669827684265211526e-04 -9.487988149470059744e-04 -4.305565981868681447e-01
8.276307174287508839e-02 -2.259011203170916554e-02 2.083065083657624217e-01 -9.419859141548117185e-05 -7.615879598064799385e-04 -3.620260771749647111e-01
2.153437055779513221e-01 -7.076082219772178439e-02 2.103738357992759322e-01 1.289806394433921455e-04 -8.569223192639232201e-04 -1.862556569987079413e-01
2.992729150357521517e-01 3.364571664764903769e-02 2.123363160573203401e-01 -1.167989989539803966e-04 -5.757945731412848897e-04 -1.826202969575077550e-01
3.691176109888399948e-01 2.895561254988192335e-02 2.142796550725792337e-01 4.690221291242526141e-04 -4.597598739144864721e-04 -3.491989326859660236e-01
3.534820664775571442e-01 7.247452326387426869e-02 2.162025980934972891e-01 3.732815707602905311e-04 -2.783350699899640171e-04 -3.735863028635657557e-01
3.667880386003193882e-01 5.606760504871592665e-02 2.178638993141981395e-01 -1.147163044027682007e-04 5.126249580847012455e-04 -2.854782765018598067e-01
4.527579141189800316e-01 2.296633475540119443e-02 2.195248537342239237e-01 -8.560626167306081271e-07 7.631561015566696183e-04 -3.678179016236576282e-01
-1.310807966393593982e-01 2.334506856135664526e-02 2.009981236894090029e-01 -2.020300639391530220e-03 -1.457289433437555792e-02 -2.541232210280440773e-01
-1.643662691464606862e-01 -2.748994204013109968e-02 2.025924565833064350e-01 -1.484739964907480633e-03 -1.430945257327814572e-02 -2.467383853701932139e-01
-1.525142455098987271e-01 3.700855822026449804e-02 2.040700527726733160e-01 -1.781373159796677350e-03 -1.361191203213005935e-02 -4.300969659828248193e-01
-7.166133863081289301e-02 2.085679750742800570e-02 2.056160908359316308e-01 -1.149022028704031750e-03 -1.286594810620486640e-02 -4.514259166363168152e-01
-9.292892204742576878e-02 -4.042008757407660607e-03 2.070029701984169579e-01 -7.577701126074052294e-04 -1.205601427246075392e-02 -4.856460205676032538e-01
-2.601997706067108937e-02 5.516957719628452772e-02 2.082096535447006680e-01 -1.005946742117596725e-03 -1.068234715734356702e-02 -7.025331152109507427e-01
-2.644589442560511122e-02 3.962589053145674362e-02 2.094501827007257400e-01 -6.093881907736416626e-04 -8.215897166011811720e-03 -6.194717090816103111e-01
4.769784380613628638e-02 2.264456364721223469e-02 2.106803968232330293e-01 -1.406958575985701012e-04 -4.751071076349839585e-03 -4.398887496332344327e-01
6.637196964857362130e-03 -5.288849035306080956e-03 2.119258914530766091e-01 1.095642599850270879e-04 -1.995477438894196055e-05 -3.916398399837485722e-01
2.703877821930491046e-02 5.006350452833027015e-02 2.130379526813218072e-01 -1.035457438254033016e-04 5.225390548830919843e-03 -2.748501421412675727e-01
1.195615481455740842e-01 6.319197416575593473e-02 2.140885765862891588e-01 -1.199145485014361124e-03 1.081217052218169314e-02 -1.501245288049858351e-01
-1.503223838225867248e-02 -4.980087375142053241e-02 2.061789932464280772e-01 -1.533917304861870000e-03 -1.474275650451196788e-02 2.592452458183849284e-01
2.274365976069575232e-02 -4.651878372910150938e-02 2.073892211624954740e-01 -8.289508307338744417e-04 -9.226006177219775450e-03 4.404172733081350155e-01
4.557109413542141663e-03 -6.528578415782090860e-02 2.083822461464075460e-01 -1.710826173529174030e-04 -3.310538863373866346e-03 5.588876875455249804e-01
4.094132026916871836e-02 -1.962062026129581804e-01 2.094817208640172845e-01 3.419426935836032298e-04 2.283099298625035529e-03 4.701589468864780796e-01
6.258188550858910515e-02 -1.517530520056284138e-01 2.106391462445474927e-01 -5.587770815079889366e-04 6.845100338029963191e-03 4.855092228204059834e-01
1.076482448007039933e-01 -3.172201636094836297e-01 2.118298942611168689e-01 -1.006820423037671367e-03 1.106830205520830702e-02 9.352155076149171187e-01
5.954004304866646058e-02 -3.388221350226031658e-01 2.128830913981440420e-01 -1.352584649950243356e-03 1.474360928667525425e-02 7.292462799934440465e-01
6.548053154798624820e-02 -2.434324349309971713e-01 2.139210103009918651e-01 -2.408818444070992288e-03 1.723222955055483258e-02 3.374214504376796264e-01
1.354294163414848096e-01 -4.211054601878192472e-01 2.152474279638822985e-01 -3.265662631809785818e-03 1.925303331203633353e-02 3.827805346331379921e-01
-2.204161597864874034e-01 -3.871492800441554416e-01 2.048413089572964640e-01 -7.351538025019857623e-04 -8.398308473239171970e-03 4.793530598123894038e-01
-2.178555150021984632e-01 -2.365333352806351375e-01 2.060100721109984767e-01 -3.599418764915903140e-04 -6.001123123069333071e-03 1.187053668682742091e-01
-1.945548598318054268e-01 -3.852882744727281206e-01 2.072187682127594743e-01 -1.260369353802329835e-04 -3.987369008871675252e-03 5.653610592539006774e-01
-1.760885522032010764e-01 -3.402192428841953609e-01 2.085078297048720275e-01 -5.986635393099940265e-05 -1.783730827622516607e-03 3.104065067981511827e-01
-1.124144203161392686e-01 -3.443033350494896228e-01 2.097908727328213763e-01 -1.740225049762822202e-04 7.085092355953632754e-04 3.922106048331784334e-01
1.022558423691633661e-02 -2.742616279649307542e-01 2.109288499948964168e-01 4.825311432907513129e-05 2.735043988466418028e-03 4.516694239017059465e-01
-6.952593652176138062e-02 -3.409590005681016334e-01 2.123240618397916335e-01 -1.305596914998217669e-04 4.672397775385033966e-03 7.759872625270147761e-01
5.197252572073617072e-02 -4.097937652737905778e-01 2.136389438860231693e-01 -2.548772123480375702e-04 6.114546879786059326e-03 6.865579340854326418e-01
1.075919869775581322e-01 -4.514840510555936937e-01 2.149946833359520082e-01 -2.641733076974239433e-04 7.146383635124971788e-03 7.205614929888652931e-01
1.599690501193277992e-01 -3.575925596713609989e-01 2.164496459034541687e-01 -4.467266655641550501e-04 8.278671933512620970e-03 3.966365673073006248e-01
1.866074332750395914e-01 -2.877688379976385824e-01 2.177427917560763038e-01 -6.562075203169590205e-04 9.201016511269718631e-03 3.833059767627244319e-01
2.079129972639386370e-01 -1.912536082032428586e-01 2.191498826621294804e-01 -7.651651830414339488e-04 9.783580088072002870e-03 6.284994128656341550e-01
-8.773493158301087780e-02 -1.476502655483316051e-01 2.001373270138346316e-01 -1.974169998199145314e-03 -1.226776110896519306e-02 3.264360580908223786e-02
-1.046752825218477262e-01 -2.302720702509932216e-01 2.021831566800757485e-01 -3.354175131208616818e-04 -5.688093141410908993e-03 2.956311950422245427e-02
-1.115101618077311563e-01 -1.823838847543024499e-01 2.039137721735170272e-01 -3.409156188318675966e-04 -6.003774032693772952e-03 -1.027901584718097644e-01
-3.533711763786392956e-02 -9.930796337531475060e-02 2.055208631848112755e-01 -6.385249988989567284e-04 -5.537839222541346591e-03 -1.859879419045274429e-01
-3.528014835906417151e-02 -1.836524022451332672e-01 2.072566320098190307e-01 -4.833725072125284673e-04 -5.567835015553161335e-03 -3.913190901473763139e-01
-3.756111600922897031e-02 -7.695925039075814100e-02 2.088139634548897283e-01 -3.865939272765456041e-04 -4.899684854857383302e-03 -5.407355595744025578e-01
3.795024056561130399e-02 -5.898343525970314860e-02 2.104144841734386095e-01 8.606329904720544811e-05 -3.831472073160145739e-03 -5.475174114208256615e-01
6.032708400577176111e-02 -1.732180652693140199e-01 2.121916944054209608e-01 -1.025979323518820129e-04 -3.950816050346331494e-03 -5.868800760887235013e-01
7.919428934790238850e-02 -2.234093793277265039e-01 2.141471625655380628e-01 -1.157042795932416681e-04 -4.210505661657866321e-03 -4.971102492500065195e-01
2.224885778531394409e-01 -3.040034788586378281e-02 2.157849950656061111e-01 -2.120250673380547188e-04 -3.738101656386400278e-03 -6.448535493688317688e-01
1.724242015843870102e-01 -7.056445533361878353e-02 2.176558202509781270e-01 -2.068128661620639321e-04 -3.361154465691421501e-03 -2.094366129517475084e-01
2.318621877281296095e-01 -7.068947795135151202e-02 2.197182182003265538e-01 -1.770556126016818840e-04 -4.082822443458346273e-03 -3.753946181089216072e-01
-1.437251636102923058e-01 -1.204772176063352920e-03 2.006845848368212226e-01 -2.536258456333604803e-04 3.660099859152567223e-03 -1.283498290200922320e-01
-1.355912878502741337e-01 5.743905951493739892e-02 2.027066899384355469e-01 -4.615507450199610585e-04 3.398690123359141262e-03 -1.142351421829686658e-01
5.379190762270563697e-02 9.769252957548890670e-02 2.041458215993006142e-01 5.765249009416814185e-04 4.370704308458289722e-03 1.749667027145161979e-01
8.629866521100036658e-02 2.261497356997212854e-02 2.059865323160197659e-01 2.301925777630952925e-03 2.754684599877869466e-03 4.609268273740633748e-01
1.625609254871847598e-01 -2.120168462572273316e-01 2.081088219540680462e-01 1.135641942577182055e-03 2.262211262108890231e-03 3.322279558642016184e-01
3.311926691615993401e-01 -1.820869411586473197e-01 2.100602385898361346e-01 6.378160693038635717e-04 1.173851608604964229e-03 2.693357535414291765e-02
4.145436845271712745e-01 -2.217360720767774518e-01 2.119523250760125821e-01 -1.099106728930089550e-04 4.749245986354475773e-04 -3.935580810834196086e-01
4.969475513630701169e-01 -1.561838438867315659e-01 2.138682747503744541e-01 -4.078846318851518551e-04 -6.485828421491423917e-04 -5.498391920341600958e-01
4.327470276298687746e-01 -2.201628319426375269e-01 2.153730547837975906e-01 1.803086955596678361e-03 -1.515814844378248621e-03 7.844343420359636138e-03
4.181356143529988412e-01 -3.706569049391096327e-01 2.173303328683894309e-01 -4.407652136140719325e-04 -2.596078068338577780e-03 -1.759008849053604884e-01
4.136899468172779981e-01 -3.397031246673645755e-01 2.189857620626435297e-01 -3.665285280532614071e-04 -3.528856503732554720e-03 -5.483257280595977834e-01
3.283477932995206849e-01 -3.443194868555644605e-01 2.204920262464009628e-01 3.921424748901004972e-04 -3.875954493940178720e-03 -9.072148848527393783e-01
-3.429767970632621732e-01 -1.067445189799090532e-01 2.011972096443982450e-01 -6.356306213593291427e-03 -1.114106633597355955e-02 -7.427278513962357609e-01
-2.715079071751618778e-01 -9.048078697880283794e-02 2.024255983930682845e-01 -5.612755338839132621e-03 -7.972686306545611473e-03 -3.766380057229145040e-01
-3.053123496114190094e-01 2.176926892650327128e-02 2.040215371817380441e-01 -2.281404858415698664e-03 -6.238330928048578354e-03 -5.056423653845693034e-01
-2.255624932439696251e-01 -1.723545228136378130e-02 2.049310193052846785e-01 -6.667992847792346281e-04 -5.681251241041579934e-03 -2.681039975176870427e-01
-2.517089220355829826e-01 1.006068945444518886e-01 2.067378838750836834e-01 -2.817571190558420223e-03 -7.320216255551093357e-03 -2.023755949957928568e-01
-1.390290951074485415e-01 1.425835043475960351e-01 2.075227975397130331e-01 5.004601696819569942e-03 1.351622029439845550e-03 9.486956976776575456e-02
-1.834078520111998845e-01 1.438965475775651204e-01 2.090193208507671319e-01 -2.120913425622537364e-04 -2.657920458344762999e-03 1.971865571169831299e-01
-3.119112472300118732e-02 1.530502436800082189e-01 2.098540779238258214e-01 5.081306658716494389e-03 4.655719200020496697e-03 1.412490808523185482e-01
-4.930050332078161207e-02 7.495996014713247890e-02 2.108077163724411673e-01 5.941270973906505153e-04 1.658051411818443942e-03 1.057723778653192614e-01
-1.863161334943471414e-01 1.220291014417925618e-01 2.118492728977318662e-01 1.111044564870424331e-04 2.847367191347600478e-03 4.714007797934842148e-01
-2.638253045371392047e-01 7.201625035332628877e-02 2.125461983597844995e-01 3.802525629240104425e-04 4.125556963347274189e-03 6.754631837906429626e-01
-3.907436517620231919e-01 9.448007557125913392e-02 2.133181634987778019e-01 -1.244640701952783425e-03 2.719450551017855034e-03 5.562020306361757926e-01
-3.157385234880200064e-01 9.973540118334014992e-02 2.144304692746948349e-01 2.573035650307685298e-03 6.674681247940813730e-03 6.684977399283272836e-01
-1.431456362477598332e-01 -4.194874464653104013e-02 2.153639100865016864e-01 6.189629064704621313e-03 8.591459568574877359e-03 9.471293393178178976e-02
1.678776526333851382e-03 -1.608064395783139200e-01 2.158084719629150827e-01 7.850002517691665599e-03 9.060272552985004432e-03 -1.705392597066170829e-03
2.887238291485455174e-02 -2.740522150333576379e-01 2.157664677951251497e-01 2.053892702398828207e-03 5.328363810604780371e-03 -2.007178611474588481e-01
1.565328594123733819e-01 -2.915972991108803369e-01 2.166570222575788796e-01 1.731599014471501153e-03 4.813059097087903429e-03 -6.375093347222222928e-02
1.684277080676952754e-01 -3.072490279026139359e-01 2.170010107125807663e-01 3.563608690706052042e-03 4.872144858726738283e-03 -2.721999083015561594e-01
9.456887849501847965e-02 -3.223376575127092081e-01 2.171755469175644659e-01 2.261082200935240864e-03 4.251402196666458772e-03 -5.490342186904145771e-01
3.544902194607783830e-02 -2.789851685599402109e-01 2.174616389292654550e-01 -5.572994090575538123e-04 3.005554955676482086e-03 -2.341560602613583231e-01
2.376320886669053278e-02 -1.925716468825277305e-01 2.179920908751629693e-01 2.789785289406556909e-04 4.010162345106211244e-03 -7.979489585817348130e-02
-5.567410312591501709e-02 -7.973317421916256698e-02 2.178544782719415984e-01 -5.119701928063596398e-03 5.086766667652554280e-04 3.212496948372045025e-01
9.872011845128750296e-02 9.730897965292073515e-02 2.182797873822331369e-01 -7.652423305306758385e-03 9.923401872244247413e-04 3.827510623519117527e-01
-4.473039405719771155e-02 1.749888095322150450e-01 2.187427758439967618e-01 -1.647071003328993283e-03 1.603227030770265063e-03 6.457390002104349547e-01
2.917315232732825558e-02 2.374118449472448489e-01 2.191493394083535717e-01 4.324585094538362529e-04 3.317126107728726649e-03 3.648118899877644261e-01
1.037298828471576173e-01 3.219241439316662401e-01 2.194201671646710539e-01 1.225551515164818861e-03 4.567912849575469364e-03 4.458431303266994217e-01
3.667914192484684338e-02 3.226408971390143376e-01 2.192515117504055810e-01 1.082648227671068487e-03 3.688484007594510644e-03 5.377080525268657096e-01
3.069918317455869183e-02 2.535706051149139717e-01 2.195056150735205103e-01 4.586186648895747807e-03 5.417494354654972186e-03 4.021066204145767875e-01
-3.929113729292883772e-02 2.397590116734857335e-01 2.196137553884672244e-01 8.527116861941166394e-04 3.706136546524229584e-03 6.314988808556786237e-01
-1.605994823823349293e-02 2.504876097375455246e-01 2.196179652054895959e-01 7.590351059903911865e-04 4.042164079839389440e-03 4.353029482543847584e-01
-6.618771330606203207e-02 1.958640181124671198e-01 2.196014881057668511e-01 1.779054578463048911e-03 3.351340231725437845e-03 2.160985288117881487e-01
-1.112375940285852544e-01 1.999383718859317483e-01 2.195146097924846051e-01 -1.433709458718521092e-03 2.824906913060800870e-03 4.142216637280883851e-01
-3.527842256323213133e-02 2.352242161196867465e-01 2.197833781561991939e-01 7.778936552208610619e-04 3.822340208237257758e-03 1.767305778061802612e-01
-2.090905234635939691e-03 2.151129151537917727e-01 2.197283131896246577e-01 1.520193716095422738e-03 4.436162828078380610e-03 6.695072911775988567e-02
8.116547193590072790e-03 2.294525240150665779e-01 2.196641978013406105e-01 6.637224671039694893e-04 4.099604881856047135e-03 6.892337388994405900e-02
1.833591860118308908e-03 2.080361907536366350e-01 2.195114822444236280e-01 -5.570796086479090203e-04 3.340885945119372556e-03 7.017910044925654289e-02
8.234967650495448460e-03 1.648331893602677511e-01 2.195051047981299575e-01 5.008871584551082912e-04 3.949155277667548009e-03 -2.144471682817932628e-02
-2.133065416221746613e-02 2.051991943271279373e-01 2.195089699495722524e-01 -7.485054377488684074e-04 2.912571996216422373e-03 -2.313677048190373314e-02
1.905366673682067080e-03 1.646482393275734979e-01 2.196084771514843492e-01 9.248541217769864087e-04 4.165497523208855357e-03 -9.719751529099927845e-02
1.687709543869745504e-02 1.742843714110483833e-01 2.195580041958410389e-01 -4.595234719407772952e-04 3.659907009388355115e-03 -9.904615841369812657e-02
1.387433045336420451e-02 1.881085419771612588e-01 2.195138644511918646e-01 -1.300387949818385255e-03 2.817640145479742564e-03 -7.186577093609049227e-02
-1.068443880975370602e-02 1.816494423202830721e-01 2.195033562392468829e-01 2.503817313738052551e-04 3.662154515430981680e-03 -1.462398359317172991e-01
2.990203799612045979e-02 1.967256016267694974e-01 2.196158671561739828e-01 -7.204162782902163737e-04 3.612804529452991707e-03 -5.734843095537268953e-02
6.360800266388497853e-03 2.144765551412409765e-01 2.196564576888270226e-01 -1.679114438706635307e-04 3.276572660709412693e-03 -1.531763618814936112e-01
4.833591661006476914e-02 1.953883597744597023e-01 2.196492515073110718e-01 8.939458434358521326e-04 4.275788787084744587e-03 -2.577928984225668629e-01
1.679466591737548489e-02 1.795883880395299226e-01 2.194806469922490066e-01 6.754494531246629579e-04 3.786995057473027237e-03 -3.357312363269007172e-01
1.301410415559733566e-02 1.648538004223560061e-01 2.196663566943908852e-01 6.601920976409037011e-04 4.013804242192113743e-03 -2.477490286673475484e-01
1.143985324962064343e-02 1.485735573711204627e-01 2.195331968496693764e-01 1.389169111800343337e-04 3.876377638969588906e-03 -2.933174016300014175e-01
7.266628855479252691e-02 1.933230911204296687e-01 2.196047633020400958e-01 -1.562013725757432133e-03 3.324904718407140688e-03 -2.836358899207637729e-01
3.777733232530949142e-02 1.735352386904624178e-01 2.194112961709527854e-01 -6.465893102146054536e-04 3.237925110935792675e-03 -1.972412105200317956e-01
3.511674790260378709e-02 1.334644004465811162e-01 2.195614310387476453e-01 5.221163349589789428e-04 4.130160537857075626e-03 -5.056787662109757386e-02
2.878692064815897844e-02 1.673015782238307936e-01 2.195747509397779074e-01 -2.189346565319754605e-04 3.078379808449797569e-03 -1.982368966489303219e-01
5.956211807421148141e-02 1.486246691922429863e-01 2.195329240795199088e-01 -4.610300753543909898e-04 3.635866826702422415e-03 -1.427579633657366787e-01
2.851488981528338754e-02 1.820812561608199931e-01 2.194548999204111173e-01 -1.076966113030436087e-03 2.925776107036524767e-03 -8.520125235159281551e-02
2.260948559161621990e-02 1.721335952933943370e-01 2.196552945518422395e-01 -2.228944105141728233e-04 3.666040678303889369e-03 1.619592910916607112e-03
-1.783993479391816558e-02 1.768344317483186989e-01 2.194284242402319007e-01 -3.233334655462028005e-04 3.361395593395338170e-03 -6.104301792838488783e-02
2.598957873777272415e-02 1.530609712934018485e-01 2.195460241054483230e-01 2.481295242236915714e-06 4.079453019536434348e-03 5.987105986823560572e-02
2.047411152318464461e-02 1.576761180924713956e-01 2.195685880775557486e-01 -3.659272689688765036e-05 3.313108414577879343e-03 -7.977619431873522737e-02
-5.875808564358750430e-03 1.984346621251609211e-01 2.195842147470264405e-01 -6.600438357833143246e-04 3.174965105345279020e-03 -5.293417311176669415e-02
