-2.489472199959378435e-03 3.370818261920013881e-01 2.096056011976112909e-01 1.587795125483310130e-04 -1.071153591126132888e-03 -5.811928918760350671e-01
-6.716966433303789286e-02 2.627819159056871134e-01 2.096621301382566305e-01 7.062226445512865321e-04 -1.118382612961084897e-03 -4.033779087533150842e-01
-4.722415707516562644e-02 3.366084923722920119e-01 2.098995143836563937e-01 -5.122603787161533317e-04 -1.705325119957065488e-03 -5.354926654521730001e-01
-2.266114385471711123e-02 3.148719633918123373e-01 2.097330489737568859e-01 5.022816753178886706e-04 -1.198570950531261921e-03 -2.910395202969359163e-01
-8.156923770664874229e-02 4.433997506394127264e-01 2.091394176544406069e-01 1.057492148797928533e-04 -1.267683873460888171e-03 -4.432262533585804576e-01
-4.563932094221422042e-03 3.920365918316170428e-01 2.096914266617638245e-01 1.928602468816883065e-03 -8.017908045507599231e-04 -2.284163713180805411e-01
-3.277423444457817914e-02 4.568108913000877846e-01 2.099672277323259562e-01 3.389991304998611187e-04 -7.912147173265005442e-04 -3.999395276045622505e-01
-7.117240067006938564e-02 4.074847754603250216e-01 2.092342758487558685e-01 7.149921457544968113e-04 -5.041043459474087510e-04 -2.482456708584409866e-01
1.740573703229660735e-03 5.692139846881205667e-01 2.098512290170144734e-01 -3.730451917304677826e-04 -1.382258117430733247e-04 -4.406278411132893424e-01
1.434135613370653151e-02 6.836393833591722924e-01 2.091268355345541341e-01 -9.092042026039046999e-05 8.686046027493178308e-04 -4.858218745148236151e-01
1.149033392980066820e-01 6.241867492273457385e-01 2.092981865926100138e-01 5.310261926661730353e-04 1.229638093232488481e-03 -2.605291239108633583e-01
1.518722306498168917e-01 6.104687389470070391e-01 2.091281831899750587e-01 1.235476157918967074e-03 3.122227267031138292e-04 -6.945866444372993109e-02
1.193043339278240800e-01 6.389928560432162064e-01 2.089802093392181259e-01 8.387560755375099127e-04 1.308219601698585892e-05 -1.308190771441488653e-01
6.780882115406920707e-02 6.115048024159238649e-01 2.092074125869005652e-01 2.598335479941381353e-04 -6.933604536413031944e-04 -1.537869386070095656e-01
2.668063014920734471e-02 6.181134915982549050e-01 2.100973581220670905e-01 -1.970617244560497858e-04 -4.613764259536635174e-05 -3.969534882548761967e-01
-6.257971092062336593e-02 6.916747344478458848e-01 2.092961255315158864e-01 -7.630861505794855719e-04 -2.073756884297524533e-04 -3.061071541985217470e-01
-3.798027272496614509e-03 7.659662859207395647e-01 2.094538981221751306e-01 -1.802257925613190675e-04 4.633245557006282381e-04 -4.627710429129431313e-01
-4.803512841306239317e-02 6.388537760775436780e-01 2.095334494820780824e-01 1.849232071610644847e-03 -7.366980579788525536e-04 -5.725328007049195200e-01
-1.354011869210440255e-01 6.089708576678845020e-01 2.103269881148560616e-01 -6.021666378488944784e-04 -1.589614790128143947e-03 -5.898846253209393264e-01
-1.907960810195737378e-01 5.799782992437103601e-01 2.087644305951523727e-01 1.647504898118973065e-04 -5.002838570432994146e-04 -5.724379185094551348e-01
-2.651187399395854571e-01 6.625371149705741036e-01 2.087599580382817344e-01 -4.401268471393646187e-04 -5.494015310103868462e-04 -6.379526134973795282e-01
-2.689822692121839331e-01 6.124477880024080667e-01 2.098492746598673575e-01 8.695841021672039107e-05 -2.744010117337737469e-04 -6.500632525683573970e-01
-2.122875157320638362e-01 3.169428741353716439e-01 2.087855059267491598e-01 2.154616952669604919e-03 1.593258290891046668e-03 -6.515898955068498699e-01
-2.038950930737299105e-01 3.211755062915073733e-01 2.101577288899436069e-01 2.189245343882000386e-04 -3.435162137988853701e-04 -6.631738898399895943e-01
-2.575075145076879402e-01 1.626499341205235594e-01 2.095192866345207405e-01 5.173023189055701116e-04 -7.592779419843406156e-04 -5.562451860999493292e-01
-2.698902639331786091e-01 5.957036519075196990e-02 2.096884090344973695e-01 -1.624051597577971481e-04 -1.190267667463888691e-04 -4.511095646743355503e-01
-2.554101563108135964e-01 2.096018906627161449e-01 2.103564041824464992e-01 -1.068278109865395190e-03 -5.157214386568039323e-04 -7.815553161579467112e-01
-7.581332136876747785e-02 1.915376048938310372e-01 2.104645851056675121e-01 3.142597079238315357e-04 4.569266085316127097e-04 -3.531320741221722903e-01
-1.512010803044816498e-01 3.043136173790121357e-01 2.090890067579977418e-01 7.577097152616614419e-05 -1.067792571818835525e-04 -5.008608772835640988e-01
-1.436661725827041158e-01 3.425076070488796143e-01 2.092686138926241890e-01 1.282010765272470650e-04 2.812249062275255329e-04 -1.793760729526940323e-01
-2.523816380355162758e-01 2.012611629888602371e-01 2.093577897892630602e-01 1.421491919688549804e-04 4.841182274427923717e-04 -2.803939761374231177e-01
-2.566559224733280797e-01 9.331190840499718753e-02 2.094740960468060575e-01 2.875426210265434321e-06 3.027348515642741523e-04 -1.166433417892705493e-01
-2.363843031646087889e-01 1.970082600424097052e-01 2.102631715888024777e-01 -1.486761814609478686e-04 6.586549455482521628e-04 1.275748898104536733e-02
-2.201217145036497014e-01 4.186701075090165647e-01 2.096318502433490161e-01 -1.393376708009262102e-03 4.266373933483508002e-04 -7.623294440422706542e-02
-3.087197632355821453e-01 4.321287562209401023e-01 2.090013087727297103e-01 -7.117742109263526160e-06 7.387847598661158094e-04 -1.183690296197856262e-01
-2.954026732657040188e-01 3.812652336125279540e-01 2.098371994644931404e-01 5.185645477640505934e-04 6.247183539131218087e-04 -1.318257023228088520e-01
-2.281437565213014218e-01 4.659724194194427294e-01 2.095976593606071470e-01 4.174505036917649289e-04 5.282917989354429366e-04 -1.464974698022008803e-01
-2.841500357424102674e-01 2.692904026424705610e-01 2.091168432166229385e-01 5.985478242309099105e-05 1.108493796126072293e-03 -3.239016366059362384e-01
-1.837069235446983639e-01 3.900915893360485942e-01 2.096187485075896029e-01 -1.927079911930220789e-04 1.818640291640293569e-03 -4.485852387811831155e-01
-2.205882394068492125e-01 3.968866215477398485e-01 2.102721317176973748e-01 1.953015049597194572e-04 -7.882027875650077838e-04 -4.126651341662676553e-01
-2.762489938260144218e-01 2.771700607263239413e-01 2.093491407364663770e-01 4.592287733837194263e-04 4.492368729996855012e-04 -2.673795230733244099e-01
-2.224902788855912805e-01 3.475799794579181312e-01 2.099952966478070282e-01 6.997591570163038148e-04 8.605325286745589986e-04 -9.187248840794466631e-02
-2.190739085523631668e-01 2.548131117360494802e-01 2.096884159401515291e-01 1.036903084885697907e-04 3.987057538599927801e-04 -2.676790501515535214e-01
-1.379655461808400874e-01 3.064637995161742512e-01 2.093051276315265330e-01 -2.214872677376947610e-03 1.851956227586444570e-03 -2.928688731244208365e-01
-1.216106456245956841e-01 4.675876097723085656e-01 2.089502049069283385e-01 1.783333240566259360e-04 1.073579846500737197e-03 -2.754778842955171725e-01
-5.281014849371327979e-02 6.294340487422326325e-01 2.096776034423568635e-01 -6.379897661354685292e-06 1.540445311663053533e-03 -1.232717300863110793e-01
-7.689708735333292133e-02 5.731319683061939507e-01 2.095380178892908285e-01 2.584378595160668601e-04 1.204139816308410311e-03 -1.620390575197656891e-01
-5.482552844969303119e-02 5.213691138094544986e-01 2.094273535173244993e-01 1.123855713600788567e-05 9.608507965127258566e-04 -5.478156193081892833e-02
-4.725023895622699338e-02 6.665938364181814846e-01 2.092470067248721199e-01 -3.573875669229993482e-04 1.594510246196290506e-03 -3.020205164380589946e-01
-6.576970462329068123e-02 6.294565834661250969e-01 2.089834962993815659e-01 7.506808870846668879e-04 7.884318852508212429e-04 -2.728746017479409258e-01
-1.542940993786944825e-01 5.953422622112660711e-01 2.090413056620461507e-01 -6.428550089406793436e-05 6.255022826489555670e-04 -2.340116348726432038e-01
-1.614392460570135135e-01 5.740860472822518767e-01 2.089468509569041843e-01 6.616873982730753223e-04 5.725753547971522417e-04 -2.235295184443634731e-01
-1.439575738846102793e-01 4.663433721362757467e-01 2.089759481400267349e-01 4.479026698933867697e-04 3.434003361717978087e-04 -2.516640160605347898e-01
-1.844824968400442244e-01 3.940566815705134340e-01 2.090589587142154260e-01 1.391809868279882004e-04 3.781102108420947836e-04 -2.456611548082787977e-01
-1.313632926051174488e-01 3.449638582574374723e-01 2.091011177495901152e-01 1.711159510875848047e-04 5.544341856565258766e-04 -2.563921522900841632e-01
-1.161782527691874733e-01 3.509390925675898165e-01 2.095694195800851811e-01 -6.913863906733920713e-04 1.566039833938816846e-04 -1.596455506951842407e-01
-9.834206697474837111e-02 3.995296392045880607e-01 2.094915056720874635e-01 1.630039853150744018e-04 5.773350568676980515e-04 -2.630159691954123691e-01
1.261701107437760566e-02 4.952313025415747139e-01 2.098701312764502114e-01 -8.430265823267750458e-05 8.562198411224415499e-05 -2.784910719011814972e-01
-5.265335877839391610e-02 4.595247014192692103e-01 2.100441903555826939e-01 -5.106073333358201945e-05 -1.003244842322643634e-04 -2.070012815450196497e-01
-3.164991039355802283e-02 4.216691408494732674e-01 2.087617043036128495e-01 4.737006408011237737e-04 6.009146869589239090e-04 -1.546059891235108119e-01
9.727587486619687640e-02 3.038817453185174711e-01 2.094454515877020584e-01 7.193214639970299052e-04 5.891802780303520169e-04 -2.374372066082278687e-01
1.595397995897218993e-02 2.331234816280499667e-01 2.097313188519236982e-01 5.598434294320363443e-04 -9.963432257599983809e-04 -3.399696942189138760e-01
-5.509509195523197567e-03 4.456945629287049071e-01 2.102536975739889846e-01 -1.048451205025104039e-03 -9.440392720749150391e-04 -2.432781103320701965e-01
-3.528601518401860287e-02 4.732029008455418406e-01 2.092213912764643857e-01 -5.790807319235997909e-04 -3.436656931538051296e-05 -3.435621974554157187e-01
9.554716498802910685e-02 4.449371004269219720e-01 2.094606067693592366e-01 8.377965561330667082e-05 2.958345232572492435e-04 -3.778392474537285994e-01
2.120985733742478466e-02 5.392593711993731720e-01 2.090159187308343602e-01 3.269511409364264502e-04 -9.635330161190979511e-04 -2.965223220284424754e-01
1.005234615699714951e-01 4.956003952162437720e-01 2.095065572799096887e-01 4.457617156518301448e-04 -6.806045503399945143e-04 -3.213573797758616513e-01
2.044286876152044963e-01 4.750084507983154403e-01 2.106273904948310349e-01 -1.296553762178751595e-05 -1.505163133158227400e-03 -1.933432323795228891e-01
1.050701997551958949e-01 3.724013554571671269e-01 2.096687014527126025e-01 -8.854542639895047725e-05 -1.143022925501219547e-03 -1.979154915130232617e-01
1.404889250295238146e-01 4.000023220973132343e-01 2.096978900065967766e-01 -2.283561923429021006e-06 -2.378845470017079548e-04 -8.279193908838004823e-02
7.621972760212060438e-02 3.814191142714900562e-01 2.095693713105718503e-01 7.821875183540218665e-04 -1.747607417111959102e-03 -2.165438896177210581e-01
6.323963322606898640e-02 3.602195129286002717e-01 2.100704422996537701e-01 -3.917029587168845920e-04 -1.598488973616444099e-03 -3.420971637187787406e-01
-3.909997309512705521e-03 5.032590034235900900e-01 2.090945288253520107e-01 -1.266309536197379650e-03 -7.734437599213678715e-04 -2.364528107807250534e-01
6.046237229691891341e-02 5.753116844683566766e-01 2.097939666636521872e-01 -1.132331764565435578e-03 -3.969913416864647338e-04 -1.091239309746133146e-01
-1.496020651782858750e-02 6.828178817780108378e-01 2.095924924404137246e-01 -2.219293813247466118e-03 -1.794241091257119287e-03 -3.788368745499787749e-01
-2.311127387430315580e-02 6.227395773648425337e-01 2.090808420021976199e-01 8.965549502660285532e-04 -1.399119027057065673e-03 -6.267409455342023428e-01
-9.116616608556535328e-02 4.830385407431392886e-01 2.093237522239974058e-01 1.466302183014334863e-03 -3.430652191688946038e-04 -4.891230469207477616e-01
-1.030481028039340607e-01 7.211005802174002000e-01 2.090622643022241878e-01 -2.594916374861882483e-03 -1.911018361336084322e-03 -6.705970873800903842e-01
-3.391063847812902238e-02 5.361909935468212041e-01 2.095007215382773680e-01 1.108080642481677237e-03 1.725533871701089364e-03 -6.606043481649940263e-01
9.030591699324533317e-02 4.708879125821830436e-01 2.090010784817450396e-01 3.606536775468706640e-03 2.097916607550162973e-03 -4.040169460425994674e-01
1.206525208171964625e-01 4.682894561028869695e-01 2.095624569883756672e-01 -7.455996973648710375e-04 -1.624073219311796554e-03 -1.860068248410391145e-01
-6.619608832232029560e-02 5.255475382121200800e-01 2.087009250666838067e-01 2.888978010995812523e-05 -2.700252895675326215e-03 -5.303507980760018281e-01
-4.734617023336971930e-02 4.651032043902664781e-01 2.086080419898730387e-01 2.041261064664308140e-03 -9.012801014846999470e-04 -5.342474641357567444e-01
1.118521001356895944e-01 4.888392242739779125e-01 2.098373141267764197e-01 -5.854213034292475798e-04 1.276475661948920379e-03 -4.236537343272633871e-01
3.061686536912088669e-03 5.595273543535357330e-01 2.093668865856691541e-01 -7.334071380745595375e-04 -5.947369812445418976e-04 -4.605360905133614735e-01
-1.097182110645440467e-01 6.432008223098005795e-01 2.088364585942939500e-01 -1.344902430719493525e-03 -1.994468141822294469e-03 -6.117723687843785729e-01
-5.236413765149865868e-02 6.023698822885995563e-01 2.098031963444245140e-01 5.280362166349632480e-05 4.409467486761816540e-04 -4.586625530583244847e-01
-8.501433632416445507e-02 6.500356055492303442e-01 2.095906689045186622e-01 -2.185545860761468288e-03 -3.887666332119105021e-04 -4.745606702048850156e-01
-1.342628286022023443e-01 6.131023046331161019e-01 2.106468591329777595e-01 -4.499172995298616161e-03 -5.432963405042507202e-03 -4.149377886271342075e-01
-5.565478689812505819e-02 5.869587736949251067e-01 2.095014418099829245e-01 1.957593786747571264e-03 -8.370601942183001189e-04 -5.451842163395913543e-01
-6.728147505548767726e-02 6.259751683557382984e-01 2.094101264537541751e-01 2.089062505762236111e-04 2.569591096522926346e-03 -6.365625930271782140e-01
-1.195830763197401198e-01 6.128517726522346720e-01 2.083770594788804664e-01 -8.702315441455286136e-04 -9.016899241170852697e-04 -5.858108330095821437e-01
-5.348995982127652954e-02 6.522460930575748606e-01 2.098613555279199572e-01 -1.698820574212782603e-04 -1.816686350705310361e-03 -3.883216898834809805e-01
-1.272414611406046114e-01 5.899619460643572566e-01 2.090512335769459940e-01 1.911608322418008278e-03 4.378593250914804519e-04 -5.506886871378923187e-01
5.842167370747909649e-02 6.610163504905050003e-01 2.107588939679497786e-01 -5.353876944836606991e-03 7.292517137763134330e-03 -4.727319155166784803e-01
8.154576442768333988e-02 9.126416489374339358e-01 2.092683224049782797e-01 -6.526698136310495058e-04 2.543717259291764735e-03 -7.613159228702950365e-01
8.688760549888453755e-02 8.911540025194460979e-01 2.096440730210158421e-01 -1.000717653176289024e-03 9.673627624302496165e-04 -7.754189962334312458e-01
1.169334675988215055e-01 9.874141968868102026e-01 2.090338479205263722e-01 -1.215920683408129891e-03 1.008578888301193228e-03 -8.677116881752486854e-01
9.887417937424081149e-02 9.206560891951696135e-01 2.104177389728910663e-01 -1.504864581003319095e-03 -2.473281767645547739e-03 -1.084139583890307179e+00
6.836134615206009013e-02 8.859484474128086484e-01 2.085225706538749724e-01 5.005937823197223729e-04 -3.965781180791435462e-03 -8.822473625864332147e-01
1.065919051444952637e-01 9.088458129631485916e-01 2.092655695628590773e-01 6.934673325751996263e-03 4.570465978381576394e-03 -5.672520336944922859e-01
1.775425759253589919e-01 9.663421411127229854e-01 2.100418620681130943e-01 -5.374422165329858321e-04 5.927004402794903808e-03 -4.973506031643484815e-01
2.952248512591024721e-01 9.914406433183032830e-01 2.101003120768799581e-01 -1.682407417498983865e-03 1.686382296386519436e-03 -4.285455584723777411e-01
3.866045592384639851e-01 8.472035924202331314e-01 2.090797480337734382e-01 3.299836263009430642e-03 4.445687703328312507e-03 -6.103774551021248218e-01
4.792754701107242998e-01 8.588553794909212780e-01 2.096537306932442779e-01 -3.119447871858725913e-05 -3.632594259919693329e-05 -5.092602720645758030e-01
8.530173046159526817e-02 7.891949368668795817e-01 2.080567368458468014e-01 -8.131022324196496157e-04 -7.329354122021412669e-03 -7.137678464467483996e-01
1.262629461248769014e-01 9.257152167504406615e-01 2.096098535340581992e-01 1.645339543215427341e-04 -9.317237924388789170e-04 -8.485759279460562965e-01
2.071818021647718333e-01 6.955918010949424524e-01 2.100324967784008567e-01 -7.535417837907358064e-05 -1.754700120012528874e-03 -6.778244964752132562e-01
6.598094313134929279e-02 6.106778043673247724e-01 2.089963926658029991e-01 1.396964234184660484e-03 -1.224261530284749197e-03 -6.556668919605707080e-01
1.711948103585454461e-01 6.953904764312115461e-01 2.097460828624682638e-01 -5.525638676950013007e-04 -8.170120367714875376e-04 -5.990145338630590288e-01
1.160655353676740831e-01 7.647570209107756867e-01 2.085568567180913768e-01 -2.618191452830696299e-03 -6.332534249019865398e-03 -5.473104279094228586e-01
2.528322603280990233e-01 6.271709852804973062e-01 2.093970505739096710e-01 2.074721642141898106e-03 -5.015867234115719024e-04 -4.466655357905393586e-01
2.915716538647769585e-01 6.931983615972711066e-01 2.103801217585044014e-01 -5.296281313085858360e-03 -2.550155979383103826e-03 -4.417883372589563873e-01
3.199365942998494972e-01 7.641302233520201881e-01 2.084706472524842091e-01 1.703591945580260753e-03 5.716031031017949600e-04 -6.241707053359805135e-01
2.372589324054356630e-01 7.122889242009534660e-01 2.098978862646068699e-01 -1.109405248940578811e-03 -5.444691159556540490e-05 -4.621073049592518411e-01
9.438629521784175358e-02 7.827132818277731108e-01 2.093856566193863511e-01 -3.536931742039605645e-03 -1.755169351274298494e-03 -4.149649963717202406e-01
2.048130647867205389e-01 8.316082115125433827e-01 2.092871396650778926e-01 -2.397875993218289998e-03 5.486982154855204021e-04 -3.134695712788660993e-01
2.294690823897843623e-01 9.713045202714463144e-01 2.097042360571995667e-01 -1.106526642129491977e-03 8.960950546352743507e-04 -5.313331140847472600e-01
2.357204494232444103e-01 7.323314584947895334e-01 2.084885585521406015e-01 2.142976909678483144e-03 1.759819977454771343e-03 -6.084137192553814577e-01
2.873881206203424132e-01 9.237637582426330152e-01 2.090752299226889543e-01 2.442739841973902253e-03 -5.650966844232235793e-05 -7.085704207851569736e-01
2.562887431633764992e-02 6.048944003495360100e-01 2.095355540379216785e-01 9.530845284891981128e-03 -3.976895218393698347e-03 -4.408706982812649611e-01
3.654959684797864927e-02 2.977107366298017421e-01 2.105613498633444602e-01 3.954260436212580322e-06 -2.529886016010805382e-03 -5.276596801761744837e-01
3.646844693912912327e-02 2.195056751373014314e-01 2.104169573322303699e-01 -2.064500159943079109e-03 3.605222536030279023e-04 -3.827216244553239277e-01
2.192832167865668355e-02 2.814406503598200215e-01 2.106879470700982471e-01 -5.852959708949849590e-04 -8.587194670359564333e-04 -4.493841132333002419e-01
-6.952993997693404649e-02 3.256843411603409927e-02 2.105059067928748417e-01 1.079647659701602576e-03 1.967886272471315329e-03 -3.037863098602794909e-01
6.620866649974395390e-02 1.349007936802515059e-02 2.109246424959970723e-01 -3.978845446220211611e-05 1.293393776812070285e-03 -1.686325493432951905e-01
-1.551016030622937580e-01 -8.380452928578123462e-02 2.109621384158629209e-01 -7.384345913158879083e-04 1.001534110637334617e-05 -4.128408122033963568e-02
-1.251792223463361886e-01 -1.262697536008272892e-01 2.115023333227133984e-01 -4.329520812412953647e-03 -2.393954076292128218e-03 -4.592368048290024207e-02
-8.624735717150669445e-02 2.794456150021150387e-02 2.112104100035452348e-01 -3.753397869834726279e-03 -1.052256133508105507e-03 -1.852096857928135776e-01
-2.809911952320918310e-03 1.817650557055328631e-01 2.106197151133276657e-01 -1.712343548743775531e-03 6.965661324965921738e-04 -3.978590953518234552e-01
4.860949834944020692e-02 2.257001710573435238e-01 2.105162265683155898e-01 -1.126619326733787523e-03 7.625501451448508591e-04 -5.381470531222916076e-01
6.157495236319061871e-02 1.911936448224651197e-01 2.098959876345038444e-01 -5.346072767715351467e-04 1.354776609864061189e-03 -3.671061124400095688e-01
1.577567466416345265e-01 1.881782540232335710e-01 2.095571110464269915e-01 4.133047103592112580e-04 1.248568429452371698e-03 -2.725495413415023327e-01
7.034883618783935311e-02 1.530027960332490944e-01 2.097841615696626749e-01 -5.635180198689648118e-04 -6.567353985757950693e-04 -2.749127591606332910e-01
1.246136150805581266e-01 1.791296833361619989e-01 2.110269909464628779e-01 -1.080946730881004970e-03 -4.916273577253869789e-04 -2.247403050561385118e-01
1.281378338302047726e-01 2.653842710419924700e-01 2.103365013646367188e-01 -9.735963113441710058e-04 1.387136654371249700e-04 -1.176640051158667905e-01
1.563039021292438324e-01 4.006640808296835221e-01 2.104490340919875635e-01 -1.216060311161821280e-03 -1.205270255895063208e-03 -3.094615280688559067e-01
5.157061654628833369e-02 3.850661750339187117e-01 2.096924878093776590e-01 -1.116550757971213363e-03 -1.080875877903804145e-03 -3.256102450635311452e-01
7.991260400314230405e-02 4.928795965218292774e-01 2.085851392870359811e-01 -1.318389941538756301e-04 4.291397664290816437e-04 -3.590552892785023320e-01
1.273135785536932685e-01 4.005834707587652144e-01 2.100467304188929907e-01 -6.967292129733068402e-04 -3.805223791906178700e-04 -2.568570584378037092e-01
7.990300135443390017e-02 3.945077302112708906e-01 2.095126462269367162e-01 -1.245160422648930757e-03 -4.159600945876277644e-04 -4.628842861872718428e-01
1.076283292815021220e-01 2.567010102139010153e-01 2.107215993530834330e-01 -3.248396132472735438e-04 -3.104198363946659121e-04 -3.020226159729358928e-01
8.054802239839420341e-02 1.759772654580698814e-01 2.101710523943325359e-01 -5.286967721743609594e-04 -5.383214061503774611e-04 -2.340740180139523063e-01
1.186678292698249357e-02 8.737972359443581249e-02 2.100719142684714935e-01 -7.245987310758636012e-04 -1.234055735307088399e-03 -2.633564395515634593e-01
-9.056329961451562577e-03 1.172045013649636452e-01 2.106817150719800802e-01 -6.423762800700327617e-04 -5.189029277684195033e-04 -3.214740761325897145e-01
-4.804167863671805760e-02 1.748270467621964863e-01 2.099361976198128033e-01 -6.884614308673193831e-04 -3.235264975011985819e-04 -3.667904041486316769e-01
-9.837622194006589993e-02 1.802446799694373269e-01 2.089654336421447600e-01 -1.187332145343040617e-04 2.021614015621630970e-04 -4.962227480899148446e-01
-3.076712891519517087e-02 1.444762327584683259e-01 2.102507484892471301e-01 -6.462541229411360275e-05 -3.136835965725056816e-04 -5.510554023882482388e-01
9.083851308956999993e-02 2.108424344204749001e-01 2.085022791626651717e-01 -1.068722768458757352e-04 9.174232528281874239e-04 -4.287223157845494459e-01
1.413342273254350467e-01 1.592302729791196247e-01 2.086807782422048230e-01 -1.096888451313108242e-04 1.705092451188238421e-04 -3.700617429593681673e-01
1.456932427431562038e-01 2.370854120322546388e-01 2.102179648140795609e-01 -9.158262882838040379e-05 -5.628653841050905741e-04 -2.240292413080622602e-01
1.191033408039719882e-01 2.830536327783131911e-01 2.096309068866745728e-01 -7.745908890394208801e-05 -4.725927284277503873e-04 -4.132755745543530423e-01
1.209631192330719307e-01 2.624145830645565614e-01 2.102866935967213635e-01 -2.945612958336587183e-04 -2.433253574462853990e-04 -3.568774446519029087e-01
1.330512830007258007e-01 2.359649517495554238e-01 2.095366530030443597e-01 -8.692435473389865377e-04 -9.339711749669532992e-05 -4.733045569552722376e-01
1.197473752075156467e-01 1.789782678947594019e-01 2.104348252031661981e-01 -1.304596789507082150e-04 -2.114739160809232766e-04 -3.569748394756492860e-01
1.412504965963018999e-01 1.964764411611324424e-01 2.093323737133781504e-01 -3.808718476884936921e-04 1.196113701288781798e-04 -4.022452246579933943e-01
9.263198306339717747e-02 2.104774983152787327e-01 2.103206014360212706e-01 -8.559176887414291618e-05 -3.353345936373986359e-04 -4.412352881079570355e-01
1.239760122481063653e-01 2.386343510110246202e-01 2.094777200071279433e-01 -1.708808051823478425e-04 -2.730407431503814575e-04 -4.269556325104587602e-01
-2.425700874997514800e-03 1.350724281622471545e-01 2.104796648147422844e-01 -1.136160528359854557e-04 -1.079992381461620859e-03 -3.616645671454689626e-01
-9.529048437058668802e-03 1.305180052746646169e-01 2.091681396656954739e-01 3.519987779153974225e-04 -5.186630974344111703e-04 -3.385125437973884877e-01
-9.944964762870316111e-03 4.973535208436338784e-02 2.097445771058666919e-01 4.757659605894647517e-04 -7.442452396398916304e-04 -3.288356690293694484e-01
4.154355917410357951e-03 3.145555776128375336e-02 2.100452411988025236e-01 -2.704436941121604208e-04 -7.206677916577342979e-04 -3.242958865126402412e-01
4.943904802548212962e-02 8.261164599069709125e-02 2.100030239197581139e-01 -1.038296097218609866e-03 -2.600325324834012238e-04 -4.867163628031733746e-01
-3.039458026896143389e-02 9.829645410300247299e-02 2.095131501671020358e-01 -9.097297194813444739e-04 -4.739398583160775989e-04 -5.575672242409503987e-01
-3.382661748771770976e-02 1.229246497191084503e-01 2.094319981702782441e-01 1.807967875231867062e-05 -4.873061237088988779e-04 -4.236956832380435189e-01
1.168935929417426120e-02 3.190748484778690996e-02 2.096604436476557920e-01 3.078200077339276921e-04 -3.359545608246495402e-04 -2.878716808378565806e-01
2.610728897117128161e-02 1.060431460814323795e-01 2.094454365996378242e-01 -4.828004283575655360e-04 -4.371992232391276362e-04 -4.298792470277499334e-01
6.893127275797467091e-02 7.609815354694036971e-02 2.096231816542885040e-01 5.590107210326313632e-04 -2.489082944602499618e-04 -3.565762052944073113e-01
7.557936401177818564e-02 -4.929149319804147431e-03 2.104688207471485106e-01 -8.230967047103347322e-04 -3.844544335196916100e-04 -4.173886430593720664e-01
6.983282155581016504e-02 1.189989028254862802e-01 2.100167752770756291e-01 -6.612079495284731287e-04 -2.484992076244672138e-04 -4.795187989767311643e-01
1.345349196659787749e-01 1.490693762866782124e-01 2.098661770144775729e-01 1.848276909249480708e-04 -8.769209093662225956e-05 -5.496910101322269870e-01
1.268261528232065005e-01 1.379005393608870034e-01 2.095085138878139963e-01 -4.685576541063626952e-04 -1.812392856182287520e-04 -5.907353440772037390e-01
-1.000527757350823804e-01 6.237099980713031733e-02 2.104584877426270428e-01 -6.088194395791728932e-04 -7.706043593409545988e-04 -5.277836336685891583e-01
-1.843485677459709426e-02 4.105502592148929306e-03 2.104449117289301507e-01 1.170353535005887527e-03 -1.688603939475280882e-04 -5.731295966474025949e-01
1.571763872943970908e-02 -3.409820429041331147e-02 2.111486522169894742e-01 1.244395362513134881e-03 -6.999845499523420873e-04 -3.969263685737129399e-01
-1.349805922371729860e-01 -8.806741912858506716e-02 2.092841144308048573e-01 -3.521481057279924319e-04 -2.275244421903012740e-04 -4.849860931552198995e-01
-1.471278774780446219e-01 1.676806607507474317e-02 2.095274173031221321e-01 -7.361627097850631388e-04 -2.769927022330476922e-04 -4.563700966468807185e-01
-1.043777556695285602e-01 4.685785032088268798e-02 2.096526660651958363e-01 -2.354079558407252320e-04 -2.341687168370518873e-04 -6.578426538012411839e-01
-1.720042239465180700e-01 -1.305829920688325770e-02 2.097311681900415614e-01 -1.628178862900876494e-04 -1.023252170648953485e-04 -6.222184017029399605e-01
-1.628729434540535925e-01 -5.211207636927517317e-02 2.098579410288131664e-01 2.236738566498864688e-04 -3.533211064740724794e-04 -4.560530616313906438e-01
-1.497501749083586242e-01 -3.713799207826160020e-02 2.097606788405356193e-01 -9.450732222189771835e-05 -8.476863946642716969e-05 -5.361746555306871054e-01
-1.456117789220038317e-01 -5.265747806211685395e-02 2.099297258327641469e-01 5.720682793644701544e-04 -5.333433297223998072e-04 -5.212391106366747184e-01
-1.973787927507756890e-01 2.278903090165751086e-02 2.100136224138443586e-01 1.293597790901443738e-04 -6.139432645355209165e-04 -5.072176875689536901e-01
-1.440697076357633222e-01 2.866076294696788193e-03 2.098334908681078192e-01 4.276947316238750374e-04 -3.606883319293467064e-04 -6.017537835993806983e-01
-1.623703004661987137e-01 1.488256254543877943e-02 2.098408604727086124e-01 -2.550681698848903940e-04 -2.417105598764022806e-04 -4.898279187624177688e-01
-1.338681604647035950e-01 1.325825345396634825e-02 2.098038068332476191e-01 3.429805541257264503e-05 -2.166002563432802681e-04 -5.325172170816956374e-01
-7.055783018380135108e-02 -1.070310372434382998e-02 2.097441197733760365e-01 -1.849570166315516500e-05 -1.147820492498563631e-04 -4.513584312375582552e-01
-5.913147969649239222e-02 -8.476862685390796140e-03 2.097712015648071082e-01 -3.075978028022624956e-04 -7.045414658024093282e-05 -5.681039839337379549e-01
-5.805949682894098740e-02 1.984267815740475838e-02 2.097321740400485135e-01 -6.759557373764106926e-04 2.756990627429342723e-05 -6.288210332877167685e-01
-1.207129633989514894e-01 2.845501689276580537e-02 2.099287575370488157e-01 -3.155512224805938587e-04 -3.193929575127436209e-04 -6.838783075965353397e-01
-1.127581620710646493e-01 3.437909255975231393e-02 2.097588803253562229e-01 -1.457929263318337180e-05 -7.739131642472449433e-05 -6.647873600141186445e-01
-1.375407919400825074e-01 6.451320838070546959e-05 2.098855481853654781e-01 -2.811700216632551943e-04 -2.860646148926961042e-04 -6.847682354817287154e-01
-5.964904763258271903e-02 1.517228114871510200e-02 2.098320233303294091e-01 2.067906020044259544e-05 -2.648744429828295212e-04 -5.986644077578570089e-01
-1.219897404130779461e-01 2.366087576170214368e-02 2.098404915289782680e-01 -2.600882515131270104e-05 -2.293645699379283896e-04 -6.722278634608387371e-01
-6.782823361956902275e-02 8.487703965600648659e-02 2.098033724929669330e-01 -7.147436890283465289e-04 -1.198681222120123860e-04 -6.655414735517675151e-01
-8.227195977477172462e-02 4.613866430455107470e-02 2.098859747079549476e-01 8.424017000708257461e-04 -4.486690850480323203e-04 -6.938977839509713474e-01
-1.343484127797091032e-01 -8.859565155107003431e-04 2.098205937664137100e-01 -1.957524001330395683e-04 -1.569861276234136996e-04 -6.600964351895300952e-01
-5.251220413948503446e-02 8.196734916910471125e-02 2.099013164607800852e-01 -7.062534270255441322e-05 -4.438424588403367755e-04 -6.417580433610188262e-01
-2.078275641025126644e-02 8.772465394296891095e-02 2.098676802284098475e-01 2.595937172104578728e-04 -3.770347047073682473e-04 -6.742476726970104695e-01
-9.453100230843856921e-02 3.271348567376042293e-02 2.098704628496810831e-01 -1.186160913339628951e-05 -2.071892134015888918e-04 -6.265915862118908164e-01
-1.041006584070345853e-01 -7.283128799341844276e-03 2.097887121247167252e-01 -2.649650190359785582e-04 -1.051370761372999896e-04 -6.305344229026412783e-01
-3.245615916640593596e-03 8.430321600465209841e-02 2.097824726757385738e-01 -4.448238593974541402e-04 -1.138386678042317842e-04 -5.830768559944329299e-01
5.441308781797411787e-02 5.346541715713384879e-02 2.096392190143148704e-01 -5.668431400819728570e-04 2.559368622465985673e-04 -6.199245868989866626e-01
1.654270701229677495e-02 1.321411032297818422e-01 2.099623720923675108e-01 -1.287733205285324762e-04 -4.578855382275447247e-04 -6.735480495656445132e-01
2.254716590714262586e-02 1.076517000555476389e-01 2.098750228547890395e-01 2.327360721782166530e-04 -3.387878156878264269e-04 -6.667569037864486958e-01
-5.225626724641624365e-02 1.516555325362215489e-01 2.099131417303014002e-01 3.169011004389344255e-04 -3.852944194542786034e-04 -6.384083370282274128e-01
-3.539175431572724045e-02 1.400239521043437074e-01 2.099316884647137171e-01 -9.174506311332178920e-05 -4.597123971016343772e-04 -6.412785300956442835e-01
-5.873412507640281277e-02 1.425680903968329916e-01 2.100066825075646015e-01 4.909698505039625672e-04 -6.376029802910879131e-04 -5.618480025558550972e-01
-4.168247324617257998e-02 1.546364301858481338e-01 2.097736717282647767e-01 -4.676713287332031092e-04 -8.821407774583686059e-05 -4.611284652728968037e-01
-7.891816586463634708e-02 1.984533152279261414e-01 2.098849110510904170e-01 -1.050458973469063840e-04 -2.703160954257187508e-04 -5.711115743598793593e-01
-9.975869299074568985e-02 1.572994746930655441e-01 2.098135905933586343e-01 -2.060388435597024183e-04 -1.470887922950121752e-04 -6.637807849316190723e-01
-1.023225776704885792e-01 1.896743707379995869e-01 2.098160242713689172e-01 -1.689779872521854982e-04 -1.209899584419970762e-04 -7.802694989036803586e-01
-2.238720851290507477e-02 2.515480155327254885e-01 2.097037278735567334e-01 -7.613507835111753665e-04 2.891256752277928438e-06 -8.153891871190788176e-01
2.281424554267396862e-02 2.401497653019866729e-01 2.097332480075659311e-01 -7.135879437457831381e-04 6.679333765538986341e-05 -8.377727419810353515e-01
9.672407206043683037e-02 1.754412694775294712e-01 2.097609131504016844e-01 5.171237125385537425e-04 -1.014641952350020776e-04 -7.292381367435978312e-01
2.259358353692640306e-02 1.907781505472250783e-01 2.099786238732526122e-01 6.636408871024011488e-04 -5.287577259317265480e-04 -7.637564439589020759e-01
-1.626298031524896215e-02 7.656115931764115312e-02 2.097746587748511859e-01 2.848685190725614336e-04 -8.280883203103278666e-05 -6.927459275891643120e-01
-2.030433847615671292e-02 -9.496353575986368756e-03 2.097702305197552963e-01 4.849757594457454512e-04 -1.368114611683689838e-04 -6.773343589476591431e-01
2.956866203518232830e-02 9.791904614413254881e-02 2.098599739972570322e-01 -1.013217134136991078e-03 -2.524591470153102072e-04 -7.346466552271739836e-01
8.203433673139137738e-02 5.605889435717892333e-02 2.097424908898034013e-01 3.370010987116425598e-04 -6.986638226853388273e-05 -7.201307581167825100e-01
3.786830700265650385e-02 2.218897668165700429e-02 2.099584202747833972e-01 9.707340815655379675e-04 -5.757992591249610657e-04 -5.547860794801214857e-01
-5.877428869712871679e-03 -8.581235617986943121e-02 2.100245678459531917e-01 7.367734812689932192e-04 -6.728695520446446822e-04 -4.035677367078576161e-01
3.467316922409580116e-02 -4.255300289349694953e-02 2.097901809402198392e-01 -3.739621008116651496e-04 -1.347218324574543690e-04 -4.443447988240430413e-01
5.171727969167184275e-02 -9.433861279917915565e-02 2.096664923997293983e-01 1.194049193807891751e-04 1.739962806021168654e-04 -6.423653067295503893e-01
6.427907309717244277e-02 -1.421661958602160880e-01 2.098349087754994846e-01 -8.989574293672046384e-05 -2.269771995731981423e-04 -7.136317372933069780e-01
6.639933749105578209e-02 -7.158908751112466606e-02 2.099128051242583615e-01 -2.274681407965133215e-04 -3.915218742916984807e-04 -6.240158523867878060e-01
2.083251366771463400e-02 1.060955792726073488e-01 2.100563099358286889e-01 -6.766186809722947535e-04 -7.161345047298800677e-04 -6.634356196348701884e-01
4.927931069164092487e-02 1.076051614537778256e-01 2.098846126662848866e-01 -3.109045491693699487e-04 -3.439925086621015301e-04 -5.933686853887192303e-01
1.611262038722161560e-01 1.498654671161910590e-01 2.097000764419992280e-01 -5.776325596794646674e-05 -4.745659529739175864e-05 -4.822648790213681647e-01
4.606986026361669512e-02 2.094459843047593584e-01 2.099680334962816253e-01 -9.925661130917257189e-04 -3.178157719309895532e-04 -7.751032533638290145e-01
2.049488093408133663e-02 2.403631473220030901e-01 2.099496930183354926e-01 1.886121793039781348e-04 -2.769963710590268228e-04 -6.910527254146395792e-01
4.450086313604224852e-04 1.126334720777557724e-01 2.098689195518697037e-01 6.094249968909801500e-04 -8.852154361144934098e-05 -7.249571447809111113e-01
4.542762177359335740e-02 2.491563959989312807e-02 2.098828923542813141e-01 -6.356866154759250253e-05 8.570501250356175090e-05 -7.164881524464232765e-01
1.085159329832065117e-01 1.346172272617962296e-01 2.101093866970959456e-01 -1.133851017046072599e-04 -2.593422612465777813e-04 -5.872344950349012160e-01
1.151574573389605033e-01 -2.048480472255619078e-02 2.101985248370622505e-01 1.277608697812882899e-04 -1.181493161455377780e-04 -5.764610424528785471e-01
1.632283404634773671e-01 -4.464418702163772124e-02 2.104739589759869189e-01 1.423152129456915034e-03 -4.159081839950202726e-04 -3.217060266545255232e-01
9.717254466565763971e-02 -5.532965243867678240e-02 2.106598234568697325e-01 3.880974958267723344e-04 -3.286866329613883980e-04 -1.955105324398831723e-01
3.775483825504592078e-02 7.899848971630223440e-03 2.108382587334296510e-01 -3.113640001938804570e-04 -1.953493951461166629e-04 -2.868399142772600219e-01
5.250960574012060456e-02 -3.255202764948663882e-03 2.091177007597312398e-01 -1.808279135335875168e-05 1.234983059585432119e-04 -2.674359376521663334e-01
1.309876003702569736e-01 1.521958793825340175e-02 2.092002064199818823e-01 -3.682096501327994137e-04 4.188068129422301629e-04 -3.610588696506030759e-01
1.531677932452962798e-01 1.054480072801213808e-01 2.096019556183540411e-01 -6.225415708696823650e-04 1.866771090023901778e-04 -2.993295146098182702e-01
2.164825035477924708e-01 -3.088913754782288482e-02 2.096997124295030823e-01 7.519565131193406589e-04 2.800310275444101420e-04 -2.151734765536403859e-01
1.794642258145679459e-01 -2.651929816113313132e-02 2.102189438357576212e-01 -4.373902258346040132e-04 2.824913956473481318e-05 -2.271336752340545051e-01
6.520480911090330289e-03 3.083133011544812035e-02 2.103648704995030871e-01 -1.283042596294938203e-03 5.634772011708941240e-04 -5.713107069970716489e-01
6.231816102276498126e-02 6.104922673890200713e-02 2.106337853267390425e-01 -1.045469443972742212e-04 3.717514308370284057e-04 -5.000591167546031279e-01
7.903971901700136693e-02 1.565189789904582740e-01 2.093796503552726174e-01 2.014152407825509701e-04 4.405405421792835184e-04 -5.192250327223062456e-01
1.214949089624466905e-01 1.232138349991539483e-01 2.096057365208941481e-01 3.947016640299348938e-05 4.519382093105747135e-04 -4.396663346531965444e-01
1.731121921710115641e-01 1.906363918898766885e-01 2.098496088821477090e-01 -2.906439456660540790e-04 4.530700756600104535e-04 -4.718356619963232079e-01
3.081554731977884654e-01 1.322379964454920287e-01 2.102069160289260497e-01 3.621685621246006166e-04 4.811727142981721316e-04 -4.533880409636575903e-01
3.021799051872873787e-01 1.974298127646078593e-01 2.090348724337492414e-01 -7.407802501777671395e-05 4.196702899540176901e-04 -1.173660587300125041e-01
2.004577385811635581e-01 2.012403500255044164e-01 2.096465677142301809e-01 1.047435508734520618e-04 9.334505185692086539e-05 3.024055781544343277e-02
3.984598878891196239e-01 1.892418658083501737e-01 2.094464191088370453e-01 -2.423819303287012112e-04 5.509487923952978124e-04 4.919315992054090758e-02
3.662513952542977291e-01 4.795178048936937776e-02 2.100761368310700705e-01 -3.116899185098395068e-04 1.373021967237124960e-04 -3.320119504575856362e-01
2.872610965871714162e-01 1.639056286010012742e-02 2.093735041199058511e-01 2.722607058293853078e-04 -1.595342431963027983e-04 -4.650570068478591668e-01
3.389130265607956383e-01 1.059286225984170243e-01 2.092497224505728837e-01 -6.166615885302744382e-04 9.478073881646461511e-05 -4.162323269719969687e-01
3.964431388568117609e-01 6.034671932769169328e-02 2.097230111143398301e-01 1.781492687336872177e-04 3.174420449145434124e-04 -5.138377620182219552e-01
3.395460315199543277e-01 8.948889427576088573e-02 2.103419093837346487e-01 1.711570750340682477e-04 -1.364562561570971573e-04 -3.785704590531659974e-01
4.458386314075483137e-01 6.390893364529767751e-02 2.104093267576470083e-01 1.876306551333740275e-04 2.064042360746891054e-04 -1.327907920645770568e-01
4.172154467851565407e-01 -1.705459016210237461e-02 2.094932695343737494e-01 1.596691115113559544e-05 2.452112857565100215e-05 -2.180865866522465613e-01
3.722476497001840356e-01 3.361873785768872136e-02 2.098689722453679907e-01 -4.742711912404011868e-04 1.319130377071860833e-04 -2.691382814325211648e-01
3.799408069125165266e-01 -1.021213350647633827e-02 2.102323767719332936e-01 -2.569523051687545943e-04 2.460463883146934787e-04 -2.591075163923304836e-01
4.219233443030228070e-01 2.229217805785280865e-02 2.104029651308697568e-01 1.750110878803569242e-05 4.325251004494950861e-04 -1.888110629839988563e-01
3.520655848236676766e-01 -6.683566291025949679e-02 2.097587063183912193e-01 4.235780975619562647e-04 4.881588594570035423e-04 -1.104909104942647241e-01
2.463118778003171583e-01 4.152933376920540237e-02 2.101108998229462843e-01 1.490419581403271984e-05 5.210177957569323828e-04 -1.431091665612125863e-01
2.639197656536402814e-01 3.841175852320218020e-02 2.102918672315469695e-01 3.641279839971535529e-05 6.682036516312679598e-04 -3.531802657196650430e-01
2.471362306351006510e-01 -8.960111478340210267e-02 2.094629642694652571e-01 -9.148761086645174209e-05 7.245004589822262413e-04 -1.782940544192709864e-01
3.457040228453072128e-01 7.900263966003035626e-03 2.096400073619226756e-01 -4.663685582725160973e-04 1.031762067209023807e-03 -2.456081065856532686e-01
3.079259892275688082e-01 2.208409506699381131e-02 2.101595739912671124e-01 7.779901441606208289e-04 4.951135808924742466e-04 -1.350792939227100919e-01
3.005923095782921939e-01 1.394737732138753503e-02 2.103073500459275991e-01 8.004115381872949726e-04 7.123644672240583234e-04 -9.899125938344289360e-03
2.967405319416115406e-01 1.160394349985919699e-01 2.105408625426339886e-01 -8.051226141810691964e-04 9.865842123941859915e-04 -1.633412106132667990e-02
3.500363918293971088e-01 7.457643324953927566e-02 2.105668308717586479e-01 -2.679374007127472649e-04 1.088639136792557069e-03 2.576029147399144445e-02
2.916738814616060549e-01 3.440324030378930087e-02 2.093709876434416417e-01 1.626758996660364765e-04 8.629245967067803889e-04 9.360309536946137543e-02
3.039552064441115586e-01 1.035558640304433398e-02 2.092470723570870605e-01 6.736328284818795804e-05 1.004618842324093812e-03 2.698752439692293503e-01
2.478967373018233777e-01 1.947571915419979774e-03 2.094048133766282516e-01 -2.166398845481461795e-04 8.432014885810381688e-04 9.023692202091421199e-02
2.533391771017717287e-01 1.117359598698012754e-02 2.092595216416116011e-01 -5.688427538669731456e-04 1.023004501199316742e-03 -5.072328291790454552e-02
2.869813886414814830e-01 -8.076285083250176605e-03 2.093660206644127331e-01 5.099743191981224218e-04 8.241552024459954323e-04 1.131792259468593631e-01
2.960707490401862096e-01 2.840423508835282496e-02 2.092741215126838195e-01 3.680855798410415385e-04 1.003381991372454419e-03 2.327918379551883465e-01
2.070730221675765870e-01 8.341883921703016624e-02 2.094207008811102555e-01 -3.221899484320433658e-04 8.786618989654079552e-04 -2.139306447061879377e-02
2.727689761737031038e-01 7.820051903946724503e-02 2.092899507910644941e-01 2.385405439207691864e-04 9.256786879945702595e-04 2.351083278268412124e-01
2.439445974164493602e-01 1.540312834224523142e-01 2.093289495405030176e-01 -4.267221943571344834e-04 9.354841417424453534e-04 1.244872317752745289e-01
1.616927185139388767e-01 1.466752902533262626e-01 2.094239708841104664e-01 -2.601626195620025932e-04 8.426267024913859909e-04 -1.510816642724192860e-01
1.404837906506771483e-01 1.005576822673834581e-01 2.093930545657257669e-01 2.891891913678600609e-04 8.477845766445455625e-04 7.552643081995384644e-02
1.659118621922520687e-01 1.170311417459250353e-01 2.092694003646911605e-01 -3.571011815729886545e-04 1.009534980302788246e-03 -7.020626626992770847e-02
2.322579718025391537e-01 1.946639877294259191e-01 2.091488066846584615e-01 -5.171345984229512062e-04 1.144783444321550167e-03 -1.895288370274074777e-02
2.776697631990011073e-01 2.600648789863208021e-01 2.092545698757167227e-01 3.000636962414519058e-04 9.831662746779248809e-04 1.228902741503754871e-02
2.728310806081874484e-01 1.682679400677835890e-01 2.094169984641215398e-01 3.264898321119779658e-04 7.602851704582414645e-04 -1.398748009365223532e-02
2.722200753092419712e-01 4.947588300642947329e-02 2.092940141284698741e-01 -4.107299361233986102e-04 9.625348515614232884e-04 2.174937663513437994e-02
2.805623388159653731e-01 3.318622510069021980e-02 2.093584890487588113e-01 3.486575142238457345e-04 8.763791448516911270e-04 1.024624015409493771e-01
2.361286009405033637e-01 7.458651315811849758e-02 2.093530773552974567e-01 -2.607567021613131511e-04 9.243119276476899262e-04 -1.575642769694565390e-02
1.882242753523072076e-01 6.749077431634462054e-02 2.094089316347269025e-01 1.090511851828429200e-04 8.508356940646376668e-04 -3.449652652139831299e-02
1.913552574969239195e-01 1.191445485165237850e-01 2.093040340464104587e-01 1.858996764843103043e-04 9.631883828560318384e-04 -5.292133531335044966e-02
2.361619679394623139e-01 1.128846033972873558e-01 2.091318503322872613e-01 -1.954427952926631221e-04 1.100188595094682724e-03 -1.423378953867750207e-02
2.869768834121113055e-01 1.514866259306450191e-01 2.093143744867485001e-01 2.161606202500108612e-05 9.343680353226272925e-04 -4.429019303693983341e-03
3.409376182646595144e-01 5.428802503045863925e-02 2.092544870113697830e-01 2.640638903258222723e-04 9.216157700135613542e-04 1.825238862848499455e-01
3.508107985222368441e-01 1.746802078995052243e-01 2.092106559089079165e-01 -2.825177264362885971e-04 1.106166249527958199e-03 9.216752160915464565e-02
2.952774197732379591e-01 1.079798227397655852e-01 2.094022996325844432e-01 2.398766452193662219e-04 8.332459466831241808e-04 1.786236494800066132e-01
2.598400426956161691e-01 1.161014112877065407e-01 2.093898861849833870e-01 3.176780211477337411e-04 8.299107772308677742e-04 2.176051607518550424e-01
2.783960483929812102e-01 3.050716796188248509e-02 2.093372963840071654e-01 4.921458710756318168e-05 9.227417313992934862e-04 1.476528422309406341e-01
2.320180616959234554e-01 2.576558362028134180e-02 2.094855987664326347e-01 -3.212239105750993012e-04 7.850419457304292931e-04 4.211353248029107293e-02
2.469506600056088907e-01 -4.744438955566875754e-03 2.093529332236978568e-01 -1.421230371323416023e-05 9.024977562312152786e-04 8.411583209159355368e-02
2.167497369096169080e-01 6.119644751009863798e-02 2.092525589308245060e-01 1.441810225663967568e-04 9.876503803944883340e-04 1.793761900601143766e-01
2.595861476826625269e-01 1.016991610165691451e-01 2.092483760274761462e-01 -8.410832552498336771e-05 1.032853810645648508e-03 5.977263237422474063e-02
2.346340183934836621e-01 1.461343840679658335e-01 2.092685365573922485e-01 -6.102650586467470986e-04 1.049845491190324730e-03 6.197667727961019002e-02
2.445054225918814050e-01 2.371089468886854734e-01 2.093117086727766529e-01 9.365052336281955311e-05 9.455103801194064293e-04 -5.866404304170820538e-02
1.698083616756906333e-01 2.499827448513974593e-01 2.093620227646867393e-01 -2.153921084051179042e-04 9.273833845649813619e-04 -1.273217003484395371e-01
1.541992019116932011e-01 1.553224986469341484e-01 2.094210949329873839e-01 4.615357665533162163e-04 8.067905873428899734e-04 2.105992874150844699e-02
1.086823402227392044e-01 1.477346883725476345e-01 2.094015267709233297e-01 4.016931818590081631e-04 8.156162933578595077e-04 -1.424272800407649919e-01
1.434244616918289861e-01 1.981901254613012142e-01 2.091313244379430780e-01 -5.804959992425448188e-04 1.163439585166943816e-03 -6.987754657103523170e-02
1.509605747548796451e-01 1.640142493031680748e-01 2.092911246870766129e-01 1.202231425115670723e-04 9.528833040069920697e-04 -8.205202559505454796e-02
2.689525028234429072e-01 8.638041575106479575e-02 2.093035213029502128e-01 -1.393385979298529824e-04 1.029698340626707944e-03 -1.011825693904947754e-01
3.228661042323564545e-01 4.584164815165373691e-02 2.094726618444119337e-01 2.327600409363114568e-04 1.040090671678736960e-03 -9.053873182112939788e-02
3.357845613111887784e-01 6.907971316025444952e-02 2.095421020956997893e-01 2.416799055204159623e-04 1.271967855815612104e-03 -9.044062514128271488e-04
3.312875643999829700e-01 6.764758892407780888e-02 2.100414284365362261e-01 1.560048496186960682e-04 1.334152169116219850e-03 1.567623911231058945e-02
1.721997366083347081e-01 5.227636406678454889e-02 2.103373092969774150e-01 -8.535638919793786235e-05 1.977136439434134044e-03 1.827433960985658801e-01
