5.127912500852943589e-02 2.147888716485461535e-01 2.095299217388084112e-01 7.220904942885434146e-06 -2.411656610601419556e-03 -4.018847880998122069e-01
7.481202487138544077e-02 1.645332849631877814e-01 2.094397754388351851e-01 6.915488929164769231e-04 -1.170951771313756291e-03 -3.933872457205874196e-01
9.808351709277722541e-02 1.200073427609476828e-01 2.097257203330573638e-01 -4.456740073787713837e-04 -5.532421357295742945e-04 -4.507072906213009933e-01
1.067668478849059799e-01 9.737014693647852437e-02 2.099038137270060611e-01 4.939561269100012104e-04 -8.563084026940796485e-04 -4.766770353211139399e-01
8.019980670504542331e-02 1.636096022649168383e-02 2.101061400860336215e-01 1.052488786992167909e-03 -1.228611955373840698e-03 -4.460224767732451912e-01
5.262671281801051260e-02 6.559912282079340129e-02 2.103130975116987988e-01 -4.184292338225570210e-04 2.302134464485948082e-04 -6.209494702708789893e-01
1.378900811893034317e-04 1.126477304945268376e-01 2.095233637389564696e-01 7.453559533105050348e-04 -1.334879345845722256e-04 -4.745234717546705228e-01
3.059869789305772608e-02 2.914454425696560297e-02 2.098969118405026868e-01 1.349773927044568085e-04 -1.772545453700238340e-04 -3.577920999277292569e-01
-3.318225483382095803e-02 6.973572687867445052e-02 2.102249913690114602e-01 2.892354757704145387e-04 -5.304401513814059697e-04 -4.745040116389073748e-01
-4.720410799993583761e-02 1.649260853821154019e-03 2.096617658631959591e-01 1.524267017703128887e-04 6.242939023420278875e-05 -4.061498423765724786e-01
-3.735781712477058425e-02 1.209043399300855776e-01 2.097746185385326312e-01 -9.642277291621028854e-04 8.308355260228610486e-04 -4.718967213780403402e-01
-6.738428526265370644e-02 1.594961150370854674e-01 2.102812133364413416e-01 -3.826833365963914742e-04 -4.686290617667187355e-05 -5.218543436194926777e-01
-1.003367502276294315e-01 2.191810412824986010e-01 2.095313525583015757e-01 -4.741676962519979525e-04 1.329022291139860716e-03 -6.549436102533144899e-01
3.676006762065045508e-03 1.876445017776531554e-01 2.097663565024621701e-01 6.180536253687347967e-04 2.045151631160077588e-03 -6.271862173052161760e-01
-6.415857662291708785e-02 2.081324805791686383e-01 2.093344645052271358e-01 1.918170261862910879e-04 8.058715399837675488e-04 -5.452399491055840430e-01
-1.036925359790292905e-01 2.932185321890580787e-01 2.098490111304474048e-01 -6.517736655153073550e-05 4.980340814003284900e-04 -5.280451785113675633e-01
-1.102574964215581321e-01 2.746573699296045445e-01 2.092516964571457527e-01 1.745599618661504426e-04 2.406932615526267733e-04 -4.853388469040296194e-01
-4.464575359624607664e-02 2.711165603411280767e-01 2.097158995761003730e-01 -8.834216673888002950e-05 1.449077277020274345e-03 -4.616230901998042979e-01
-5.418014918891864151e-02 1.993306520583459918e-01 2.101189135117507156e-01 2.577947582907070732e-04 -9.138940084195529257e-05 -5.483847159600969690e-01
-2.980373103154441636e-02 1.576156694694553773e-01 2.095543832205173373e-01 5.850108976467183067e-04 2.029513130037858290e-04 -3.981926770037659824e-01
1.507116837886453981e-02 2.132974131691227904e-01 2.098140592961061923e-01 -4.118893399253095527e-04 -1.505195289485066856e-04 -4.008989588312820707e-01
6.123323588795630268e-03 2.823453662603630510e-01 2.092371625017084291e-01 -1.978655554742614537e-04 -4.247378161607034291e-04 -4.162267595584970281e-01
5.228971671781972724e-03 2.676368335048047720e-01 2.098065260399180620e-01 6.507922723592721517e-04 -1.607974645231733356e-03 -3.079064954768415685e-01
3.969480817628791292e-02 3.306895474127467538e-01 2.100755197778015892e-01 -1.271742375854616387e-05 -1.019324436577634992e-03 -2.732526270311132488e-01
-1.382834292276920694e-02 2.526793592431477720e-01 2.094414262428344609e-01 8.744457877504042487e-04 -1.830164003000718824e-03 -2.581388010701747837e-01
-1.530079007390805837e-02 2.622768730645732016e-01 2.099960044855826435e-01 3.479869717396822629e-04 -2.185291695395918162e-03 -6.773860094883431271e-02
-8.152229614255977752e-02 2.138386875989723712e-01 2.094107016450338365e-01 6.884034149322489082e-04 -1.397796335423431412e-03 8.119669785133825507e-03
-8.358106556091299266e-02 8.333520065191875326e-02 2.098362104784475823e-01 5.346106693604195555e-04 -1.003419477023049936e-03 8.433831987708359512e-02
-1.006777067740451392e-01 1.785923661035853371e-01 2.093964764851595217e-01 -8.443953162460610855e-04 -3.040513279836693644e-04 2.325340898357522723e-01
-7.990722786903360630e-02 2.240918327026799328e-01 2.099636297650517291e-01 -4.467066059344295325e-04 -6.695154511301103489e-05 -8.290631189674596557e-02
-5.232760515013348823e-02 1.836537938109806811e-01 2.093411451885588970e-01 1.998017670951042924e-03 1.229766404731953656e-03 -1.332327024832504758e-01
2.076853725873737191e-02 1.729947473993862506e-01 2.100708920382912126e-01 9.771453088855447562e-04 5.288993286300384305e-04 -2.668408268431856634e-01
1.059032554334647658e-02 9.192339365463308987e-02 2.095872999151047189e-01 5.028111203287479770e-04 1.322499122938462562e-03 -2.685661419662190297e-01
2.505791336985210144e-02 5.927077469113491842e-02 2.102747904638295195e-01 4.157778898091786372e-04 3.058065241047410441e-04 -2.865029349418346527e-01
-1.463676856678364745e-02 6.747876395760907253e-02 2.096749709176198850e-01 -1.695800853281517024e-05 1.049068889445763141e-03 -3.395943538667085537e-01
-4.329742558617855758e-02 9.077977243749191238e-02 2.101956139860360340e-01 6.700503798599965360e-05 7.476447810962937642e-04 -3.311923547515047139e-01
-4.761977571008345345e-02 7.488657172587458166e-02 2.095834223318724931e-01 6.132954168288713617e-04 1.227666537156898909e-03 -2.258787314414101299e-01
-1.003408683002379315e-01 1.018699163233743044e-01 2.101015102957525804e-01 1.467789771907321099e-04 1.261371443380883070e-03 -6.152609887034846681e-01
-1.030239807925039108e-01 7.218870907742741538e-02 2.096096133228537162e-01 7.869805677043417648e-05 1.044356874283799627e-03 -5.020251686081264042e-01
-1.771619249602054413e-01 5.302505373439653225e-02 2.100569478113464839e-01 2.054568861141450788e-04 -1.027137364250774578e-04 -5.805142556343021454e-01
-1.496587995713709596e-01 4.445893158972752390e-02 2.095481115346816137e-01 -2.433779232290406050e-04 1.376208376285189931e-03 -4.359933233117029849e-01
-1.822486701448821633e-01 1.102085278093855314e-01 2.102465823027279135e-01 -6.728063639883282701e-04 8.270305133279995478e-04 -3.951213438194856598e-01
-2.404363717332031469e-01 2.414591377441399622e-01 2.094849153147936294e-01 -3.774562193389859651e-04 1.623937603651185455e-03 -6.262840962194362593e-01
-1.737405159714301983e-01 2.481611030352090519e-01 2.099913580347670949e-01 4.885355310119322446e-04 1.298546921709836091e-03 -3.465169016854650064e-01
-1.541024469871534186e-01 2.312048690174116905e-01 2.097590827248962952e-01 9.569455920477236790e-06 7.242580323143415003e-04 -3.603018233199412612e-01
-1.385934825935470349e-01 3.307829514390440151e-01 2.102497142198231916e-01 -8.140124678726712412e-05 8.799500069571975164e-04 -3.434981720774645253e-01
-1.001237495186331344e-01 1.942340904664296153e-01 2.088772557998535007e-01 1.057495268352519335e-03 5.682578640672709307e-04 -1.351952246629667398e-01
-5.711012722873073932e-02 1.843029869231519180e-01 2.095471927063535245e-01 1.308583378815260617e-04 4.985379312458426606e-04 -2.067425093949220027e-01
-1.185415429399811968e-02 1.591607618030186355e-01 2.101732646137075000e-01 9.471648049011005370e-05 6.429905317260113066e-05 -2.093688678023463146e-01
1.158242422595052307e-02 8.775791799008522687e-02 2.089870719459224202e-01 1.131731652473111534e-03 6.927774469895530080e-04 -2.269328924114286106e-01
4.781221735817551416e-03 9.194606277397787686e-02 2.094765085199164489e-01 6.067823337500510253e-05 -3.073265414479331653e-04 -9.458684743007057805e-02
-5.388167880372981416e-02 9.865863618609049812e-02 2.101023935530977882e-01 -3.799940173055779040e-04 -8.248033945873076362e-04 -1.177964639048551670e-01
-5.052383397595523740e-02 6.424154437319568034e-02 2.107295949800000456e-01 6.885691042877248454e-05 -5.383866077126695394e-04 -1.275949754756295906e-01
-1.208062667597704642e-01 1.332741112728366706e-01 2.097252930476637411e-01 -4.529134045410511758e-05 -7.401615763092407032e-04 -1.736959228393426813e-01
-1.041578213921851848e-01 3.362726199064244859e-02 2.103703821376701200e-01 2.292548876183212619e-04 -1.011982766945843234e-03 -7.753070839404352377e-02
-4.591375039362836918e-02 1.683418270867310246e-02 2.091800702463887385e-01 8.686629941246947536e-04 2.194534284939312155e-04 -2.053305541162671888e-01
-9.248200707914605578e-02 1.785398865695182746e-02 2.099866384210654080e-01 -1.956755200254155371e-05 -4.310155676400047493e-04 -2.332047808476742645e-01
-5.170956347336096159e-02 1.694834120047412560e-02 2.105619346903952471e-01 1.114341708240135893e-04 -1.407377276550734990e-05 -2.978374319517327895e-01
-9.311567901548753468e-02 3.288363080030556884e-02 2.099455883217674623e-01 -5.798717827685455437e-04 -1.795795772814876370e-04 -2.838516350063218785e-01
-9.829503407095431522e-02 5.111627389070631799e-02 2.104447058943743620e-01 1.749570827536517219e-04 8.166117493567251481e-06 -3.255200219409873919e-01
-1.455943780654251618e-01 5.418531780000570425e-02 2.099070261327931619e-01 -6.513745511773708086e-04 -1.716395378477631947e-04 -6.139681296092047019e-02
-4.859048732113018659e-02 1.218835670892683271e-01 2.103524236470015740e-01 -1.796872387317704524e-04 3.822063478013300059e-04 -4.072103683014331454e-01
-4.192152369224798336e-02 1.695172543656314756e-01 2.097858012014701123e-01 -2.093516233136728474e-04 -6.533296091316889015e-05 -5.287204500975795085e-01
-5.150518498347707308e-02 1.459270926446790129e-01 2.097518335665972677e-01 1.180901664159347733e-04 -7.689763074020373828e-06 -4.155786715355280214e-01
-1.384612147988423594e-02 1.640103845396585214e-01 2.096345751590608653e-01 -2.472996552504358044e-05 -9.541844389378525471e-05 -4.270130320919300893e-01
-5.322574577016994657e-02 9.755634047362854444e-02 2.095277717391959560e-01 3.114662741565948217e-04 -3.925763292220807530e-04 -3.104914460361808404e-01
-2.178276737113574515e-02 1.165945936082160156e-01 2.092572966106896470e-01 -4.590978034514364979e-05 -1.945596158766374679e-04 -5.367685062739062651e-01
-6.001269790082121997e-02 1.055473766052978102e-01 2.103134949595645842e-01 1.889107350699478413e-04 -4.258795707819067037e-04 -5.187473862700588967e-01
-2.780612112495361998e-03 1.673129540467552800e-01 2.100352782957198294e-01 1.766942968953260859e-04 -2.857302678884769622e-04 -4.489309586966822585e-01
-7.781567980193854206e-02 6.468753339748206654e-02 2.098188537072988580e-01 2.526871543519355044e-04 -4.889626284200458304e-04 -2.575920141502205940e-01
-1.955278256646177798e-02 1.562997790651408231e-02 2.095250960467017198e-01 1.271731968188416983e-04 -1.363056764909828912e-04 -2.708510222550816193e-01
-3.368418899168833941e-02 -3.046410629928542751e-03 2.102249026199894955e-01 -8.624841950614476574e-05 -3.855006396369448427e-05 -3.943730436542353668e-01
-1.438229558750270254e-01 -9.422812351033990966e-03 2.096905889739516526e-01 2.424076432448233511e-05 3.730222812514500476e-05 -2.575354290817520875e-01
-1.543634982434110292e-01 -4.506171055233862410e-03 2.102740265423824750e-01 -1.399941919057475881e-04 -5.973345238281063359e-05 -4.104036390266341816e-01
-1.848195176868354106e-01 1.232519980446041170e-02 2.094320251089607510e-01 1.357703005203246451e-04 -2.806391944778637254e-04 -5.495684666569280452e-01
-1.946479041781407071e-01 5.773443126018777682e-02 2.098012123542911667e-01 -3.389546894767420375e-05 2.219850830682178163e-06 -6.157174269879797102e-01
-8.795838318299267766e-02 1.289072454282242652e-01 2.099685683222294874e-01 -8.586473189252158064e-05 1.052199943696011282e-03 -6.465438173124882226e-01
-1.079952617754211253e-01 8.363356856782816484e-02 2.103611649656919047e-01 1.005508265359504318e-04 -3.667100493135737500e-04 -7.168587214427702969e-01
-1.767769213363680758e-01 2.017806230007373330e-02 2.094475162371454147e-01 3.910973939098285560e-04 -3.271186982330107919e-04 -4.765688178505677053e-01
-1.481199521861493729e-01 -8.083806165697191015e-03 2.096042758181297372e-01 2.775741612550579134e-04 -8.350704389893105187e-05 -4.423291461273924363e-01
-2.069868278597082334e-01 4.161593424667964225e-02 2.097904438085249623e-01 -6.946987374522823678e-05 -1.993623489604151361e-04 -4.995359915780219207e-01
-1.351297554387150823e-01 -3.506051199411772817e-02 2.098806238745508090e-01 3.499005617220170392e-04 3.870335828656330432e-04 -4.556425781365439631e-01
-1.292386206336574861e-01 -3.951845999893295602e-02 2.101850154919170932e-01 2.859796596227191581e-05 -1.828352610103959480e-04 -3.831530743190194044e-01
-9.431808987357204188e-02 -5.055660320889061865e-03 2.103940633069808497e-01 9.095255120270087949e-05 1.417360300180179374e-04 -3.361335393202894983e-01
-9.874536014726731370e-02 3.507146571182021000e-02 2.097718185972243243e-01 -5.753190481867303206e-05 -2.317003279228884631e-04 -3.585375312038917572e-01
-4.226083427897001088e-02 4.372458802288529955e-02 2.103223956335773526e-01 6.860743910047253740e-05 -1.120939087999450333e-04 -2.815156310322201594e-01
-6.992256999556260844e-02 4.456650752431548512e-02 2.099061584600801500e-01 -5.704592647264376104e-05 3.876389729336959881e-05 -3.755647372418900454e-01
-1.090474376945864826e-01 1.006020496742708187e-01 2.093233286274488458e-01 4.596786014767873885e-05 3.206311509554582982e-04 -4.613829469777162018e-01
-1.150251074499325787e-01 1.399916821709323023e-01 2.101632028419561093e-01 1.224210893501421929e-04 3.002171713510836878e-04 -3.609527318580185162e-01
-8.858196574362574294e-02 7.413613488440927435e-02 2.097508809698506171e-01 1.955614911889738466e-04 8.861761939876254632e-04 -1.788316591075373441e-01
-1.078524616215776333e-01 1.396284087940149465e-01 2.095781950899785473e-01 -1.631151330913315205e-04 5.796279942382944351e-04 -1.634689881635909003e-01
-9.819987996511404804e-02 1.760258554163110223e-01 2.093050661765148979e-01 -4.425334374988384297e-06 6.751566687794290783e-04 -1.590401121125919470e-01
-2.165859057359870443e-01 1.509615401094056841e-01 2.094570471477894547e-01 -1.182565780834374025e-04 7.169250114232508927e-04 -2.217560349325852498e-01
-2.042179053372939757e-01 1.504979943999617542e-01 2.096493645401668604e-01 4.221118846752983073e-05 9.699598712322490520e-04 -3.067170213304873383e-01
-1.927970553376548157e-01 1.577450037737752053e-01 2.098564126698251875e-01 1.439160185700320163e-05 1.108199223351277393e-03 -1.916747514895476567e-01
-1.149983301301398947e-01 1.812436300556135305e-01 2.100315480746401398e-01 1.105150625086554460e-04 1.058338431421413164e-03 -2.426173040260674041e-01
-9.665452480208208685e-02 1.718828868292550660e-01 2.101905933045863928e-01 -4.442903090627918825e-05 1.061620674840597781e-03 -2.546903902280283072e-01
-1.533871520914988906e-01 2.001657267398934681e-01 2.091774915689856851e-01 2.079059334394132302e-04 3.056390161831363389e-04 -3.057083533553399679e-01
-1.018121146527000420e-01 1.348840971383415965e-01 2.092939957574415644e-01 8.990041877330255096e-05 8.150713099944613101e-04 -3.314692508921638914e-01
-1.388290134576778967e-01 1.014649789033440358e-01 2.094273060584367907e-01 -6.203071776092806496e-07 7.659719169977114361e-04 -2.685589189153487211e-01
-1.197763268388561397e-01 1.214648233184387471e-01 2.095637405106078321e-01 3.066041279439561776e-05 9.007009728609980791e-04 -4.219540542198277899e-01
-1.236459209974028611e-01 1.341783937614942079e-01 2.097757968078334812e-01 1.041462271408813146e-04 7.889749084582091702e-04 -3.561241957738713326e-01
-1.191706704540286821e-01 1.195247769615861155e-01 2.100382534591294648e-01 1.419303175463527023e-04 5.917303318766611907e-04 -4.159305099446171106e-01
-1.423370560935670603e-01 1.467788478499900129e-01 2.102681724569936961e-01 -1.303057739353373056e-04 7.015457208577583923e-05 -2.870056587835124184e-01
-1.373883778076545881e-01 1.454315280666672872e-01 2.105724533024849188e-01 -1.855186744356180522e-04 1.297698305750094420e-04 -2.765593300761028384e-01
-1.279454767022405459e-01 1.595556784424575769e-01 2.089507546889349809e-01 1.939458967057160557e-04 2.184232358760191078e-04 -2.857082962414857485e-01
-1.037206060733480290e-01 1.997345998300935899e-01 2.091576995270715833e-01 -2.224254415302167926e-04 -2.388154349953490907e-04 -2.589419674185565179e-01
-1.203478567158811213e-01 2.639861055695318925e-01 2.094932780815165207e-01 -1.100640941415705380e-04 -5.645865192785985871e-04 -2.956812934379306479e-01
-1.046781181707794744e-01 2.716276448656374520e-01 2.097377295509567086e-01 -7.699020966836263443e-05 -8.301931095916160672e-04 -2.212271969053693776e-01
-7.456897718883070958e-02 2.347333279209930235e-01 2.100785092767122331e-01 2.383761669245378003e-04 -9.367560227136002751e-04 -2.629234811702896302e-01
-3.148642167495276090e-02 2.174793265803932063e-01 2.103263160612774962e-01 3.156423353712866611e-04 -5.608672595398015923e-04 -2.152095555345344968e-01
-2.910971556163583981e-02 2.035589937339393751e-01 2.106957904035607343e-01 3.100419092686506565e-04 -9.362172519201975235e-04 -2.250993426065951708e-01
-1.222746999347726904e-01 1.430336500092908025e-01 2.091047301821672422e-01 7.323053885434054468e-05 -1.336137668104100517e-03 -1.283928847924717398e-01
-1.049877520642209378e-01 1.317023279419046733e-01 2.102904911102548291e-01 1.186517894752907505e-04 -8.805508157442304288e-04 -3.886977092357384034e-02
-5.531859438398712553e-02 1.700438748421240487e-01 2.096678033998276569e-01 -4.171239547884337379e-04 -8.769944153924826447e-04 -1.960893903984386177e-01
-3.328822116644041679e-02 1.016019487651580594e-01 2.099419811113640844e-01 2.372291267204142606e-04 -9.373209487657289084e-04 -2.715407883086066176e-01
-3.578684701673393032e-02 8.540424124764879610e-02 2.091645976366041104e-01 9.715149968642974171e-04 -7.093993453631243723e-04 -3.654554938655218965e-01
6.776560132533242242e-03 4.739825901600612512e-02 2.097224170580679337e-01 -2.503168792255336535e-05 -4.748959113897699945e-04 -1.742191659643285706e-01
2.621397212292099835e-02 9.346868841690503249e-02 2.099731812919818363e-01 -3.224177021660202874e-04 -2.318536087858019256e-04 -1.905009757227135170e-01
-4.382656844483329150e-02 1.207431804147478110e-01 2.103799268727120086e-01 -5.536196847887479367e-04 -7.805112988689739571e-04 -3.467476974381045740e-01
-8.326072790882432795e-02 1.552617168383109147e-01 2.098476108739017465e-01 3.442758974678364358e-04 -1.313226245108237980e-03 -2.947629312521208855e-01
-6.777799748977021699e-02 1.312353918951624510e-01 2.101779675148465198e-01 -4.311755213200488898e-07 -8.218005908754730336e-04 -4.286525105873658648e-01
-6.294930890092551024e-02 7.868611314095746989e-02 2.096057387463563515e-01 3.322479589431331037e-05 -1.879180867028455802e-03 -3.355400744701895199e-01
-6.180423283437880277e-02 2.624755128871629137e-02 2.100925805626731036e-01 1.998652917403787878e-04 -1.249258250108000769e-03 -3.144374014265024497e-01
-8.662377105993482318e-02 3.625586545093565510e-02 2.094492708056521768e-01 2.923195312192716192e-04 -1.710656198404478029e-03 -5.844959864100406355e-01
-8.198272006800050304e-02 9.436847369457787571e-02 2.098669628563758494e-01 2.911690811389523043e-04 -1.177732186755865241e-03 -4.432291111563291253e-01
-7.471554095367022308e-02 1.697242997506933637e-01 2.104034787139579255e-01 -7.230776616878946102e-04 -8.719901916900339679e-04 -4.875399683949248608e-01
-5.029486404650582859e-02 1.399867678154171624e-01 2.097253098162639162e-01 9.462461368237117367e-04 -1.024886095457361009e-03 -3.822046078868371333e-01
-9.027276018150447168e-03 9.984205835208763424e-02 2.101624430426380363e-01 -3.294882262768981658e-04 -2.242722692787660842e-04 -2.335402627361674865e-01
-4.270541263023154566e-02 7.880976713808698908e-02 2.094266091884189329e-01 9.235262625264103672e-04 -9.754426059764763303e-04 -9.499886177286068559e-03
-5.036865573470702961e-02 8.824444110867307733e-02 2.100077608817546571e-01 -5.277295479156838545e-04 -3.493455451167412802e-04 -1.302999308392434052e-01
-1.677628299292655556e-01 6.621804516484440517e-02 2.095417256979281717e-01 -2.983907569355006553e-04 -1.088689904731928587e-03 -2.302188846876897788e-01
-2.017791760574579596e-01 1.041938224407145536e-01 2.100063152606237993e-01 -3.336146193383278911e-04 -6.762123635772959111e-04 -9.534731625205382366e-02
-1.742395894840980675e-01 7.442824466210995471e-02 2.103120982786891302e-01 -3.191992319353761150e-04 5.126317762108946506e-04 -6.839530293293369367e-02
-1.846166635643947396e-01 1.145229466294400700e-01 2.095100229214611476e-01 -3.677030212885645929e-04 3.619022837803622110e-04 -1.569573395523217729e-01
-1.314054692153547588e-01 -1.879751760412904510e-02 2.101029157051107488e-01 9.254622128339017040e-04 5.605720222280237419e-04 -1.142792059111812641e-01
-1.316810870272719924e-01 -2.777724567137632855e-02 2.102403091508490696e-01 5.505748106607548506e-04 1.205037619084843017e-03 -9.501573663947644743e-02
-1.252057394586952588e-01 8.993119560784100519e-03 2.094489406253203234e-01 1.031209525932157579e-03 9.318906866879837075e-04 -3.045778884594524220e-03
-9.501454606573229988e-02 -2.739737624004106795e-02 2.099067510367833012e-01 3.427254198634586664e-04 1.636863189949751577e-03 -1.341149479210148598e-01
-5.313087444906113010e-02 -2.532804795734998338e-02 2.103265230385123474e-01 -1.338907677906442753e-04 2.375934002163179043e-03 -6.368320964310058251e-03
-5.813443596729278573e-02 1.029153792959669328e-01 2.095830733497402454e-01 -2.062368298138239110e-03 3.690887353972907526e-04 -3.765628153049954130e-01
-7.585643846614149866e-02 4.807333781422774843e-02 2.097549849522653553e-01 1.373474873725755553e-03 2.493310071762815192e-03 -2.997673466414056409e-01
-1.490556024799817303e-01 -4.084248244941308947e-03 2.103318025582561757e-01 -2.089569429336412393e-04 1.752054555924852444e-03 -3.512699117002064941e-01
-1.763184412416546887e-01 5.075781807718809935e-02 2.092936734589949110e-01 -3.417524264190571726e-05 2.037960987796779821e-03 -1.475546616827771718e-01
-1.565805623983387018e-01 5.141374938234780784e-02 2.097619048988486057e-01 -1.130756382332721784e-04 1.747336158930928472e-03 -2.777468382922073098e-01
-1.175879227356509682e-01 8.491009243100802739e-02 2.102431944596033220e-01 -7.880572029144214787e-05 1.297618146732516494e-03 -1.678293132900703089e-01
-1.230093635375926336e-01 5.421872968907945345e-02 2.093946065808847679e-01 5.582622622555545285e-04 1.396355506318619141e-03 -4.197466398370272023e-01
-8.088719575667729922e-02 5.721993644377479371e-02 2.099693791012320898e-01 -3.431504675163073712e-04 3.926309592482662004e-04 -1.671323361265032448e-01
-5.807835840178084130e-02 8.266635540428129980e-02 2.101946722742356610e-01 3.842867554206391961e-04 1.042707191754458154e-03 -4.816011090099786562e-01
-6.454465949694386528e-02 1.552274104633250690e-02 2.092686949291776011e-01 2.638352946209527889e-03 1.556037965584500943e-04 -2.023222477352753235e-01
-7.533557674225387080e-02 -1.625764735819286086e-02 2.097383211179986162e-01 3.598381732726471183e-04 2.409023372945220433e-04 -3.061942132780615111e-01
-1.003171954316633974e-01 7.169618201570560068e-02 2.099735532727434739e-01 -5.595122417795332084e-04 -6.679487542502494110e-04 -2.597546983007192334e-01
-1.329605519901288224e-01 8.314713334450123117e-02 2.104146661332142454e-01 -4.177634832290656806e-04 1.003287947100861961e-04 -1.579251742663587421e-01
-7.277991193728834685e-02 1.184377988719509667e-01 2.093294324221173786e-01 1.716508373488376184e-04 -6.918328027758879461e-04 -3.543838560061673276e-02
-2.702852390487547538e-02 2.569503840615152690e-01 2.093466268773144789e-01 -1.171336974388281467e-03 -2.221596434614302553e-04 -2.026048252452873066e-01
-3.442229765950891029e-02 2.774208071223997485e-01 2.097672611857024916e-01 -2.816173155580606227e-05 -5.157424126522800996e-04 -4.114399644918512178e-03
-3.120513256660910686e-02 3.248486108322990451e-01 2.102044004970802238e-01 1.850429914487387623e-04 -1.426932726996134196e-03 -2.516080095416856621e-01
-1.255494655561343043e-01 3.287155358629429980e-01 2.104227319289070364e-01 -2.191613307562965084e-04 -1.220405130894779535e-03 -6.893259254960615312e-02
-9.564638210405111696e-02 3.425107966475018362e-01 2.091578960936236742e-01 1.799496560065908673e-04 -1.095774492038376936e-03 -1.318497889866701578e-01
-1.738221243620418910e-01 3.286247891282686462e-01 2.097043469244611047e-01 -6.963558895410225033e-05 1.457278943904360166e-04 -1.919977412012298934e-01
-1.681356551029165036e-01 4.342381972168365967e-01 2.096996171606663184e-01 -7.125624967994562001e-04 -3.188750911468987703e-03 -3.040028192829319353e-01
-2.070525546740803191e-01 2.943353929785912371e-01 2.099799228941726104e-01 2.225593085836988715e-05 -2.562419486616968316e-03 -6.061598772387831735e-01
-2.317792001640917032e-01 3.913112918988601585e-01 2.098073099016769527e-01 8.456402797946794376e-05 -7.484079277130943663e-04 -5.135516125847588986e-01
-1.787152685432036592e-01 3.530298859404844558e-01 2.102214487908281582e-01 3.553003769548986274e-04 -5.775723175390417652e-04 -4.150137435349554593e-01
-2.982058731762903259e-01 3.011225716904445404e-01 2.088282890570911099e-01 1.388801855256565710e-03 -4.435411317819791966e-04 -6.741917496021584411e-01
-2.984886457105522806e-01 1.986910164769918608e-01 2.092286063507410310e-01 6.558704440452150066e-04 2.648072890174684601e-05 -6.681938197983230410e-01
-2.813602793888830833e-01 1.734560774699197006e-01 2.092477866931055641e-01 8.295805316152782022e-05 7.666362181427788074e-04 -7.471056474681895265e-01
-2.319103802376928092e-01 1.306896184759068769e-01 2.094250695677667418e-01 6.212651381000256867e-05 -3.363936988855814494e-05 -5.870366786143077498e-01
-2.923546852898694093e-01 2.101193948129955191e-01 2.095671221739140999e-01 -7.355181014770192796e-04 6.758692652277921518e-04 -3.812888594749891946e-01
-2.547173830271225459e-01 2.047626348761665549e-01 2.099785734696798523e-01 2.389165026339811089e-04 2.180187882355659012e-04 -2.914586805241883294e-01
-2.859338230153912197e-01 1.491275191951761947e-01 2.101421430957198799e-01 1.552930609373247988e-04 4.090860540908853823e-04 -3.045330587023914459e-01
-2.052728716601890380e-01 2.052810813941587931e-01 2.103450276999326296e-01 7.455750359139270544e-05 3.993378284531548614e-04 -3.105856130414302863e-01
-2.291148073776294036e-01 1.291530336928188305e-01 2.090187286287545354e-01 6.845206712911777952e-04 4.927198150977895805e-04 -6.255753125470014941e-02
-1.371243053400172107e-01 1.298787413580490546e-01 2.093272458313889528e-01 -1.100069525046749907e-04 1.223486849555183121e-03 -2.035221914026648926e-01
-1.032445222038546467e-01 1.486390975930797775e-01 2.096116051822131676e-01 -2.506940508201590439e-05 6.908759769304845082e-04 -3.313803778525425403e-01
-9.339310331589761871e-02 5.553504431501624095e-02 2.097983247875813140e-01 6.492472423260207265e-04 1.082753676385423032e-03 -4.906611711132950471e-01
-1.038856112057006814e-01 6.768098726085215733e-02 2.098338523361281682e-01 6.197411838669607612e-04 2.938878122628686197e-04 -5.819514829152225843e-01
-1.067605526428619805e-01 1.429472696353938921e-01 2.101001340631010184e-01 -3.475658313521065514e-04 1.085608775727068360e-03 -2.556158063486917431e-01
-7.177085306216045291e-02 1.873148035795010324e-01 2.101785497448686590e-01 -1.810224310403357783e-04 5.797037242735132235e-04 -4.467114718727434597e-01
-6.546970528490912711e-02 2.291371968711036489e-01 2.102441383259652241e-01 -1.922890020443195492e-04 1.350824524901035866e-03 -3.259095083504208179e-01
-1.065921294430560440e-01 1.481048139250120965e-01 2.093258778799808595e-01 2.369652392450748418e-03 2.868491268656692193e-04 -3.304057174359755211e-01
-8.950784108832771091e-02 -1.942772525461188698e-02 2.093586663119162417e-01 9.358514270452492284e-04 6.269144315458905024e-04 -1.958535261483967116e-01
5.828419559912693948e-04 1.295517769014964959e-01 2.092403983329402806e-01 -5.395020183441443179e-04 5.469905821411289414e-04 -2.642829349675124839e-01
6.621302465658203407e-02 2.072330695160438385e-01 2.094265552017995913e-01 9.806329510573449915e-05 6.314154483378493473e-04 -1.571358735311096377e-01
-9.878391014938701573e-03 1.956233305360025876e-01 2.094601234334115825e-01 2.722579343349210970e-04 7.658608586494971421e-04 -3.343427687220689726e-01
8.234433527340412340e-02 1.668772782478404326e-01 2.097034915052712334e-01 2.248453406414376303e-04 2.535133696835114203e-04 -2.764843198453983408e-01
1.016803181773030529e-01 1.895444414016064505e-01 2.097802584791599312e-01 -4.474348644216367813e-04 3.143193313874528762e-04 -1.537534844855081295e-01
7.071975241272326906e-02 2.526648528697610918e-01 2.098699505506755880e-01 -4.011359408133911554e-05 2.842012203707256672e-04 -3.786400416553023941e-03
7.819154019981681969e-02 1.847159360584843812e-01 2.101439358378393574e-01 8.818008510173286222e-04 5.653019937663089628e-05 -3.968659051141757987e-01
6.825735506609474645e-02 1.235171834189480733e-01 2.102791371105759977e-01 6.739087332364212049e-04 3.973120919162803936e-04 -4.103157574101124472e-01
8.025349323500068077e-02 2.085620761777814136e-01 2.103413020131522093e-01 -3.491063097851670430e-04 3.788053088402687507e-04 -3.321185364380765392e-01
-4.189817616615715279e-03 1.331811077898820417e-01 2.092402393603713939e-01 5.903367334522651843e-04 2.095496994219169580e-04 -2.919183144539678754e-01
-7.639605439368146733e-02 5.525493200666957427e-02 2.095298691564551063e-01 1.143553439239329214e-03 3.729052377908421739e-04 -4.380256828990526929e-01
-6.230111964086426646e-02 1.706066656894488290e-02 2.095822766131933967e-01 2.796463530670954562e-04 3.261780836636400281e-04 -3.876082723119390061e-01
-1.042243803367371158e-01 3.781342819455210669e-02 2.097425612122561511e-01 1.414216240600404976e-05 1.426456909572981866e-04 -3.864681654384619636e-01
-8.726396503288996742e-02 -4.588373841408963094e-02 2.098585233594361110e-01 2.840582656937892998e-04 8.658846581544815766e-04 -4.528452358798753519e-01
-1.411217208805647105e-01 -5.969433207134259428e-02 2.100637117848961344e-01 -7.432323194343930994e-06 8.590901860614140679e-04 -2.384951889663450009e-01
-1.447237192949576423e-01 -1.101370421389213407e-02 2.102139693339819537e-01 -5.057070411979641906e-04 5.927879482469165361e-04 -2.839149618308160483e-01
-1.514107131039266751e-01 7.576224198792577691e-02 2.104311700261427553e-01 6.863005730493493858e-05 7.215192019039527596e-04 -2.024426536860238490e-01
-1.430939236819311067e-01 2.219569913302439287e-02 2.095157434428845389e-01 2.639393937616600866e-04 1.277412186635418397e-03 -3.912820125803164184e-01
-1.320290134300109997e-01 -3.971497510711651663e-02 2.098106041835069435e-01 -1.050307178737180735e-04 1.167363777697852118e-03 -3.743222801007402567e-01
-1.168222157822473295e-01 -1.228567200288799288e-02 2.101027447464055009e-01 2.502989029557016725e-04 7.537142410707371037e-04 -1.686737768990679009e-01
-1.581043200398512052e-02 1.358182830604602945e-02 2.103361358733001341e-01 -1.517194783413105196e-04 1.056175222018222292e-03 -3.884932168572615141e-01
-8.944749413253266779e-02 2.412028644378239051e-02 2.094615240883475615e-01 2.425154512631376208e-04 6.608640195549951492e-04 -3.879378248990657529e-01
-6.316604431807656961e-02 4.210356568674095828e-02 2.097583238638612846e-01 3.316176302686180914e-04 7.921869075618211131e-04 -3.041388612310975126e-01
-2.310721590705702363e-02 -4.630590909127874077e-03 2.099214280586541026e-01 4.562714729185981719e-04 8.307452936766846711e-04 -3.818960635236010037e-01
-4.752162105326371289e-02 5.112476862471335148e-02 2.102046795345515195e-01 -7.195080488814311530e-05 9.536812580514403834e-05 -1.758023346216740224e-01
-3.188106868618710565e-02 1.973848079017140322e-02 2.103752482294032333e-01 8.787382142273035932e-07 1.115721225913406925e-04 -9.161807289923826203e-02
-3.805175623317239020e-02 7.125271548300533830e-02 2.096448908495816554e-01 7.843906081085629859e-06 5.206523490468305710e-05 -3.156829979978318379e-01
-3.694307525721506058e-02 9.593138003329362840e-02 2.098373221388133425e-01 -3.931135576657146611e-06 2.504000045159494783e-04 -3.792294969580523589e-01
-4.554520036572540925e-02 6.579041692644496675e-02 2.102136993829639144e-01 1.934716110416902462e-04 -1.076971755105932371e-04 -3.409780289902443751e-01
-8.949994689394408232e-02 1.746876754824232825e-01 2.093075121081480194e-01 -3.222205427267594907e-04 5.394330915076025719e-04 -4.117211658327707968e-01
-8.952513323810910861e-02 1.131970277450960738e-01 2.096386134114080479e-01 3.929305811515227320e-04 3.793032162721338249e-04 -2.167159788164463308e-01
-6.243119324321863561e-02 1.473608311124260384e-01 2.101545427462051530e-01 2.109879932342910555e-04 1.784307580472265908e-04 -3.455056764986961237e-01
-4.657239013913083703e-02 1.370643871604130815e-01 2.094401238425662171e-01 2.938542406108104327e-04 2.450773072280570258e-04 -2.852860267128987659e-01
-6.611167710924834018e-02 1.725223369701602283e-01 2.100128741031745405e-01 -1.469852461028572531e-04 -4.806513185377530556e-06 -2.089283079793651798e-01
-1.816177229772527463e-02 1.801463847306388477e-01 2.094019629000719585e-01 2.484115131433339537e-04 4.574588471467223969e-05 -6.554189506528321219e-02
-8.275673820672858894e-02 1.727854276324032046e-01 2.099400780057106286e-01 3.655399947446627920e-04 -2.714211524865524534e-04 -1.966953233427836956e-01
5.095005726871321833e-02 2.068733676079752837e-01 2.092256996740834429e-01 -9.206152533660899703e-05 4.204429750599713873e-04 -1.487979922237047947e-01
4.620876681018525056e-02 2.197576059391637415e-01 2.097691311151304028e-01 -2.602950226099126204e-05 -2.958215914126287619e-04 -3.963793710090482425e-01
7.754588296085968002e-02 2.155731418363255047e-01 2.102880571314589275e-01 3.168221973360544220e-04 -9.118428231534131097e-04 -2.253704532350821188e-01
5.668448866341973397e-02 2.071077977945874338e-01 2.094165162520979506e-01 1.014450521171458494e-03 -1.698324493143382220e-03 -2.680118341711423824e-01
1.375057550037841470e-01 1.729425200523730666e-01 2.099549511836678040e-01 3.717781743010087564e-04 -1.786507129956987992e-03 -2.225503165406911843e-01
7.144765744774542182e-02 1.418670190284078980e-01 2.092923995364048828e-01 1.392905212759490581e-04 -1.757780536211812602e-03 -4.267275626762693785e-01
9.106254800089380597e-02 1.304567900200402364e-01 2.097477344355445639e-01 -2.102722701491720300e-04 -1.513068583852396776e-03 -3.922202657611421617e-01
6.968062242723452315e-02 6.253540601193546822e-02 2.102040357117881397e-01 4.209897633040993203e-04 -1.477889802821697168e-03 -2.581972106795695776e-01
2.392679580746066501e-02 1.118199571893012806e-01 2.095955518441571241e-01 4.302700068119872929e-04 8.437043444645714752e-04 -4.879952621189029283e-01
-1.780592409463527953e-02 1.749334930373160346e-01 2.099775646465696921e-01 -7.333505617877320200e-04 -1.653423559978637681e-03 -5.128532769707480066e-01
-9.362254432331013065e-02 1.981310087054421742e-01 2.096779879524420243e-01 8.755226721824355780e-04 -4.377033101847456259e-04 -4.484771324534820858e-01
-1.950177441518102101e-02 1.549753632792317537e-01 2.097741165833536536e-01 3.072126912707492594e-04 -1.217080961984491979e-04 -6.503651365168700016e-01
-4.438749895585594046e-03 1.387608803544712333e-01 2.102164472578163523e-01 2.968985322148089286e-04 -5.187241399175216089e-04 -4.530347868405241174e-01
-1.284348750129100658e-01 1.284704771490015329e-01 2.095874246301287491e-01 3.877745517386823205e-04 -9.101284789673766765e-04 -8.378714032811451773e-01
-1.324311869077545167e-01 1.155145534650509065e-01 2.095845103569803913e-01 -3.169310552691600221e-04 -3.726522068560338846e-04 -7.041831686971645743e-01
-4.972490614533170428e-02 1.816896725862237327e-01 2.099914221062967323e-01 2.497149091399599309e-04 3.250683504834210656e-04 -6.787304744967423975e-01
-7.459585818140559987e-02 2.185843894266236154e-01 2.103639081042185666e-01 -2.628002532598133940e-04 9.380164915930238147e-05 -6.641888855775143208e-01
-1.840723769237226359e-01 2.452264741759902500e-01 2.095315756862624612e-01 -1.140601613032676880e-04 3.544955059226479865e-04 -5.625461939864757621e-01
-1.404151748538923217e-01 2.018251327611998436e-01 2.099209127004194597e-01 3.622775124953903515e-04 5.747594803093965211e-04 -5.071029332812481139e-01
-1.122406552422229309e-01 1.463546228117871273e-01 2.103563677840561974e-01 1.755739200228053297e-04 3.399484263391889063e-04 -2.282625796782895566e-01
-1.603779976550045172e-01 1.900842648521520739e-01 2.093591046569593939e-01 -1.362949984855285721e-04 7.203674919251084729e-04 -1.456280800260802977e-01
-2.327011165554061234e-01 1.834043395742842308e-01 2.097858587036795508e-01 6.951316806502329357e-05 6.671942028458698439e-04 -1.723542757063970532e-01
-1.363247625782275096e-01 1.156553301854542498e-01 2.100691088928720029e-01 4.574808847074414387e-04 2.615374561497132706e-04 -3.023317407045397753e-01
-1.122163421927877824e-01 1.577947841225763315e-01 2.105569886653451683e-01 2.051923967093984415e-04 7.103827710463475002e-04 -4.059311826102875997e-01
-1.466323417756316139e-01 2.358313010540354915e-01 2.092506397176839283e-01 -3.152560006332149754e-04 1.451039180796020404e-03 -3.901565804693234440e-01
-1.067363707925708949e-01 2.573577394917591077e-01 2.095919522390660150e-01 -4.389253591035447685e-05 5.187230259818895054e-04 -3.134207989197641542e-01
-1.238517753055167203e-01 1.717923096913227254e-01 2.103697986765699079e-01 2.820494280939939385e-04 -1.488718631258768334e-03 -2.620981901012597870e-01
-6.021939545344955763e-02 1.288349532394217345e-01 2.103416212687820308e-01 -3.350230229471274821e-04 -5.451856825035674477e-04 -1.792927246019277721e-01
-1.128743567300129202e-01 1.289518809325727600e-01 2.106825351928872103e-01 -3.262508187831640333e-04 -7.632620563581005982e-04 -3.344749289994649044e-01
-4.711349393387923717e-02 1.802033960091904419e-01 2.091807936236742549e-01 1.878773398749549253e-04 3.753247797848475466e-04 -3.717421935919072995e-01
-3.328335248993465056e-02 1.705614900182172711e-01 2.094630782752905929e-01 8.228981601501233410e-06 -6.517279635667789410e-04 -1.739915292075980835e-01
1.189174423993333632e-02 2.490898928629108611e-01 2.097259599513108808e-01 -6.911936891603811270e-05 -1.163922048437722760e-03 -1.957441779772520485e-01
4.582670145244392701e-02 2.944253319471082930e-01 2.097641946722088035e-01 -4.938027302191350500e-04 -7.049202733322141147e-04 -6.999156637529556357e-02
1.532878208140213763e-02 3.187931822622955824e-01 2.100673773420991264e-01 1.394245990413900860e-04 -1.373750182942203458e-03 -4.385111732922925692e-02
4.092661280376592992e-02 3.396097906987136095e-01 2.101465477436613161e-01 5.016381601158991605e-04 -1.216521792473933185e-03 3.947626814088946168e-02
-4.539790514964510415e-03 2.059744407096916752e-01 2.102701629887734347e-01 9.185714480217625636e-04 -8.576837125867276153e-04 -1.781347684392914632e-01
3.798338082719107667e-03 2.179255540602296481e-01 2.101760012329931260e-01 1.092445537966582028e-04 -7.026798780170504487e-04 -1.771465403349138101e-01
8.043121223069348014e-03 2.245687743926198243e-01 2.100538357123974409e-01 2.791665109820318778e-04 1.963850287407450110e-04 -2.880946494680451386e-01
2.168949943630321675e-02 1.974647807834656044e-01 2.104307735548294755e-01 -5.290768450463018965e-05 -5.307894953477022447e-04 -4.000356823060139955e-01
-3.137125871151966172e-02 2.445855232522027300e-01 2.101732302562616672e-01 -8.394180176034190264e-05 6.167795284728765960e-04 -4.030272311637607685e-01
-2.291043953646345471e-02 2.248514887733241985e-01 2.102883216044663106e-01 -5.192933003984430082e-05 3.114691831208001352e-04 -3.996449937694609988e-01
-9.526201940879279462e-02 1.807780465716796736e-01 2.104944344829842717e-01 -5.704861410544540999e-05 4.833466080536874825e-04 -3.192402202310420378e-01
-1.804158317176279835e-01 2.170375030418656426e-01 2.091698766137592980e-01 2.210832029636220213e-04 1.280163300415266625e-03 -5.090694436129352685e-01
-1.537034927445162236e-01 2.436961070790027994e-01 2.097973439172863830e-01 -6.379122177689398171e-05 9.544585201319105662e-04 -3.785692142564232032e-01
-1.721436264368969848e-01 2.183011510573924230e-01 2.098742904522232777e-01 -2.677251866924681956e-04 9.028434619561330303e-04 -2.519153061200108956e-01
-1.500792233041071400e-01 2.473129992758611173e-01 2.093438775378334005e-01 1.378894422980963489e-04 7.935450240305348246e-04 -3.974182186258820026e-01
-1.682852633215464744e-01 2.230897188971858736e-01 2.096868772765425604e-01 1.369884837472557914e-04 6.907401576270482584e-04 -2.561140707472625011e-01
-1.490495294385671410e-01 1.893540737969899856e-01 2.090536395551443327e-01 8.445723316123669375e-04 7.340076941906074036e-04 -1.832865897778232223e-01
-1.099123063887884055e-01 1.686723627657538693e-01 2.096709033786723908e-01 8.395168847495365226e-05 4.713263972429148252e-04 -3.596994227914988018e-01
-1.348698376599226645e-01 7.524148272863517839e-02 2.103314695560783432e-01 2.260010189721201328e-04 3.372650921323957921e-04 -2.392149242911547347e-01
-2.166947286299858721e-01 8.351367646950143275e-02 2.090488085348156666e-01 1.777202892872264430e-04 1.381212481402640613e-04 -2.926156253192613854e-01
-1.657856901098333779e-01 4.288386470265560801e-02 2.095567867776774174e-01 2.463728849614954877e-04 9.404085574987707528e-05 -2.370703652448109267e-01
-1.327878976854268145e-01 4.462030057012184026e-02 2.101591715030511343e-01 1.170421218437808823e-04 1.546203527253725172e-04 -2.548165387918733815e-01
-1.263981101211476554e-01 8.936451574095455319e-02 2.091963267668804360e-01 -1.306993037713235692e-04 -8.006717506155504609e-05 -2.176051922442193698e-01
-1.105728072448129568e-01 2.609906141323460604e-02 2.098116475940797199e-01 9.384294735444037865e-05 -1.169641184019313532e-04 -3.303194821445224472e-01
-1.276817344528715648e-01 2.299179404671858329e-02 2.102981828472193504e-01 7.486068052694669610e-05 -6.399317984836934675e-05 -4.341246900398902375e-01
-1.139947591991309628e-01 2.726900392809049334e-02 2.096114616876476600e-01 -3.645037611378471428e-05 -9.057809860380400821e-05 -2.304909893067508264e-01
-9.171138023585730104e-02 3.225403397939108699e-03 2.100983146079732355e-01 6.058717969157053685e-05 -1.140509478365385660e-04 -3.268903026065845263e-01
-1.499071358700560519e-01 -3.022901037400522323e-02 2.105096576340444448e-01 -1.473743812519462683e-05 -9.584792378573430503e-06 -2.259671418155640432e-01
-1.700460554765341192e-01 3.112937253098265605e-02 2.099832419499320646e-01 -7.850584382096069110e-05 -3.325753344671454332e-04 -2.635820005576928193e-01
-1.347116229280004018e-01 4.231782648545701075e-02 2.097445792263356035e-01 8.291176833927836978e-05 4.663882646657094408e-05 -3.124565097167960048e-01
-1.936592624306951449e-01 9.521831438802642877e-02 2.096813275924986342e-01 -3.682862854817508326e-05 -3.258638829336116065e-04 -3.803306979748874439e-01
-1.504166333410646983e-01 1.037695081539734832e-01 2.094235086959885250e-01 -8.256672740038829047e-05 1.461420545484023461e-04 -2.308391894795852883e-01
-1.380927062119198523e-01 1.061158079184966047e-01 2.093966396339574376e-01 6.670654627276968957e-05 -3.191030622179334936e-04 -4.655644899427283656e-01
-5.035587495743712450e-02 1.819061256923378278e-01 2.101747723489296726e-01 -5.181298766792290884e-04 2.563128034066176902e-05 -3.958660326264642482e-01
-9.567658807760966166e-02 2.116710909398373808e-01 2.097692042379656341e-01 6.666939811623318502e-05 -2.945166481985243530e-04 -4.743280092274924087e-01
-8.658258459520130901e-02 2.148655508974935680e-01 2.094272430979157162e-01 8.389591172612425338e-05 -1.531494407587312911e-04 -2.737741702441391922e-01
-7.661543349760319144e-02 1.871984553428179265e-01 2.100074563744135370e-01 1.460211929916229302e-04 -3.217810076053524791e-04 -3.952387258274958071e-01
-5.513402738606181658e-02 2.179394849240390564e-01 2.092728415010918219e-01 -2.020154487649559918e-05 -6.001151564425750230e-05 -3.581742357764173268e-01
-7.216916703798655075e-02 1.981914393825386644e-01 2.097008208492310288e-01 1.067927608406489911e-04 -2.271842500344735253e-04 -3.350934167828741317e-01
-2.103428789299029850e-03 1.504279439075272840e-01 2.099563648581762587e-01 1.411028637558065359e-04 -1.468037426963753305e-04 -3.028851215352701964e-01
9.613888477035172769e-03 1.593947378638495838e-01 2.101570367031951325e-01 2.262926762144855443e-05 -4.172459245514833397e-04 -4.120705065543602275e-01
7.948308830785198731e-03 1.396220345490896131e-01 2.102576878708952712e-01 -6.699487060659040300e-05 -1.674554390376739208e-04 -3.699253726314769564e-01
-1.069793171575869270e-02 1.630114398404483855e-01 2.103696742283538978e-01 -6.774920966712864791e-05 -3.986549821145281259e-04 -3.444933632069082652e-01
-1.880917462881010263e-02 2.210782440977692442e-01 2.093843028798370587e-01 -1.860109352046950329e-04 3.919694223108739886e-05 -4.532877850499577588e-01
-3.571923394296271093e-02 2.374169143103861679e-01 2.094127368071801443e-01 -4.113993128741820162e-05 -3.027820870614842991e-04 -4.167725957523023550e-01
-2.922484236280580711e-02 2.076921209506075450e-01 2.094151365877451321e-01 6.321258076039005939e-05 -2.398022813092234526e-04 -4.831935665121903645e-01
-3.083904333923364119e-02 2.156012512863896557e-01 2.094103191154799704e-01 -7.052971077676611347e-05 -6.392221307278999134e-05 -5.169428677088647728e-01
-1.165271742725616094e-02 1.986287185507755737e-01 2.094447449026741181e-01 1.658972225890309210e-04 7.396668748383199122e-05 -4.684499018554154626e-01
-1.227745938862688339e-02 2.259988779697724992e-01 2.096250300336858774e-01 -1.432099404076130999e-04 -4.132139092186843938e-04 -5.183696732105801397e-01
-1.618337476926538787e-02 1.656833680800034181e-01 2.097505643144545462e-01 1.565137140133393090e-04 -4.196604082663241532e-04 -6.193013982364865555e-01
-1.151486574643470137e-02 1.523812148378265729e-01 2.099273625030190771e-01 1.996783588578338107e-04 -3.549231693590778719e-06 -5.238131258813065738e-01
-4.030127578686603512e-03 1.570057650828343698e-01 2.103991103732986145e-01 -1.270628945319806312e-04 -4.062200894445682311e-04 -5.578931513501262929e-01
-7.570492148634276608e-03 1.744411549116571536e-01 2.098085913957674631e-01 1.773814497893596965e-05 -4.814416110280590288e-04 -4.930058320571548136e-01
-5.482992797629555881e-02 1.635544648929820044e-01 2.092888741463554969e-01 2.352960665896426253e-05 -4.773959337879312890e-04 -4.866633597325951133e-01
1.577144729869449716e-02 1.438566430377072880e-01 2.100369552782924698e-01 1.152313669560222991e-04 -1.099109043905512821e-04 -4.309372301494932556e-01
-7.566846611695147995e-02 1.450154219690787949e-01 2.097813925048149786e-01 7.091877017503495464e-05 -4.878956260707592715e-04 -4.598076501596733423e-01
-1.190004669880481702e-01 1.883782392122509974e-01 2.095502365540514722e-01 7.413874452844387516e-05 3.767455444272286533e-05 -3.224431555111491599e-01
-8.310125266259529853e-02 2.078375769016078123e-01 2.093769294794819991e-01 -4.118650980097100496e-05 -6.255383260978453685e-04 -4.799103045190918349e-01
-9.565945529882437237e-02 2.678703585594334746e-01 2.096145897911234068e-01 -4.447890721314679262e-05 -4.558551021220407689e-04 -4.599747963608853407e-01
-1.308274043697897349e-01 2.593676296527890890e-01 2.098923683263704820e-01 2.767555848773718512e-05 -9.255152471786161350e-04 -4.715068155243652970e-01
-8.551538743785470909e-02 2.486349053143922516e-01 2.100655908757608215e-01 1.219102565134290450e-04 -7.787726247173139618e-04 -3.469642081149542645e-01
-8.406645593698268415e-02 2.580261382986802077e-01 2.103535576888153624e-01 3.122878372945448280e-05 -8.785285317571258018e-04 -3.442216699342504627e-01
-7.228956206887693359e-02 2.184972022750351628e-01 2.093147105389043805e-01 1.802414348472580394e-04 -1.695650102471419306e-03 -3.370396235005187480e-01
-8.553090719451370005e-02 1.621950041717679092e-01 2.095748843406704531e-01 1.200155669147395132e-04 -1.351042354510859685e-03 -3.863803708750900290e-01
-8.224159361496212461e-02 1.431064315949910071e-01 2.098803639912160124e-01 -3.021225262669094709e-05 -1.002891301771247643e-03 -5.365416490209766742e-01
