-6.476365458087648963e-02 2.201316380742698864e-01 1.031214971664675406e-01 6.523211495527133641e-01 1.564782792490037044e+00 -1.123519049924434077e-01
-9.442761784837012951e-02 2.351037558778888426e-01 7.600622570006451695e-02 5.169626531701457806e-01 1.574281437003997475e+00 1.363684392513900556e-01
-5.331208773320108424e-02 2.413055510300612105e-01 5.698704699154719111e-02 6.220725487337689374e-01 1.684623497220937294e+00 -7.900571440805152779e-02
-5.258969090451417333e-02 2.131074074079261638e-01 6.556693342239100497e-03 7.011799299482741610e-01 1.439269729162055089e+00 2.975049731872673672e-02
-1.001612181174560690e-01 1.821807589402850980e-01 -3.314598898436993402e-03 6.308095697684319436e-01 1.304005783410089547e+00 2.991247003717797601e-02
-1.052191242313997438e-01 1.941836977237082484e-01 -2.121070749368302033e-02 6.422713423285194567e-01 1.595505338026157682e+00 8.086503326487347321e-02
-1.020491589046118863e-01 2.036001788515781064e-01 -4.097280939401218292e-02 5.148149940901654009e-01 1.347645256994993490e+00 1.009537005661807346e-01
-1.018206922199862835e-01 1.820507476279069614e-01 -1.648867093520282878e-02 3.701371429959806059e-01 1.120853218470698964e+00 1.795428524856648028e-02
-1.339205092499319016e-01 1.993271204542235164e-01 -1.754399917961789457e-02 1.207314904765148383e-01 1.116537021077165237e+00 1.877304599778103766e-01
-1.117243166386091002e-01 2.235699047944134932e-01 -1.055610397280034585e-01 9.809629873943594980e-01 1.113595697322734557e+00 1.151651303049853470e-01
-8.054312219570236575e-02 1.835398021740415053e-01 -1.549187240355508477e-01 4.584425917554753038e-01 9.863305075397090782e-01 1.488766813430471569e-01
-5.092886200612877640e-02 1.927825658159856292e-01 -1.805388716498673440e-01 1.117391354535768877e-01 7.711688091570000347e-01 5.283778464607553210e-02
-5.899845258146210747e-02 2.038286633285209259e-01 -1.375374240113118318e-01 8.831895112477916587e-01 1.018964290908330073e+00 6.514967318454735479e-02
-7.276245777897215328e-02 1.683961514908236812e-01 -1.351180335922506082e-01 4.656349156060732297e-01 1.253453460844309753e+00 1.172475113862193608e-01
-7.024915042394784537e-02 1.602556643055332852e-01 -1.003447408879603736e-01 1.960926789014547089e-01 6.783454147757889130e-01 1.673415993136317115e-01
-5.471587860739105663e-02 1.683738486122028921e-01 -1.030432953084618880e-01 5.175811217150331212e-01 1.721264908643243413e-02 8.164800889942766537e-02
-8.305913039399059894e-02 1.492262632447410031e-01 -8.064618679974182303e-02 4.422809089045171005e-01 -1.999023492077128261e-01 1.084928976902108377e-01
-7.246139802929993379e-02 1.456525959655981528e-01 -6.898986166664085318e-02 2.935760196901576746e-01 4.387085145450816959e-02 2.041132817121522891e-01
-8.397616214321688977e-02 1.147822411469411052e-01 5.660458690433844975e-02 8.981722852758371178e-02 -1.447130451347538871e-01 8.750970709761907163e-02
-7.889393023181273668e-02 1.283475453413988610e-01 8.865310351889130192e-02 1.814587739343553052e-01 -3.716752655585429665e-01 3.821099802566167020e-02
-6.075168358581334999e-02 1.287427326269830474e-01 8.468691058635585689e-02 -5.168547920570960852e-02 -3.481188491249104233e-01 1.137521080242948207e-01
-4.222857045399162207e-02 1.400921572167014850e-01 7.511146645903257757e-02 -9.889434293251578301e-02 -1.634490977227620045e-01 1.211793068612477542e-01
-3.904069216119978453e-02 1.233005697526249195e-01 1.359984403571438960e-01 -1.711954421032212126e-01 -2.885847760389051442e-01 1.856797681110339826e-01
-3.866386506101288784e-02 1.272028218966462232e-01 1.732329394447731097e-01 -2.032487131190216789e-01 -1.073049796948162549e-01 1.878135198589422072e-01
-4.110612729246246322e-02 1.273309772727188316e-01 1.536985942276947459e-01 7.723643281059373866e-02 1.326562587103855551e-01 1.232447706823426165e-01
-2.969135316721273690e-02 1.179643621953036375e-01 1.669492066993083779e-01 -2.801016338146967155e-01 -4.833681385433061251e-02 9.604591455698545388e-02
-8.591396279490653987e-02 1.065891727413522394e-01 2.317710888708179040e-01 -1.029740629188605067e-01 -1.595457751400480573e-01 7.383495703913217634e-02
-1.024047589413155795e-01 1.402640878441149264e-01 2.519816375023024024e-01 -3.262710615380429724e-01 4.431300994741557003e-02 -1.135937331806691729e-02
-7.626604968601249923e-02 9.414398973039328489e-02 2.588081161715794498e-01 -4.059622245330482548e-01 1.879815469301777675e-01 -6.499243963866981055e-02
-9.759164982192407300e-02 1.137763926413159904e-01 2.473192980018218690e-01 -6.768890238024267980e-02 2.250435739758419040e-01 3.042573189350257848e-02
-1.007813589501413698e-01 1.044035968209837684e-01 3.089797860479895353e-01 -3.255674345909949086e-01 4.245127255874484029e-01 4.807647844021644551e-02
-8.332194611442093890e-02 8.212619128092098209e-02 3.413174343955199808e-01 -3.330888481915618149e-01 5.987779128793961902e-01 1.204247962024169484e-02
-9.391095549352916627e-02 8.798488357151933170e-02 3.504233440029876911e-01 -2.067452339595005351e-01 7.232107360217218117e-01 1.210689202866410859e-02
-1.158822613374118071e-01 8.532731793351719385e-02 3.726734883370824702e-01 -4.836585662743164704e-01 5.753170365114470552e-01 1.931937584053599333e-01
-1.002547835612587340e-01 7.451304754347182202e-02 3.632934700208259038e-01 -2.320245883152046718e-01 5.181455030702474263e-01 -3.176266815643617042e-02
-8.270282803107488478e-02 8.486584673679158086e-02 3.127085293822640111e-01 -2.293892087634520349e-01 6.274750881998657492e-01 -7.222739646695550998e-03
-7.980580408637541479e-02 7.252639909487686165e-02 3.446985663007978706e-01 -7.936649074484457556e-01 5.343323115066017648e-02 2.967729416388940888e-02
-4.634025256266707110e-02 8.771379370647369722e-02 3.372388740695001497e-01 -5.466761565144286905e-01 -5.816385657642126894e-01 3.272497226269909659e-02
-4.136261266775199258e-02 8.200309049437792819e-02 2.934087642871773260e-01 6.866541884731210965e-01 -2.858772259300423196e-02 -4.674485324825979754e-02
-8.824376255235033550e-02 7.499311605294410599e-02 1.808526880551072635e-01 -2.316386408455566315e-01 1.183107260376540015e+00 2.976940327086331425e-02
-5.755460737811388811e-02 9.111563370125667916e-02 1.584298933290114175e-01 -3.759874980983997084e-01 1.015152747214745244e+00 5.240458203878511217e-03
-4.320457340671266661e-02 1.030735850485644256e-01 1.763232301730207618e-01 1.808958371494498729e-01 6.664760937926679230e-01 6.310738502751597756e-02
-5.255739640726278528e-02 1.128795263632520057e-01 1.580911223961830592e-01 -1.928571109311803811e-01 1.086661117371791718e+00 -2.164753535148472574e-02
-4.692263974713817287e-02 7.591283932294487502e-02 1.876412883635946993e-01 -4.000358784272181611e-01 1.141203445120225979e+00 1.125307612270729229e-01
-3.855479991225907455e-02 6.924542430382496505e-02 2.151561486530151057e-01 -1.435538590590633157e-01 1.065559815630374940e+00 1.606153164261677618e-02
-3.480372373665741037e-02 5.079302547300827003e-02 2.379773811833492958e-01 -1.486230738626946324e-01 1.192055795995484502e+00 -2.601689240657015234e-02
-5.865441099019180760e-02 4.188627001654141729e-02 2.312805260335733526e-01 -2.508846868591160795e-01 1.401184340583113475e+00 8.204917981998539889e-02
-6.068111146490169638e-02 7.926698632874849826e-02 2.533775977192673778e-01 1.969415090281098277e-02 1.683561352782227072e+00 7.578627807831697649e-02
-4.725331785145345936e-02 1.032305820954975278e-01 2.036393415720615108e-01 -3.478264601792680488e-01 1.957919286148920079e+00 1.088173926490036414e-01
-6.437922146243352239e-02 6.779150138747110088e-02 2.055600881127365442e-01 -3.465302939500258805e-01 2.024410929389956149e+00 1.841612692073332225e-01
-5.045401762739373103e-02 1.131867611806277873e-01 1.990707884878234468e-01 -4.785407305628037178e-01 1.912387679170549637e+00 -2.519183499719662711e-03
-2.098803415325703470e-02 8.534939881493384950e-02 2.140864961317883453e-01 -5.825652329434535259e-01 1.815423523056908017e+00 2.723688743140390521e-03
-1.793276745327729293e-02 8.838345875463396450e-02 2.836780999347525700e-01 -4.902088558606182978e-01 1.601846332347416357e+00 1.566227629716782643e-01
-4.293603023391544260e-02 1.211412147419778373e-01 3.242363906288963094e-01 -4.630797324652070612e-01 1.418433857576914425e+00 6.618582186419791347e-02
-4.046939313335792127e-02 1.100758923037419151e-01 3.364302415742043140e-01 -5.265722710228830650e-01 1.187096939131934370e+00 2.500470055755267540e-02
-5.081375806500514763e-02 1.254542673006073528e-01 3.318544473992525168e-01 -1.282391636779830202e-01 9.241927172321389161e-01 -1.368187928347949778e-01
-5.828976396822926204e-02 1.401385982768132143e-01 3.306736808767924973e-01 1.390970637310989522e-01 7.473072602893003902e-01 -8.111886665246622122e-03
-3.257858417969838188e-02 1.531273021219337060e-01 2.959791420608045565e-01 2.175398751830384669e-01 2.559881117926241512e-01 7.152397277029648448e-02
-1.985549637380040755e-02 1.469412328250637445e-01 2.153414095078557411e-01 2.632246049489296302e-01 -5.741939445186330232e-02 -9.425835879823839247e-02
-2.069006800154148812e-02 1.480377925076003520e-01 2.115432178977305899e-01 9.355358516824617554e-02 -2.968485011133512597e-01 8.122084783699316801e-02
-2.535377765223519389e-02 1.449564060067027316e-01 1.942625461447168023e-01 -3.063557695706646544e-02 -6.804299034360722365e-01 2.702766748354882079e-03
-1.111983469569416232e-02 1.255146332295652978e-01 2.361650565541633662e-01 -3.132802576228867486e-01 -8.235735189390378519e-01 -4.223464007358468386e-02
-1.599975383627567568e-02 9.592757788031072708e-02 2.382544060076442760e-01 -4.040084769819103361e-01 -9.345310028584109530e-01 -1.315883128182729622e-01
2.229798955722135656e-02 1.316504033580723765e-01 2.108317708640986277e-01 5.191044286553292419e-01 -9.064195299061118538e-01 1.843633441050733859e-02
1.437708330224418338e-02 1.386877305837607433e-01 2.089473411278257031e-01 -1.096872456305141158e-01 -1.272145259709056342e+00 -1.471824134946649043e-01
4.590143936842816519e-03 1.396753367016603797e-01 1.945057290609634171e-01 5.908386692155924713e-01 -1.040687049342069459e+00 -1.151036747136816585e-01
5.917010510973136350e-02 1.610556665853712377e-01 1.901375465579223656e-01 1.070191545681930201e+00 -4.407032816361671212e-01 -1.802067424577201982e-01
2.201926757830873892e-03 1.314677721422498058e-01 1.290854568931829593e-01 -2.611463721099410162e-01 -1.752083263989913375e-01 -7.557421402740345517e-02
7.775119200330627561e-03 1.679765280228995572e-01 1.876216504729483758e-01 1.019227280602232333e-01 -1.000311359484388762e-01 3.931809643941625021e-02
7.124708662366787716e-03 1.302585387605423584e-01 1.810635931496999140e-01 5.192232784440126148e-01 2.954655355840301797e-02 -9.236963676029318060e-02
8.162096580951506281e-03 1.483426127442040998e-01 1.274949072701843378e-01 1.788489195812247023e-01 -1.344631854061924259e-01 -1.870874882359228331e-01
2.762330802923643538e-02 1.690415342403983057e-01 1.303087459501613143e-01 4.449028948524329508e-01 -1.641112891593924927e-01 -1.139494932057839444e-01
4.153274227275578767e-03 1.457928211209851832e-01 8.342036370805105960e-02 3.192921361024608773e-01 -7.757150628185054131e-02 -1.358837518420806523e-01
-1.787892616469703017e-02 1.358182496055801991e-01 8.348383649116608574e-02 5.103449664034109302e-03 -3.724642091401722532e-01 -1.702332364530649844e-01
-3.629266569301327350e-02 1.126426228890628212e-01 1.608028039933510345e-01 -1.130110314355707302e-01 -6.334425124730010959e-01 -8.828800726819743816e-02
-4.010077943304164727e-03 1.351860266006539579e-01 2.439766421128041762e-01 -1.831717853927937734e-01 -3.638200020929688305e-01 -2.104092155035095640e-02
-4.310245305666135507e-02 1.355507586597144432e-01 2.834635007789310102e-01 -6.080862920364327184e-02 -2.596358389859060312e-01 7.226163151968190146e-02
-9.813420939109696040e-03 1.242209777849295760e-01 2.862366730551783034e-01 -4.317701631792286721e-01 -2.066368493619318014e-01 5.501292062467424970e-02
3.602166817555853707e-03 1.437185818320345643e-01 2.836249647787074668e-01 -1.423959069527414856e-01 -2.715588453585795776e-03 4.976694474543517238e-02
-1.277939992470623551e-02 1.352141278608679220e-01 2.974963871101523605e-01 -2.411346989092892079e-01 1.391594268554470770e-01 8.605749157701718388e-02
-9.850664948086569617e-03 1.124681565462150312e-01 2.781988409580695709e-01 -5.151719802767721346e-01 -1.983698135631887377e-02 1.139316099977894237e-01
-3.165912120487191644e-02 1.182344569442804610e-01 2.834246455608687709e-01 -4.479886996806565214e-01 -7.582435834585389556e-02 4.456313458759718349e-02
-3.067834327892750637e-02 1.433889812162810473e-01 2.658691873734047584e-01 -3.140904242454456985e-01 -1.092717264172655273e-02 2.628204086410636936e-02
-3.851823887687428477e-02 1.491838964654586819e-01 1.816141694200471002e-01 -2.611559133711786607e-01 1.524276690602250073e-01 1.436037914502778616e-02
-3.207061120287920536e-02 1.552200141512334042e-01 1.511134257026488792e-01 -1.229832966009538620e-01 2.155608871640564139e-01 6.014982296503024184e-02
-3.709236602505164293e-02 1.322871495222275595e-01 1.354997101520527547e-01 4.979723426575741879e-02 8.833686145194288852e-02 1.366901575452404427e-01
-3.886549308511344503e-02 1.334794398803096915e-01 1.131022843432527292e-01 3.128569295990035748e-01 -2.101849540234435043e-01 8.149009599545162241e-02
-3.048557566616205000e-02 1.037723348831764286e-01 1.235908556883132947e-01 -1.273057432274600324e-02 -1.799870676943373937e-01 -1.576744466628359626e-02
-5.804572615256955309e-02 1.559326850689290167e-01 1.166202516052800009e-01 1.371635407013497565e-01 1.119571318463104606e-02 1.450878489699797096e-02
-7.371437786364375133e-02 1.395168772657009171e-01 1.140120336760791220e-01 4.937958387094643770e-02 2.255505610904607883e-01 4.237399073652404341e-02
-3.309707289598192576e-02 1.701053244739866299e-01 1.601322666316308541e-01 -2.580170992301041855e-01 1.613520669126975449e-01 -8.388561577599531680e-03
-3.169668356037819851e-02 1.917277174307010501e-01 1.592946832212238928e-01 4.742472404008601233e-02 2.007096724724768966e-01 -8.767957470923734564e-02
1.210103966476456724e-03 1.813146350983716737e-01 1.828352710731449560e-01 -2.468725654126106839e-01 1.334259546133838292e-01 3.449181050672239790e-02
-1.451734844431764627e-02 1.701860911161139356e-01 2.107149416093933303e-01 -1.359126154839759293e-01 -2.717686229889219179e-03 -4.202490370566587530e-02
-1.540071991540455966e-02 1.794895619393289954e-01 1.481200093877610979e-01 3.335885361476432220e-01 -1.118322172432924394e-01 6.308489153590399190e-02
-2.754894174424685552e-02 1.658446521796286821e-01 1.333761040016349653e-01 3.285257552802866576e-01 1.118148852567766083e+00 1.779387045423654612e-01
-5.367875031697656903e-03 1.421260537107590649e-01 6.458145483004165688e-02 4.796551698569034294e-01 -3.760719562274703748e-02 1.040585091133811591e-01
3.526674845194913664e-03 1.096170745325419221e-01 8.321767725499321089e-02 3.362313922712401038e-01 -4.410543871064912524e-01 6.967047313118740481e-02
7.121472878592699680e-03 1.075917793293937469e-01 6.529002644190123883e-02 1.497769910014052075e-01 -2.301343424775797175e-01 1.234837144401717268e-01
-2.769450050893121698e-02 1.226166359782940862e-01 6.349532650339376194e-02 -1.280127610752414269e-01 4.125430827532132749e-01 -7.782633256686485868e-02
-1.489495252198680397e-02 1.389853863102586962e-01 3.870085019721966613e-02 3.325936525465005705e-02 6.104108762449355075e-01 -1.297910674423015942e-01
-3.855449558525950171e-02 1.358259423390056342e-01 5.944919369297946288e-03 -1.100973385408962335e-01 6.708474085999290848e-01 -1.198731082609402754e-01
-6.001022247262102760e-02 1.570160535553835612e-01 -9.845842994730652498e-03 -3.689721964040738600e-01 1.038095382515073384e+00 -9.168514033217542436e-02
-5.409122207007570349e-02 1.516938036183453631e-01 -8.682917751718283172e-03 -4.561394872176547377e-01 1.356694998225110416e+00 -1.449337417075532985e-01
-7.172374856816614297e-02 1.235957452618745428e-01 1.582219302491835733e-02 -5.354082803584995220e-01 1.419178002758298751e+00 -2.532606224339439480e-02
-6.255535494785408046e-02 9.396694733788439613e-02 1.950047614988256739e-02 -7.609583697851569628e-01 1.513600934086969385e+00 5.644990966820623290e-02
-8.618622501086932453e-02 1.076331720199001224e-01 3.682188897535881855e-02 -7.726704536233403031e-01 1.642361456165198241e+00 4.835993690914819343e-02
-6.884485861437100729e-02 1.140052062257517346e-01 6.239818833306681745e-02 -7.618177812965329920e-01 1.590883232838965711e+00 5.852397931109861590e-02
-1.012220003827023068e-01 9.701698145603045165e-02 7.544208627916718091e-02 -5.266224393542386917e-01 1.552061153326753207e+00 -7.766460184893458907e-02
-1.037031266868965601e-01 1.039338459541908205e-01 1.298579394238812967e-01 -5.219055093920339505e-01 1.574178557357367003e+00 -3.265425518969595348e-02
-1.145932504859478174e-01 8.588032658120593743e-02 1.361340837229098599e-01 -8.732900436686635848e-01 1.591378189688448241e+00 1.469391488872772399e-02
-8.359255496442712097e-02 6.378447812094927005e-02 1.472250906023539474e-01 -9.582523079934047727e-01 1.554073159006286620e+00 -5.422656867576598760e-02
-9.008557478057707679e-02 5.928812224455166924e-02 1.397207332615512110e-01 -9.260353934213904070e-01 1.511133690061465140e+00 -2.692540802626660484e-02
-9.729389159896051353e-02 5.528328376110227399e-02 1.569114652680873578e-01 -7.940679014286569082e-01 1.465729817312667604e+00 -6.573736233136608098e-02
-6.997168172066484115e-02 4.495369084288133865e-02 1.850038387875143076e-01 -6.934198149272792211e-01 1.185517914436964526e+00 1.161642612516810558e-01
-8.401312582654080208e-02 5.464961031520672308e-02 2.411869714839424417e-01 -6.690629233642316764e-01 9.931255847695893424e-01 -7.844156405902233398e-03
-8.868817824866315203e-02 5.499903227061509609e-02 2.439854647211208982e-01 -7.614718006009023321e-02 1.302571606307154184e+00 -7.095040293069380943e-02
-8.353450352102780030e-02 7.540621629347621369e-02 2.263484800457703505e-01 2.081270204582590377e-01 1.435018933123912044e+00 -6.857963715868894972e-02
-8.788969192425846733e-02 6.599285799840703959e-02 2.183361368352140786e-01 2.331435862467985676e-01 1.356971365126779183e+00 -8.343598662009840683e-02
-7.035977075550166326e-02 8.829212250452087019e-02 2.160085162447666907e-01 1.574823139399174621e-01 1.178726421146357062e+00 -4.312187641042215802e-02
-7.920217599127431229e-02 6.507097573353734510e-02 2.048711600239258857e-01 8.815141888205936527e-02 1.213705985104458485e+00 -4.297422087879718133e-02
-6.995732485998985839e-02 7.680625588113719482e-02 2.054725619822942717e-01 6.740647732749402432e-02 1.158888663069912672e+00 -1.252830560274434749e-02
-7.857539066405555550e-02 9.267455949281147576e-02 1.760731994374993559e-01 1.411625580258810408e-01 1.367089457944871356e+00 3.733527915144315562e-02
-8.144435153998906551e-02 1.003934103605565731e-01 1.363429898390521589e-01 2.471994727680623671e-01 1.427167793519247274e+00 1.280341014892331375e-01
-1.034363947266773859e-01 8.544713903934661459e-02 1.418270703005128086e-01 8.417589132491445914e-02 1.470790417322432209e+00 4.373592963388481247e-02
-8.685086893859156332e-02 7.298023282587506877e-02 1.429819542891136164e-01 -5.316999172650841571e-02 1.365320591783075299e+00 9.093506440013750247e-02
-6.703129963726199569e-02 8.154812709815328908e-02 1.511199919314902274e-01 8.335807325496312481e-02 1.315270171223399176e+00 1.103957810662125616e-01
-8.085715576529525772e-02 4.228495456051403756e-02 1.560930312683014298e-01 -2.149781434749212239e-02 1.224854610340888605e+00 2.451517626881094536e-02
-4.848713913310354062e-02 5.160875993525314981e-02 1.684464326171650206e-01 8.756124984200365502e-02 1.084773037385903471e+00 -2.658781170970333368e-02
-6.925190827169080965e-02 2.964208645637834288e-02 1.228713719041421848e-01 1.171374847176393369e-01 9.009137984616764072e-01 1.478355139115588440e-02
-6.019369417735059846e-02 4.575223611102170046e-02 1.349654944696898062e-01 -2.688421757340950582e-02 5.856150602865367594e-01 -2.473830038625268735e-02
-6.211191395305953877e-02 7.454426955732362803e-02 1.729985516871898887e-01 -1.159786068860048647e-01 3.232138693171549004e-01 2.353107629995423306e-02
-6.008222289617208556e-02 6.736629449099436340e-02 1.624413605167958907e-01 -1.212358948809263981e-01 3.607712275354224007e-01 -1.393115464623399802e-02
-7.026051960276021024e-02 7.000532139430153122e-02 1.393801767569057826e-01 -9.703504685789531015e-02 5.618035701104699964e-01 -3.908290570795304453e-02
-5.740209109720539188e-02 4.723079305402337613e-02 1.321003401719257342e-01 -1.094101227054419256e-01 2.813986057595631030e-01 -1.554404081117444388e-02
-4.391192264456315886e-02 4.744475462639449054e-02 1.415871275338426161e-01 -1.351052987532801453e-01 2.638002659321445065e-01 6.977688663627901189e-02
-3.227814211004373379e-02 2.227745137732757216e-02 1.288082558938662137e-01 4.157182404250690522e-01 6.756267787104438538e-01 2.084419787818632061e-02
-3.271390131291166542e-02 2.249516690276572375e-02 1.548835378430181153e-01 3.664885747116909398e-01 7.353615322938182874e-01 -7.103725594358636930e-03
-3.601089759095332105e-02 3.988448116655473469e-02 1.607483888476535505e-01 3.018955737557401653e-01 6.407377512012540910e-01 -5.782456013059553840e-02
-6.421297916736457001e-02 1.675886421693000006e-02 1.286410803893364985e-01 1.402285579206417054e+00 8.181169516557802446e-01 5.447056098317737405e-02
-5.250002972958412589e-02 5.042196649038742373e-02 1.694837932759888643e-01 1.271565938817179164e+00 8.242446157321978717e-01 -1.032628227425774932e-02
-7.812741252050998952e-02 2.666473095659829123e-02 1.688772964866136206e-01 1.238033338237461978e+00 8.068617718562575147e-01 -9.401640811123183894e-02
-7.321052464508856494e-02 7.197554737508365941e-02 1.755583676158365969e-01 1.522398628343067495e+00 6.174947785412108203e-01 1.837722252429709394e-02
-6.286069687163253761e-02 4.834589141228332054e-02 1.776129744103580599e-01 1.465800751801437096e+00 6.708482457447088043e-01 -5.309153189574370574e-02
-4.337344265452328790e-02 3.365219437966968097e-02 1.781164977276662453e-01 1.089052222552865601e+00 7.531301202837188402e-01 -2.112979012474572663e-02
-4.620075282474223055e-02 3.393200655467259325e-02 1.765924712255234619e-01 1.099972191920190800e+00 7.020070180307514951e-01 -4.573991454418598751e-02
-5.025310433490334794e-02 4.470824049900896935e-02 1.411633992552572825e-01 1.390058200390775101e+00 9.842625178936271757e-01 -4.197188715568602596e-02
-4.756604132704163324e-02 6.383387956600863888e-02 1.653094597205226612e-01 1.569062280433592527e+00 5.907065154504347326e-01 1.013554903847337313e-03
-3.573301830837460197e-02 9.079925151335203892e-02 1.825944688871037613e-01 1.593469145918174457e+00 5.850540047323615767e-01 -5.508888280507851952e-04
-6.131473948932452539e-02 1.329787394641128162e-01 1.677075930375511448e-01 1.085046842051767602e+00 9.268928091647294920e-01 -4.238139820266182550e-02
-6.471573566081094409e-02 9.391056373838972682e-02 1.437702369213149367e-01 9.562221239282621132e-01 5.863574314825695799e-01 -6.309135436682915266e-02
-5.826819343703006776e-02 1.266746640521920486e-01 1.277540618661470451e-01 1.107734890765875724e+00 4.914552486556448274e-01 5.944788741070403809e-02
-3.505915744314593713e-02 1.210601539432680507e-01 1.222575527455205258e-01 1.235591050887114184e+00 5.276088517698865887e-01 4.442790860610990739e-02
-2.562813406077614140e-02 1.321167097292018922e-01 1.289057704225431145e-01 1.288953875846332586e+00 3.657643559757666196e-01 -6.202374291186192601e-02
-4.740678845864562674e-02 1.552553150886891720e-01 1.014337756489507858e-01 1.025122807564921246e+00 5.044781953760659743e-01 -5.692325975716928249e-02
-3.898853091207445110e-02 1.458042327275764771e-01 9.277050589407165315e-02 1.017724052204769469e+00 2.063963348637163631e-01 1.802506293389063985e-02
-3.120500190508288668e-02 1.402294063891627862e-01 1.353196004227525118e-01 1.006340661086271071e+00 2.328635112145740482e-01 5.760944366621260221e-02
-2.957695018090738398e-02 1.469973818052379699e-01 1.261821408072700268e-01 7.236998404501552296e-01 1.751857662457555198e-01 1.003039644247882695e-01
-5.573864435570662079e-02 1.415614860410270570e-01 1.027631836234260687e-01 1.360194733120702937e+00 2.876507495719711760e-01 -8.607516980631511883e-02
-5.602372726882907245e-02 1.333818737765637696e-01 1.014133115411643971e-01 1.630840188579107508e+00 3.557013744857509541e-01 -1.416398897689967185e-01
-5.603576646586994059e-02 1.358460177013599834e-01 1.040938655537879676e-01 7.818287719484051657e-01 4.313717575740348420e-01 -1.632891149266640085e-01
-1.083538877356750169e-01 1.659065642074141200e-01 8.197988956782928383e-02 7.726578668090706703e-01 2.909448222290941244e-01 -2.070034437754318113e-01
-9.958691050360288233e-02 1.626601147097745115e-01 5.250083630826191117e-02 1.064353663363658775e+00 3.328840846399792608e-01 -1.943131875917531726e-01
-8.014364150462166547e-02 1.601186361074041775e-01 5.747442552163462004e-02 1.047526108641153808e+00 3.226225354715676064e-01 -1.567006048382025840e-01
-8.711876725830838830e-02 1.362268369480191810e-01 8.092132781023131383e-02 7.074525015851921284e-01 1.850887469279706710e-01 -5.608610960923996608e-02
-4.244148178201505306e-02 1.418329236506029600e-01 1.406170769412070365e-01 4.275441593946712193e-01 1.814619075357176980e-01 -3.913302311571301845e-02
-5.586341999865944430e-02 1.351494948534503193e-01 1.347527845418113879e-01 5.147832511033481051e-01 3.504477440949916867e-01 -6.350796693286854533e-02
-9.514376246624446642e-02 1.600333553999529757e-01 1.473053747750835973e-01 5.972593484308761358e-01 7.967850055675852472e-01 -1.995823152061389494e-01
-8.697644053813403942e-02 1.306035063542470842e-01 1.087111312209005365e-01 5.107346045781195887e-01 1.158042288510785722e+00 7.702444218833150169e-02
-8.771054668775890573e-02 1.238031672346008166e-01 1.090412254683465754e-01 6.196891335426716330e-01 1.185233386727810645e+00 -1.048199547501775519e-02
-8.750786788861850130e-02 1.105706033979462627e-01 1.368558115169959954e-01 5.450020030729449960e-01 1.090893826986079063e+00 9.710861884621084517e-02
-9.104383690243676719e-02 1.116354235772508557e-01 1.638939307617106877e-01 4.447364506515301685e-01 1.064163886674670989e+00 -7.395512956922714598e-02
-1.211543034171571470e-01 1.021760290324628256e-01 1.706979203876593243e-01 5.705530563461299609e-01 8.671359890135549309e-01 -9.115480456686583105e-03
-1.079284321764509835e-01 1.090504386318927876e-01 1.870720413656147274e-01 5.464749100004380189e-01 8.608626279652912272e-01 -1.146995531270463692e-01
-1.280131282968652029e-01 1.590418638729352852e-01 1.933856828585311660e-01 2.673738747264106652e-01 1.137842427249107446e+00 -1.321781387204246372e-01
-1.514343741078603700e-01 1.934037931169853286e-01 2.180612982010893541e-01 5.031933701072440757e-01 1.226652135817702050e+00 -1.822459702958443561e-01
-1.312912234083060126e-01 1.714797299717027712e-01 1.987387981867687614e-01 7.001042166383143472e-01 1.054050541355487258e+00 1.773908794353155211e-02
-1.435734869853378670e-01 1.386000620771160874e-01 1.375185791296604232e-01 2.525046113636192358e-01 1.117705798940092476e+00 -4.588900941460325594e-02
-1.478596027878754104e-01 1.207103954702516274e-01 1.123644751131035180e-01 3.873575012326407885e-01 1.205645442568639814e+00 -4.256846329991033524e-03
-9.338784450672082960e-02 1.466306511187846495e-01 1.104861318626282896e-01 7.361402250978847928e-01 1.277738739223754694e+00 8.323519147369706772e-02
-1.027430325543033929e-01 1.340495754192375932e-01 5.683681445299082480e-02 6.015965467122155186e-01 1.133987478269058435e+00 -7.069492601715048584e-03
-6.702867396378733855e-02 1.579342252504056243e-01 1.465093949897400272e-02 6.159577244019869280e-01 1.001092860387145844e+00 1.507514747738170902e-01
-1.392339679479154269e-01 1.674351107507751069e-01 2.479117041780262709e-02 7.314976051497030785e-01 9.024962772624776086e-01 4.143896919761999587e-02
-1.275199374408724218e-01 1.496446129379011836e-01 1.036354838214870178e-02 6.961166150887057036e-01 8.897345484050565023e-01 9.838870974917038326e-02
-1.017689229472397983e-01 1.392487049396359255e-01 3.348452098410337197e-03 6.316419400183840294e-01 7.869924627342096413e-01 5.573586445101505471e-02
-8.627698693700321109e-02 1.518589380260752242e-01 -1.604716149939021397e-02 6.595577602863685884e-01 1.023384889477662929e+00 1.346257610127628845e-01
-9.726629882889806233e-02 1.316060843129070457e-01 -3.747987140674709228e-02 4.333462682898975293e-01 1.086733910756520149e+00 1.859821180172678209e-02
-1.550659194284605136e-01 1.504931797095688806e-01 -7.817746240288613035e-02 4.742623253126584393e-01 9.372491129901210360e-01 -8.450110572465981129e-02
-6.854067076578593265e-02 2.055183198278164869e-01 -1.264717452449502788e-01 7.839666403928280403e-01 9.782013237097273439e-01 6.034764526792955885e-02
-7.083650599504058565e-02 1.853661819014320866e-01 -1.704710626334622614e-01 7.948382101891982021e-01 8.336194311849558503e-01 9.200072495094513414e-02
-4.353343746425327593e-02 1.630822028962480019e-01 -1.728599447166516700e-01 6.028166059562308776e-01 8.532080488208617641e-01 1.565326054467592876e-01
-2.675930748320554109e-02 1.831517809538078800e-01 -2.095949256217366496e-01 5.068715531979095523e-01 7.823430503676640502e-01 -3.661238915590700471e-02
-2.121235749060348865e-03 1.835655803295420663e-01 -1.883104229964691623e-01 4.991975082064935010e-01 8.902339580551315024e-01 -8.246104690298965145e-02
-1.833808141097788627e-02 1.638276956647725380e-01 -1.685419453479016227e-01 3.122562874017533185e-01 1.099729600664821394e+00 1.192790014201205451e-01
-5.906306151502307283e-02 1.947494320850740035e-01 -1.844208109597172685e-01 2.411042923443017238e-01 1.097751638719421718e+00 -6.266809295564094995e-02
-4.242140668712424817e-02 1.990161948168107375e-01 -1.684289610366088707e-01 -6.551822156638650863e-02 1.047488565818299744e+00 -1.243119224980239468e-01
-3.143284443374571441e-02 2.101556325289589688e-01 -1.757206717890758829e-01 4.952987997728997623e-05 1.129487712650379283e+00 2.478033968992539998e-02
-3.442689166613262935e-02 1.886374707977046816e-01 -1.781996412993376300e-01 2.005507491799630726e-01 1.184243421093370774e+00 -6.812324852699372379e-02
-4.050182250044761373e-02 1.476901971443558559e-01 -2.145705241956974707e-01 1.064475849270765939e-01 1.116864628826786277e+00 7.812881180217896848e-02
-1.049058240511229964e-02 1.301522574507740782e-01 -2.007307068249224169e-01 4.121858969651947396e-02 1.123609195839628594e+00 -6.890741308646275778e-03
-7.310704500111597434e-03 1.104802928394263417e-01 -1.668308554768585250e-01 7.588239108732955374e-02 9.863494697417267698e-01 -6.367399619759519895e-03
2.055333280845330485e-02 1.067154416858880767e-01 -1.771322589660936364e-01 -6.709883183514581129e-02 7.614016594134902505e-01 -1.220815847626656736e-01
2.659429358941944790e-03 1.065208069743047437e-01 -1.833495617993375626e-01 -3.182177939961680635e-01 7.567709684083934185e-01 -1.622837180317667632e-02
-2.762168559856343839e-02 7.028330693414222563e-02 -1.650308068221099655e-01 -5.143181809627755952e-01 1.024557297619149043e+00 -5.390060403725186432e-03
-3.522922798301290903e-03 7.208738638061876203e-02 -1.624059061545063132e-01 -2.120947510008052428e-01 1.129012326856548176e+00 -7.281058256557125519e-02
-1.424013881867471076e-02 7.055915246491108184e-02 -1.664094387696859190e-01 -3.653871639917760650e-01 7.941984892360703929e-01 -8.982179729749106833e-02
1.428751736186735163e-02 3.022575011069069881e-02 -1.446011182704257936e-01 -2.498285900697857775e-01 8.491282504040597034e-01 -9.868495948991981570e-02
1.112921513056556490e-02 4.530061158459507131e-02 -1.485997186329852116e-01 -3.939556259335959959e-02 8.573421681657169557e-01 -2.046418399424609902e-02
-1.883488632639224863e-02 1.173556561688081090e-01 -1.188778737226423993e-01 -2.387705069521463552e-01 8.824354216781796767e-01 -1.036184254172821256e-01
-4.532719644456003477e-03 1.031204256646422041e-01 -8.677863369099306223e-02 -4.798308436885895256e-02 9.705337429785476644e-01 -1.436079869568877287e-01
-2.281880038270977379e-02 1.054201817036366090e-01 -1.558800614235388293e-01 -3.043714639088858365e-02 8.995279421271219489e-01 -4.141363399435653986e-02
-3.632345314058108010e-02 9.672040222214010885e-02 -1.131759108498719135e-01 -1.354128485840657564e-02 7.823175733548686228e-01 -1.371266564514017905e-01
-8.840939003542526431e-03 1.015661648673953782e-01 -5.326517904213801113e-02 7.645097209459916776e-02 7.652919077978324047e-01 9.000641287419178932e-03
-1.872055457482498311e-02 5.834238001550229313e-02 -5.004724927642199839e-02 -1.247109789183733913e-01 8.125130245116090055e-01 8.876289704500073263e-02
6.011025672873221253e-03 7.182120265252837921e-02 -2.673788344420709173e-02 -2.693778591987446291e-01 6.335581985675216021e-01 -6.704048856113473120e-02
2.435421662431996523e-02 1.063278510988087261e-01 -2.833235860678517959e-03 -2.570121857400028409e-01 4.662245173968880274e-01 -1.170113962505552468e-01
1.302966197897650544e-02 1.084266932363699004e-01 1.056806073417373981e-02 -2.607751650551708433e-01 4.984725672583551481e-01 -1.672674082671036233e-01
1.323071838650753500e-02 1.163173813506372112e-01 1.196686553124673424e-02 -1.904704954200309164e-01 5.814144500263964677e-01 -2.214347102597692962e-01
7.199678654868309907e-03 1.142326663106064816e-01 1.067362901908305850e-02 -1.980119805704174119e-01 2.726859047963650640e-01 -1.548019394312181995e-01
-3.641793151491669323e-02 9.074320361068985430e-02 6.145037127825087042e-02 -6.134936336914349753e-02 1.214915252236800081e-01 -2.161488457348251235e-01
-4.956186607130400046e-02 9.118194996653480877e-02 6.930522971043528990e-02 -1.560524159402145450e-01 -3.336750346854545912e-02 -2.163871080690976112e-01
-5.924273325201141055e-02 1.002299564105060686e-01 7.655290575847448209e-02 -1.307876260864767326e-01 -8.880339696119209092e-02 -1.008789838878007411e-01
-7.224979851891312477e-02 1.197801369805865934e-01 3.889628029318506486e-02 -4.576819008326268867e-02 -1.615459353244806384e-01 -2.721581193383464797e-02
-6.674976041221220013e-02 1.368181771237912125e-01 -1.398128008690463497e-02 -2.937346342009490852e-01 -5.261158877633159703e-01 1.715138018265012845e-02
-3.717186074522406403e-02 1.108416751094026265e-01 -6.725875245744819542e-03 2.294419572499065418e-01 -4.984409502037391304e-01 -3.345296939981031586e-02
-6.034604996676948274e-02 8.715943429856091995e-02 -3.060975339989033261e-02 -1.745196766558536616e-01 -1.865458130818569149e-01 2.651260641906076979e-02
-9.190154046144531630e-02 6.606604339949929960e-02 9.271343869532683302e-03 -1.179958217618285315e-01 -2.993152081621358040e-01 5.042735497106121123e-02
-8.586227898148408866e-02 1.043352629353803129e-01 -1.185353147898024484e-02 -1.821478431791357377e-01 -2.806901499747666007e-01 4.216768755051659295e-02
-7.968256829245423667e-02 1.283972048702947399e-01 3.501819813391723879e-02 -8.581707754361325713e-02 -1.361464505634929767e-01 9.730751494133939652e-03
-6.496638629032359946e-02 1.458874198903848118e-01 6.705361752319763391e-02 -1.650344266000721982e-01 -4.419209799050436566e-02 1.479104630534551490e-02
-9.145927186946520293e-02 1.692570625603262158e-01 1.060564547022913029e-02 -2.871918947026535496e-01 -1.130969546840212697e-01 1.629144939760846303e-02
-9.124520970464911063e-02 1.636542711732988098e-01 -1.608617902936497479e-02 -5.092844672641722026e-02 -3.490032460820738369e-01 -6.903558629490670270e-03
-8.311567039958657477e-02 1.620867461450117841e-01 -2.273722627757666925e-02 -1.043972521104176432e-01 -5.209019745629486220e-01 9.658313034615634285e-02
-5.433451860236757774e-02 1.558425643071600086e-01 -2.699356137525758814e-02 6.082220576135070889e-02 -5.247725868624857348e-01 2.612339200275337614e-01
-4.966248431818063441e-02 1.002743801058008088e-01 -2.789318635443739647e-02 2.411382407951300766e-01 -6.476030312542093714e-01 5.030234555171559513e-02
-6.374983603292826151e-02 1.033739417064727106e-01 -7.059477167037948864e-02 4.261707192145942624e-01 -9.362465590057328368e-01 4.826994254892212621e-03
-9.269393624028521295e-02 1.212377583883929300e-01 -8.625930636367881710e-02 3.068477318747339089e-01 -1.211434438028617500e+00 9.754544551433094735e-02
-8.566754123700880130e-02 1.319834074908715349e-01 -8.061430311959200123e-02 1.492336221892741899e-01 -1.153954620073308623e+00 9.432733651236022143e-02
-6.350203786326398536e-02 1.659923206911095572e-01 -5.139544482828908856e-02 9.356360767240344545e-02 -9.831078339216461348e-01 2.033196118006469835e-02
-5.670299428635806882e-02 1.648735453332542400e-01 -2.922593731800199324e-02 2.396305351372318981e-01 -1.001340911130827793e+00 -1.210193395735686683e-01
-6.825093733807058305e-02 1.322078570659490082e-01 -5.844755140174048846e-02 3.022462419350026575e-01 -7.479110771829847737e-01 -7.984347544972787702e-02
-7.532463865935414005e-02 1.927519776334484236e-01 3.241302027273557096e-02 2.737495606260012537e-01 -2.169411109766214985e-01 -3.685276765362362900e-02
-3.849127828944103047e-02 1.827939716262897973e-01 8.953755099765486891e-02 3.716642907231441223e-02 -7.491208154657334750e-02 -4.659542951558792723e-02
-5.070541382591448043e-02 1.377156807389134097e-01 1.554954983204838437e-01 7.361683639448142469e-02 -1.884081077055260733e-01 7.764676320796327523e-04
-7.898028604349631443e-02 1.449191729767022319e-01 1.550254142664115875e-01 6.596204227191281022e-02 -1.870917863062857289e-01 -6.565369855134711025e-03
-7.640148303291942333e-02 1.272192857997225535e-01 1.866345990975874503e-01 1.934201062623831235e-01 -2.652374963510167882e-01 -3.438853088281935283e-02
-3.115290117266848388e-02 1.341919594445150909e-01 1.712792339544284559e-01 3.746159277963639345e-01 -2.819704170341133520e-01 -1.501259176271004248e-01
-5.855572203255904329e-02 1.515382644779509347e-01 1.867668534289255444e-01 2.599021990944323512e-01 -2.917203828209851135e-01 -1.231600475375696641e-01
-6.057568461594803333e-02 1.722543507398733575e-01 1.458479323399771987e-01 3.285330257352330752e-01 -4.026901379971646877e-01 1.878434241792850679e-02
-5.784198049005363773e-02 1.764608837087424942e-01 1.542895037381709633e-01 3.795441252481716043e-01 -4.081165415253572570e-01 -8.742888562558825960e-02
-3.821449725337613262e-02 1.750393783701620909e-01 1.989022256872049477e-01 3.294878466533345818e-01 -3.016832217611097877e-01 9.523897839688452369e-03
-4.626296665281905141e-02 1.971952120651537521e-01 2.158857486975308826e-01 2.323879943794098513e-01 -1.701535767040198432e-01 -5.544645241838144778e-02
-2.314371280321733670e-02 1.501275383831860710e-01 1.935876957962040235e-01 1.379902817340238341e-01 9.332220911806120289e-02 -1.043597207898645934e-01
-1.031370625267135147e-02 1.083052285319742181e-01 1.579401857425342393e-01 -5.529335049714067390e-02 4.038479766293559536e-01 -1.578884195154532932e-01
-3.241018117839570417e-02 8.008467485773350381e-02 1.247536174937341757e-01 -9.665232873694550031e-02 9.714502272873399846e-01 -1.094449775522153556e-01
-5.450442783971671395e-02 6.965008842186935778e-02 1.119392553820692249e-01 -1.497892751686331902e-01 1.378497695375053844e+00 -2.040411569090895272e-01
-6.005533724496722042e-02 1.381476714713525400e-01 1.141629048375334132e-01 -1.069469114708933855e-01 1.406662763513040870e+00 -2.140452910630541994e-01
-6.197107529700692646e-02 1.529758147361175713e-01 1.221704369168993554e-01 -1.504163543918047852e-01 1.508176418515881245e+00 -9.035094643540855786e-02
-1.027470828560210769e-01 1.748886573004434508e-01 7.369297345367917251e-02 -2.175779373407895345e-01 1.670949673634231969e+00 -1.092384950140935923e-01
-7.777060022199297484e-02 1.632776213640633467e-01 2.381406395560803357e-02 -3.232555424106060560e-01 1.597414853100655563e+00 -4.863785837784975752e-02
-8.651230773492341042e-02 1.500973022702602466e-01 2.852168209894431761e-02 -2.856453795813218011e-01 1.498816921650789169e+00 1.875428627673979831e-01
-3.276521602114407239e-02 1.641246826070867360e-01 4.666934716501380809e-02 -3.289658517450178565e-01 1.640474351924024132e+00 3.628260259711070523e-02
-7.090138445596369521e-02 1.863084259023309319e-01 7.921458314478044271e-02 -3.068740162164032004e-01 1.817757532714245672e+00 8.962868818092190049e-03
-6.610538511569259701e-02 1.569451974178273645e-01 4.756138198871814882e-02 -1.552202298882597864e-01 1.752543482169040878e+00 -2.519968030158784011e-02
-8.672887624810368679e-02 1.129654902442889103e-01 4.956413459934624899e-02 -1.094281690684280051e-01 1.716893427168896924e+00 -6.758207472462061938e-02
-6.439027091204289899e-02 1.261289779943964851e-01 4.292892353930011229e-02 6.119828042303199038e-03 1.758637536544351176e+00 -1.465903902138314743e-02
-1.137609016862044520e-01 1.230729212868161004e-01 4.988254411808484834e-02 -9.443415752490411270e-04 1.806267826938161125e+00 4.859655282235684354e-02
-1.024355649148839392e-01 1.845142111652237349e-01 7.460212508248648122e-02 3.611948121573536202e-02 1.660660528305822670e+00 1.080258685256268308e-02
-1.105143346854508823e-01 2.008417393243425719e-01 7.027395852121726127e-02 1.353956437587359174e-01 1.681431971213993570e+00 6.788815835270160803e-02
-1.013067152077927607e-01 1.750921704235209320e-01 3.036910980438395358e-02 1.930889032790185367e-01 1.684777436262849371e+00 2.253360490162912011e-01
-1.309752701219641380e-01 1.611100834260565107e-01 3.641699782705920541e-02 4.137597851196933574e-01 1.625193665802664666e+00 1.028786394928433573e-01
-1.108826164975244416e-01 1.536781990952189036e-01 4.368555188131079126e-02 4.924270793134578605e-01 1.623148702046576242e+00 1.175682614463799402e-02
-1.255353987130767568e-01 1.377584301474747419e-01 1.435623115371087444e-02 5.017562458278089776e-01 1.565507309541253278e+00 -3.480446415659266962e-02
-9.478581276311522086e-02 1.339261705746679076e-01 -4.643628770525931593e-05 4.610121851566174600e-01 1.166720033151673830e+00 -5.825642732974194160e-02
-1.020807683681388134e-01 1.438858479560756465e-01 -8.088130104682067500e-03 3.004233303503152652e-01 8.017226428001041905e-01 1.354449200972582257e-02
-8.520126091570877358e-02 1.700026295414560629e-01 -1.180655162996047114e-02 1.995957969179379399e-01 6.928725965373681017e-01 6.908414776625680653e-02
-6.582307050504583590e-02 1.895306178943920450e-01 -1.701641560961128508e-02 1.374657994132198469e-01 5.088394536662156353e-01 1.082002549036587989e-03
-3.536114921368042202e-02 1.469296039001999621e-01 2.741589397313234922e-02 -5.501631597273064916e-02 3.072740569702405236e-02 2.504725474946869687e-02
-4.165580423102367702e-02 1.354802272075228131e-01 4.113717497319299699e-02 5.716823307516585156e-02 1.250582781416594291e-01 2.728165163351890798e-02
-1.960514063301416893e-02 1.312338565283311109e-01 4.563997400960681516e-02 -2.165289921392591910e-01 1.838961638977272273e-01 -6.118358756320755459e-02
-2.847314062310402419e-02 1.310606630447621046e-01 4.463273198779380002e-02 2.099899357980547776e-01 3.584019476243124891e-01 1.109893083935018232e-01
-4.357387801678331424e-02 1.448834010257903093e-01 2.215616478934584466e-02 1.021060976473981002e-01 4.158946049091190589e-01 9.473666751082394921e-02
-4.822520985856051240e-02 1.425313684347671306e-01 -1.194877393880822147e-02 2.015013739889495725e-01 8.022857310766192684e-01 1.170809561402007537e-01
-2.036279012004382771e-02 1.100928256283204704e-01 5.149961175324851981e-02 -6.742599302208351908e-02 7.187264939601669678e-01 4.708509470514130046e-02
-1.366417855938964129e-02 1.400368247272897049e-01 7.556812417112165892e-02 -7.562463231897720295e-02 7.779980488368821723e-01 6.382823894041834978e-02
-1.601700135959259128e-02 7.658407315150247974e-02 7.677622792513663641e-02 1.968028888724747960e-01 6.137811615437558377e-01 9.434544545967933626e-02
-1.829384848735698260e-02 5.397455858100519421e-02 5.755147662538448450e-02 1.336734425528752213e-01 5.792182410797303005e-01 1.778991310926632480e-03
-2.657896079487884200e-02 6.330145049557696357e-02 7.485337705030747912e-02 5.546256599507789174e-03 5.079365912387534543e-01 -1.020154936624506625e-01
-2.886101288970971401e-02 4.836653180284027770e-02 9.008212241981347623e-02 -7.177291832477455946e-02 4.949141278697236079e-01 -3.051593321704492226e-02
-2.872958136244406491e-02 3.408455943905049079e-02 1.303322958887981886e-01 -1.448371948961863220e-01 3.929908914585499291e-01 1.057010865123775151e-01
-3.733381597440176697e-02 5.889807505615988342e-02 1.924229993686905615e-01 -3.615290354988456856e-01 4.882877267594044612e-01 -6.131228268056684166e-02
-4.536664713509503538e-02 6.514464098570521555e-02 2.196312013273056807e-01 -4.747405946621633954e-01 4.910643662696005385e-01 6.518223585195736559e-03
-4.924212814060776461e-02 8.773421531146408103e-02 2.590406453270384102e-01 -4.557277894702764232e-01 5.053778993377165962e-01 -1.943767459430071620e-01
-3.302456364329570127e-02 6.997422032914697720e-02 2.755464951623249892e-01 -5.163786567222155011e-01 4.355473821259748801e-01 -1.314380481378610022e-01
-4.491283040933823079e-02 7.658432159522969573e-02 3.092335220291138609e-01 -5.448637712518094034e-01 3.631977658761972316e-01 -1.459398814965800761e-01
-1.649005193094393168e-02 8.288455130219347933e-02 3.149489663603451950e-01 -4.215951846919820389e-01 3.785968309405941534e-01 -2.048000916680891015e-01
-3.193271449793914224e-02 3.304307374283693699e-02 2.941396129054468789e-01 -3.822451486675059740e-01 3.999429349513975440e-01 -1.639956199927003477e-01
-6.602944398826460226e-02 5.775563557661408248e-02 2.981825338732893016e-01 -4.102692617350827686e-01 4.200426810583545167e-01 -1.682902867130943170e-01
-5.274853742775165166e-02 4.822225917524318450e-02 3.183566676938703877e-01 -1.825363268329451838e-01 5.156648321274507341e-01 -9.112108678805105888e-02
-7.919877605158638645e-02 4.118576664450964570e-02 3.123447367229689742e-01 -1.669025246429516329e-01 4.710087010962390464e-01 -1.638140842270979433e-02
-7.045810982163187852e-02 5.858797907167474783e-02 3.127147546848524362e-01 -8.736608634354860181e-02 4.893570532326383393e-01 1.808780480648629688e-02
-6.028797718949181761e-02 3.531263127297349508e-02 3.006279270162854345e-01 -9.352908210885996221e-02 5.023719883770686456e-01 6.803264644231464542e-02
-7.015184067569803228e-02 3.850072563151261951e-02 2.963932178266323048e-01 -1.370559297754955219e-01 4.866292148818507357e-01 5.255779867975260422e-02
-7.036603588762700701e-02 2.582881031876334624e-02 2.961942660344802358e-01 -9.691034776667266371e-02 4.875834669911403574e-01 -2.039126031751916735e-04
-5.170250102189584418e-02 2.673513459435552034e-02 2.992210093710186980e-01 4.425834292859912589e-01 5.899556213643416536e-01 -1.588316392975312186e-01
-7.980872689481456617e-02 6.639054308926160830e-02 2.975414338167910455e-01 3.537293867002971881e-01 6.115809276732059319e-01 -5.113634391268700313e-02
-7.074229422870342843e-02 4.614568271631192681e-02 3.092059666480542202e-01 3.369565589101876646e-01 6.235831418022705908e-01 6.443797875213763682e-03
-4.075103340470384583e-02 4.618536985051617527e-02 2.803157312775841903e-01 2.940431400363652248e-01 6.592787831440594104e-01 6.403143085153242819e-02
-4.471785288659790164e-02 5.999587004143196178e-02 2.210117845414633075e-01 1.458879275171314494e-01 7.844014830711451003e-01 -1.505142039173302040e-02
-4.248088881175006437e-02 9.754216570385125518e-02 1.952588511201283072e-01 1.124580525855574109e-01 8.503167019246377079e-01 -5.588420208874653183e-02
-4.735362722184344175e-02 1.075308778981925173e-01 1.788752491818683399e-01 4.968628686193438809e-02 8.705392521839167008e-01 -1.057323665383165107e-01
-4.960139766838192465e-02 9.116290941040489093e-02 1.835646445698842777e-01 8.054768040710263977e-02 9.469939076094666675e-01 -1.377127769293007113e-02
-4.432740483628732492e-02 1.091245172873776675e-01 2.161142049029009804e-01 4.616159373764711776e-02 9.602076864053008531e-01 -4.107686055020146748e-02
-6.205284008775915905e-02 1.101834394867528821e-01 2.374881604520354406e-01 2.944082802527016665e-02 9.914568311265027356e-01 -4.944778614308937420e-02
-7.676188915879970931e-02 1.052664443684829670e-01 2.412847030286022487e-01 8.392986282639483542e-02 1.026705942599461796e+00 4.699989796100396272e-02
