-2.537943698348252286e-01 1.573746687081003792e-01 2.016320571440663456e-01 2.321151808921702981e-04 1.251946403623203311e-03 -3.756723859822982264e-02
-1.563736122279741347e-01 1.136226738444119089e-01 2.031055545534236062e-01 2.003969015811443602e-04 1.501887382776144692e-03 -9.557837662932944234e-02
-1.525743136559794821e-01 1.083482914794970803e-01 2.046380529156172634e-01 3.420574369433137195e-04 1.341746460232617639e-03 -2.523267950921171399e-01
-1.051851213711977040e-01 1.371221006895645411e-01 2.058678031727352309e-01 4.715311774428284383e-05 1.379250619280557874e-03 -2.889799201015070818e-01
-4.093797740980843758e-02 9.416829978497287534e-02 2.071629652424975543e-01 6.996416969612879501e-05 1.253979751167836601e-03 -2.028509667499039659e-01
-1.598128202513629526e-02 2.648189562286874105e-02 2.082453663485102635e-01 9.919747343218019055e-06 1.207067903602417535e-03 -2.274536937358437316e-01
-4.839601236083391350e-03 4.102354778812507263e-02 2.092931830782589486e-01 -8.380650777666738310e-06 1.079923208924714328e-03 -1.561374442945607510e-01
1.052989133727983001e-01 6.104036812673123424e-04 2.101033301796043640e-01 -5.993843564147704925e-05 1.422352459273787178e-03 -1.146304240897849519e-01
9.222562352827562426e-02 4.168903969811092042e-02 2.109307809325135508e-01 -9.821884667731217776e-05 1.022569765530040916e-03 -3.058129820907282137e-01
1.377605524850561425e-01 7.737587580462949172e-03 2.116628888168977651e-01 1.805509881311017880e-04 1.243913217655425937e-03 -2.063550976512599222e-01
1.405697514910242418e-01 7.039745669425254843e-04 2.122113460510492433e-01 -3.022147763832153775e-05 8.826272796098918582e-04 -2.814273260061858628e-01
1.447510460334656135e-01 -5.983462882322448245e-02 2.126425756162768077e-01 -8.843940537517251471e-05 8.498677980428858162e-04 -1.852094180799945533e-01
1.519233718156135782e-01 -1.244300736635578081e-01 2.130561563423514215e-01 2.594735113419500928e-04 1.084249916105808637e-03 1.767010781472568709e-02
1.566448919810665696e-01 -9.513079518371331256e-02 2.132635214562818571e-01 7.929754165527041034e-05 9.142165231786975521e-04 -3.953546840255795641e-02
1.652473115487179400e-01 -1.139753888720288627e-01 2.133887697082864632e-01 3.936168078570777360e-05 9.619169462585058479e-04 -1.510553354432913331e-01
2.148331096058678780e-01 -1.318608179424012317e-01 2.134844969181878827e-01 -1.106569671518177310e-04 9.363860731918878695e-04 -2.742618804705726845e-02
2.231620637146854991e-01 -1.533375093303512293e-01 2.136231396084487533e-01 2.039750294026080655e-05 8.646634493145878130e-04 -4.817132795732621819e-02
1.858256667163917797e-01 -1.759019705014426838e-01 2.136389673971832992e-01 -4.314258481897099523e-05 8.116308238751185518e-04 3.234356611063824577e-02
1.767933835044464830e-01 -1.452492928731901611e-01 2.136464782516776517e-01 -3.598548253065536758e-05 8.593404302115544187e-04 3.278913959735189898e-02
2.046718968047002152e-01 -2.115903219868850993e-01 2.137758378567795603e-01 3.131889810084387054e-04 9.845016701761138619e-04 -8.447153789733055640e-03
1.900561665781579368e-01 -2.280116794098634436e-01 2.137534567616832248e-01 6.607825517426154933e-05 9.046591542007879211e-04 2.930002194036226276e-02
2.120788445571696046e-01 -2.067470447370462761e-01 2.138444250697142945e-01 9.418936021982840122e-05 9.239807069647467536e-04 -6.595761197522546915e-02
2.006980439142597716e-01 -1.281560357408110529e-01 2.139464001906524748e-01 -7.453524837547752398e-05 7.571724642303835932e-04 -1.147416323472355837e-01
1.829482493066857396e-01 -8.540967167578610020e-02 2.141667371243110574e-01 -8.747964600461441962e-05 7.292531401978474912e-04 -1.219582953545883253e-01
2.160119135941353796e-01 -2.543529109478737810e-03 2.144969778767708557e-01 -6.987373438730002263e-05 7.450661662553333510e-04 -1.183946914384590154e-01
2.475188289297760302e-01 2.468545330430432089e-04 2.150182500597084823e-01 7.740772393247684401e-05 7.915554814218863982e-04 -2.099068660115763763e-01
2.256220219840079366e-01 2.747318679706459155e-02 2.154869642638922445e-01 -2.158145215804082489e-04 7.184414926362541658e-04 -1.876524993383298645e-01
2.152132748305725374e-01 6.837975878775932881e-02 2.162927491981638806e-01 -1.278577417646766922e-04 5.574944997679970185e-04 -2.037830259238928299e-01
2.719120727602909460e-01 1.291626165532715198e-01 2.171138734058447040e-01 -6.503318116862979320e-05 6.454402096648371957e-04 -2.468582565048864919e-01
2.973938556408163847e-01 1.848995220633222192e-01 2.181073910572761121e-01 2.518006198560798705e-04 9.158770695102416920e-04 -3.812923390451173900e-01
2.986510445214022869e-01 1.349266026451731992e-01 2.192965482447428172e-01 2.607259360384901617e-04 7.129715121868276332e-04 -4.450717375826722111e-01
-1.232476982417162470e-01 1.315923579072872107e-01 2.003760541348779123e-01 8.994925051333232989e-04 3.616155145616586084e-04 -3.158742656658406478e-01
-6.892909066438246413e-02 1.385714866274028734e-01 2.014996112758984936e-01 4.203195713889701542e-04 3.747518741026372672e-04 -4.350147907847279338e-01
-2.313318317478809533e-02 1.504853677289539060e-01 2.028237494612468717e-01 3.183099404832258344e-05 4.565079264875806500e-04 -3.639285844029505612e-01
3.190013119577213285e-02 1.408912748751949828e-01 2.042621586009009671e-01 2.617502808705916427e-04 5.502673166862089493e-04 -4.239470003774633011e-01
9.193471384812040847e-02 1.773287951389228845e-01 2.057452068785313171e-01 7.406376463765653535e-05 5.973939193025756779e-04 -3.310641585924296582e-01
1.787047738743215985e-01 1.860794425207141778e-01 2.072737297441939464e-01 1.403463845728602523e-04 7.607676000805620392e-04 -4.440596487815263171e-01
2.289803232837389901e-01 2.292029606915400031e-01 2.088914343597242373e-01 5.548616308914225854e-05 1.061480508913787042e-03 -5.015864857899623441e-01
2.700690242786875639e-01 2.208356560787980982e-01 2.106642253003852550e-01 -6.755072864911931504e-05 7.151916180639835688e-04 -4.230594104246795939e-01
2.878725805050437181e-01 2.139056773462079952e-01 2.124479522392075936e-01 -1.407161098149088778e-05 6.506872422882656760e-04 -5.949320415618970515e-01
3.609397072565195819e-01 2.820297216671087681e-01 2.142907520256943643e-01 1.536359273192767954e-05 7.372708415526164861e-04 -6.120982017663110231e-01
3.550132600237537184e-01 2.618758771304368627e-01 2.162614706557099975e-01 2.364348296001088986e-04 3.561563419969644901e-04 -5.106734477419395679e-01
4.318808272462867914e-01 3.323396421326088035e-01 2.181231524485391926e-01 4.843922200012839208e-05 5.642752813197625568e-04 -4.471030465462890180e-01
-3.886653291481133310e-02 2.840875232717834376e-01 2.000910133472869057e-01 3.992964592195923996e-05 -1.319170699403918070e-04 -4.602487387588267143e-01
-4.544573132764782863e-02 3.278196554371862192e-01 2.021937986963219247e-01 -2.016746903915484217e-04 -2.808220452693079581e-04 -4.135273482418398427e-01
-5.224781355774602010e-02 3.428403669747231985e-01 2.044041571044720174e-01 -3.018523945167576102e-04 4.712414293574776957e-05 -4.081013309927009614e-01
9.775598606093935383e-03 3.503060467762457164e-01 2.065701642719631748e-01 2.256438423173230765e-04 -2.412480076897316418e-04 -3.951863276811591885e-01
5.710907891383714546e-03 3.879036827360262674e-01 2.088657334254213627e-01 1.353996284216017255e-04 -3.446568045854692011e-04 -3.872235251119833799e-01
1.201032759827211222e-01 4.653404393901502401e-01 2.109910415975220221e-01 -1.468984871114159974e-04 4.391612264723616758e-04 -2.704730297439149611e-01
1.296078218662046200e-01 4.899176976190420807e-01 2.136071513803002309e-01 -3.086164243948304230e-04 -1.999849281157110501e-04 -4.066626728105378619e-01
1.642840770992129718e-01 5.210955026227838127e-01 2.157924036631128639e-01 -4.805274979208017734e-04 1.245540985462619172e-04 -4.358240104779192992e-01
2.023169214275738481e-01 5.072819288926564418e-01 2.184330949041073944e-01 4.042337773566825410e-04 -7.943367720421129442e-04 -5.042989897064079630e-01
-2.997311961168575012e-01 5.396498151176647440e-01 2.005063364514300672e-01 4.428371484530310796e-04 -1.026430146376229981e-03 -4.552149209781883310e-01
-2.143203755420202694e-01 5.686906546653007766e-01 2.031426410836572050e-01 -4.505003258655009240e-04 -1.581039632203874550e-03 -3.386670272678514726e-01
-2.023914918468306123e-01 5.817092977361167927e-01 2.058385047043706506e-01 -1.041763745909494348e-03 -1.661558194462992412e-03 -4.418111008747793722e-01
-1.633895456156627402e-01 6.531405880277135756e-01 2.080405092525339228e-01 5.249777239662872406e-04 -9.020741293535310297e-04 -6.310459074473994123e-01
-5.835621660632513141e-02 5.905642900610615920e-01 2.108242028936335166e-01 5.607396392062975786e-04 -1.301358871549658904e-03 -4.954818408690317422e-01
7.607943901918531870e-02 5.910442991402445889e-01 2.133757951951296694e-01 4.950102725796223313e-04 -9.289176956486102461e-04 -4.741471452939415299e-01
1.636491748976842964e-01 6.154096997378982747e-01 2.159530929825206891e-01 7.392721736891110732e-04 -3.906345197354824084e-04 -2.136808485603200469e-01
2.413613542391913336e-01 5.348780134257238306e-01 2.187470571637439853e-01 9.984721562008881928e-04 -7.966005120541712640e-04 -1.363038638453289986e-01
-5.375718191214189090e-02 4.315062852946690009e-01 2.016923848490329574e-01 3.710242430321769201e-04 -5.890110162075061105e-04 3.119250023805415772e-02
-3.569217027593600544e-03 3.546446923870155699e-01 2.044682370153879103e-01 1.628447295854357820e-04 -9.278726387001568323e-04 1.262424752389850469e-01
5.310115928261834733e-02 2.985841079807499132e-01 2.072847101348869181e-01 3.483952427438142749e-07 -9.655266184391071878e-04 1.338120624192369601e-01
1.005927259199465712e-01 3.269327845275484812e-01 2.099109165069948379e-01 1.249922711306389756e-04 -4.498232925499586702e-04 -5.351699055934103222e-02
2.299082334199142319e-01 3.582330908107808076e-01 2.128185259761810055e-01 1.799006379882162206e-04 -8.296917671356288061e-04 -1.290191516620197154e-01
3.739837713090204963e-01 3.989629712695748620e-01 2.155662480006815818e-01 9.212381219877209006e-05 -7.081060838109914718e-04 -1.286818013336057387e-01
5.274374585129201209e-01 3.262602485981818679e-01 2.183678223460215340e-01 5.163392946665323760e-04 -1.077375658485232044e-03 -2.598591639872597781e-01
1.019692673417456619e-01 3.544932065711732250e-01 2.000964540056371921e-01 -5.379204222012576786e-04 6.724512246569069179e-04 -1.957020123431263969e-01
1.240396865283440592e-01 4.064964489983868834e-01 2.029163478908969642e-01 3.995477113934952338e-05 1.174024675672207386e-04 -4.670707239801603627e-01
1.866273994147427118e-01 4.169771267138579485e-01 2.059085673969585084e-01 1.744995810583043069e-04 -6.794678349639314693e-05 -4.144181361673974773e-01
2.610733721859533341e-01 5.123915776958182233e-01 2.086830123320875252e-01 -2.864916565808956557e-04 5.512997786422038768e-04 -4.273331907685007369e-01
3.408694862548591331e-01 6.063529950094147525e-01 2.116963083292093817e-01 -1.195750633435591233e-04 3.164234285862527261e-04 -4.541825316569007009e-01
4.205129373918505831e-01 6.032363776642314379e-01 2.147440670643694371e-01 5.392935292075290779e-04 -5.825707247908070438e-04 -6.056902790215905608e-01
4.017750363372865618e-01 4.932971745904861094e-01 2.175737154933791162e-01 1.485387128292949737e-04 -7.915498334802898925e-05 -5.125246054148863140e-01
-1.489111583540452810e-01 5.315718329642775686e-01 1.997383643333901504e-01 4.296396823702131610e-05 -9.629640614411883641e-04 -6.337243456147261256e-01
-2.240990842362675928e-01 5.338099597526202444e-01 2.027215775242187101e-01 3.111971636138884242e-04 -7.304750893488430640e-04 -8.488527273302407528e-01
-7.680161839519779321e-02 5.020794233583116828e-01 2.056495829014545751e-01 1.222909302699403138e-04 -1.487159345406041926e-04 -8.406130871566327434e-01
6.514371029146767689e-02 6.061706254283822926e-01 2.086199882237352310e-01 -3.828154496693070524e-04 1.115120244126059282e-04 -5.845612169131827462e-01
1.120939341802558303e-01 4.955567635416834871e-01 2.114099372674402844e-01 1.257161653870921512e-03 -6.133166683503194860e-05 -5.378199570968242860e-01
9.910182760984503902e-02 4.043827733793768919e-01 2.146401728040134294e-01 2.434935887695026965e-04 -1.737921176112172119e-04 -4.082097007011489254e-01
1.798470277038970722e-01 4.293461826651556734e-01 2.177406163337431422e-01 -4.696459017107399776e-05 -4.309706275231623687e-04 -4.188377118561865120e-01
-2.630352555497333933e-01 4.576558850187588678e-01 2.005221084135649368e-01 -2.488456546740866232e-04 -2.975953880871039562e-04 -4.096857751899044553e-01
-1.273237275743925867e-01 4.825109946314868892e-01 2.035153871843790596e-01 -1.162099599106241574e-04 -3.857132708013120775e-04 -3.555101417157296440e-01
-5.139034045307418197e-02 4.216423272443436399e-01 2.064792338609520717e-01 3.035434099472257194e-04 -6.177419300327037293e-04 -3.813378833337032203e-01
4.390246606111595368e-02 4.021499921315239701e-01 2.094615278483797360e-01 5.932760768784580704e-05 -1.998313597426836451e-04 -2.398566089315091465e-01
1.117211687815282545e-01 3.882876809831537490e-01 2.124316926926748672e-01 1.436139157421893080e-04 -4.042141181489226822e-04 -5.886379383035601487e-01
1.703896728333496591e-01 4.324466517084774586e-01 2.154292360660701733e-01 3.105875067948014640e-04 -6.952604381683380463e-04 -6.831809923472313972e-01
2.805470930518123573e-01 3.858781817551097948e-01 2.183744793133458040e-01 1.040148805772830989e-05 -9.988000631130481723e-05 -5.115949193952178398e-01
-2.059732545468533071e-01 4.638113225400308237e-01 2.011268173999746778e-01 1.319238610642318966e-04 2.496839317248337347e-04 -5.504343700278413465e-01
-7.134639053454602808e-02 4.557138186594148488e-01 2.040526540460728677e-01 2.845214703761195468e-04 1.537905158195128114e-04 -6.694597831924028464e-01
-5.397065930926338989e-03 4.374321573981069244e-01 2.070639416394580712e-01 1.238192376302507105e-04 3.115718484634086511e-04 -7.076988846618467166e-01
8.977273794364337700e-02 4.931015632776009627e-01 2.100550881772860201e-01 5.758474085136872783e-04 1.004894200346966872e-04 -6.582560019128520512e-01
1.493999379321988563e-01 5.239723013406581975e-01 2.130703441216940108e-01 -4.176709034605935325e-04 1.902652891417119113e-04 -2.230708782772712895e-01
2.808743550803587952e-01 6.083145522481488987e-01 2.161268118403774086e-01 -1.784069421931897527e-05 6.505254596319513111e-04 -4.123394068624121611e-01
4.408093958013321045e-01 6.688907324280104483e-01 2.192086181586208049e-01 -1.651515973227678181e-04 8.788675584657502883e-04 -5.363562504337018311e-01
-1.251018817086627100e-01 5.068995260082842513e-01 2.020422542126876775e-01 7.299116888574853478e-04 -2.835627568684319214e-04 -3.975386909659667234e-01
-1.573879517533152000e-02 3.985551308278003635e-01 2.050283888010517308e-01 5.795815906084212385e-04 3.309278347022227710e-04 -2.244168660304072527e-01
6.024607459970325596e-02 3.659870575498577194e-01 2.079903212355376785e-01 1.479984572773154750e-04 4.566180860760084064e-04 -3.503614399538602098e-01
1.149141303841438033e-01 2.367650159323331227e-01 2.111602094227417181e-01 1.497497295825210985e-04 4.119503720992308336e-04 -1.218746194441937825e-01
1.553202436216804538e-01 4.239076924919908951e-01 2.140232306252560224e-01 -9.851407432012123679e-05 7.520577503828618443e-04 -3.534046721166042571e-01
2.286404326177148005e-01 3.776416621367730819e-01 2.172836621279068958e-01 -1.165344418823521263e-04 4.837305446698200208e-04 -2.036065341079157653e-01
-2.987322847738324572e-01 3.883361645293801900e-01 1.999780400970486149e-01 7.583938165359097700e-05 -1.581828143420553178e-03 -3.152904121302771423e-01
-2.257757133453467679e-01 4.253101699945046055e-01 2.029292532143236460e-01 -2.227748282735916930e-05 -7.135049155385938353e-04 -4.095050448234126561e-01
-1.441699923651474924e-01 4.964231660078642916e-01 2.061281180013068703e-01 3.013312160136351532e-04 -1.104000563562641812e-03 -3.272852871294068544e-01
-9.717527415966285831e-02 5.255650323572250704e-01 2.092133791960220646e-01 6.153075446317105761e-05 -2.481705460832648474e-04 -2.220494731741363414e-01
-6.761866008984097898e-02 5.856304351043146728e-01 2.124354837152750419e-01 1.295400728451189985e-04 2.985633177313810893e-04 -3.801964571966373052e-01
-1.480266482624867895e-02 6.727938716853654189e-01 2.155214583678698448e-01 -3.260320088967091326e-04 1.709022009819831074e-03 -2.328596405187394747e-01
6.937088979530703359e-02 6.752761552814523505e-01 2.185520259909999874e-01 -4.419619614283061684e-05 2.052921310320530209e-03 -3.159042007587922196e-01
-1.332556970160106158e-01 7.297022808007536110e-01 2.015295070770847241e-01 1.521385356287740674e-04 -1.401899015344154620e-03 -1.499193646651682532e-01
-8.181262942578068631e-02 6.321618913003066442e-01 2.046660870623487893e-01 -1.030267826612701364e-05 -6.233189186340727661e-04 -3.960863037000976195e-01
2.067314162751222317e-01 6.357134080333179948e-01 2.079866418147072182e-01 4.150409163493387317e-04 -4.469717604486891536e-04 -2.825865816893910476e-01
1.220294667980867387e-01 5.401721102902420357e-01 2.111504394731287260e-01 2.746323868122993906e-04 -2.062980500764879010e-04 -2.467397284772190891e-01
1.553535371860617909e-01 6.189907853373730617e-01 2.140411762380182714e-01 -9.781889091083336503e-05 6.298104283826515791e-04 -9.114292763959859489e-02
2.340212436708955512e-01 6.487138190526328119e-01 2.172965702110393749e-01 -5.178322103283875580e-05 1.243208581672037997e-03 -1.785922903239963166e-01
-2.370579716093669798e-01 6.259812766598649159e-01 2.002555376307439960e-01 5.389547534628562515e-04 -7.212921452094760676e-04 -3.402394032168413185e-01
-9.310245329031650863e-02 6.069324949784898893e-01 2.034468193463928598e-01 3.032783269111322035e-04 1.152646497766113547e-04 -1.541400870784584431e-01
-1.709828743035408938e-01 5.378080048633917531e-01 2.066506346220095547e-01 1.877405173256187730e-04 2.633558675272821095e-04 -2.232804518956035267e-01
-1.246005970443281735e-01 5.578677059352696865e-01 2.096444551592740457e-01 -2.075757920984418138e-04 3.952415523829800746e-04 -1.697228314960891882e-01
-1.567497686244553531e-02 6.441314262265621648e-01 2.127866067620615698e-01 -3.870664467507743244e-04 4.254303819415167416e-04 -1.032650747347465744e-02
7.201815985324772074e-02 5.407604562161906214e-01 2.163123414533197897e-01 3.238000612964805425e-04 3.477454504092365988e-04 4.888047605635019964e-03
3.603039575362819436e-02 3.830065566614991313e-01 2.197452410361934172e-01 5.235959321957497003e-04 5.787016026804051895e-04 -8.022546590727694382e-02
-2.972986063352324737e-01 4.358044080198467118e-01 2.018525936168463208e-01 -2.513537052204140249e-04 1.553823081461900343e-03 2.658043173125484993e-02
-2.426912705155514494e-01 4.789190761136269403e-01 2.050517486025240088e-01 -1.427313235053989280e-04 8.460246651232741820e-04 -1.166194905219133521e-01
-1.304659046050238580e-01 6.002875098619124827e-01 2.079959801055994983e-01 -2.874014805007464048e-04 1.139693191743512343e-03 2.205560949012025374e-01
-1.125154776841162385e-01 7.025010344514316385e-01 2.112394350226194928e-01 -1.123499518871053028e-04 9.188532963666367097e-04 5.869964365150948105e-02
2.385089102084712170e-03 6.771477169007076302e-01 2.144702085391177460e-01 2.588102990653212785e-04 8.571952362455472624e-04 2.197503759735913442e-01
4.791605884986964436e-02 7.075422795667255516e-01 2.177892617576459577e-01 -8.074712129366455647e-04 1.172770686747715262e-04 -5.389623770378161940e-03
-2.222477813008523206e-01 5.498328355753135943e-01 1.999230545670141468e-01 8.446821667571357704e-05 5.464747963590049166e-04 7.283933677533756257e-02
-2.303922471446503417e-01 5.148672373869327412e-01 2.029467950285264721e-01 -1.172772166141296507e-04 4.750496958433661206e-04 -8.871486604064568460e-02
-1.270562883362791606e-01 5.943814987028436247e-01 2.058142231359261221e-01 5.564990688275281487e-05 3.686613454397702125e-04 6.629309932320526233e-02
-3.585523460488608538e-02 5.374396609533116376e-01 2.088198216606797497e-01 2.324251470292792933e-04 8.312299392467801303e-04 1.203527033476868742e-02
7.093608950969979010e-02 4.714919606817995490e-01 2.118055838867236584e-01 6.708866911064874275e-05 5.232697835395029541e-04 -1.860169902456590696e-01
2.191626223985362609e-01 4.223829518289158869e-01 2.148188389257231212e-01 -5.925654480476324316e-05 4.465301906691044698e-04 -3.717852037590083092e-01
1.946492245086887118e-01 4.705968708414664525e-01 2.176965859141655191e-01 -5.790943765562657378e-05 2.821006840164027359e-04 -2.040855080385372000e-01
-3.107872100676680738e-01 4.635841122088904531e-01 2.003075106095094648e-01 1.908642463336244588e-04 -1.283420981652060380e-04 -2.546526988329532171e-01
-2.487078528252150145e-01 4.117926076730840101e-01 2.032359231501955632e-01 1.247021386640610969e-07 6.364046174756786889e-05 -2.367880298667584260e-01
-1.474121234307410877e-01 3.234323320311194294e-01 2.059889639050226928e-01 -1.055694306922253108e-04 8.666638007583584178e-06 -4.232115962479434668e-01
-2.681999418610702887e-02 4.032124669775199455e-01 2.088394403855015624e-01 1.843820593800689746e-04 1.834414097632119218e-04 -3.526449478899260637e-01
9.958608923294062776e-02 4.997813259153677246e-01 2.116114248179788992e-01 -9.714447251637993615e-05 -2.631168992354477684e-05 -3.360633557892477863e-01
1.563766778802398727e-01 4.687959080157046432e-01 2.145023680992192983e-01 2.187975786262683314e-04 2.383323227196194817e-04 -2.384942294096067117e-01
2.907624011016846644e-01 3.607148966759411435e-01 2.173031959447295769e-01 -1.434352505878343893e-04 1.101583634245923386e-04 -3.290892831198728441e-01
-2.684315395099780566e-01 2.571497336202923645e-01 1.998393777555325102e-01 3.141075494774136492e-04 -6.751820109810186942e-04 -4.087644174586225754e-01
-1.259152847286664767e-01 1.856718511760457879e-01 2.024258776143689764e-01 1.047470169839388916e-04 -1.021498316658903441e-04 -2.508625171350443717e-01
-9.895604705480265384e-02 1.698417424649152352e-01 2.050935320105673476e-01 9.060381286245375223e-05 -2.578312104800172368e-04 -1.795741019914260661e-01
-1.100524250067261289e-01 1.230677357222706714e-01 2.078446452926602239e-01 4.765738967085829218e-04 -4.879312011891580265e-05 -1.199705862598632738e-01
-1.089309777125815615e-01 1.032927549045905696e-01 2.102403184855235474e-01 -5.127040299396631103e-05 -2.118572423836578779e-04 -2.090844546862303255e-01
-5.302159613902351909e-02 1.733270901430205013e-01 2.127293012157557284e-01 -2.915562879803559231e-04 -6.412856628931591575e-05 -2.295345903294465917e-01
9.240059543465975467e-02 1.647907113425733094e-01 2.154296570432536195e-01 2.161905631381112313e-04 -2.575707775660805832e-05 -2.066326880663594823e-01
2.304550708145803872e-01 1.097747009423211267e-01 2.177789966740614758e-01 -1.853774505864505811e-04 -3.463184644806637565e-04 -2.904810432667125353e-01
-1.630041010853326700e-01 1.466405137592934893e-01 1.997399993827017606e-01 -1.219031433293161907e-04 5.452379685427223262e-04 -3.248790287049138636e-01
-1.267698250172384355e-01 1.190122537095529009e-01 2.021031993383226033e-01 -9.215161364993927260e-05 4.885329293763993703e-04 -3.526507403382954653e-01
-1.344738557405303521e-02 8.414898953659027958e-02 2.043560936327108446e-01 2.739353273595555589e-05 3.799023821295689773e-04 -1.629748675556129400e-01
2.236512796954676779e-02 3.839426907318918558e-02 2.064644419120984509e-01 -7.566131201863942040e-05 1.423309042007286961e-04 -3.124493766388776739e-01
2.049948642380883257e-02 -2.662790440485185428e-02 2.086241908764431274e-01 1.205450613166904865e-04 -1.625825220680532130e-04 -2.351358998094841279e-01
9.251345050750992005e-02 -1.730630174629059145e-02 2.105390306984504245e-01 -1.017490534600700342e-04 -5.744322922313692490e-04 -2.002242047789915824e-01
1.598399620820331324e-01 -2.745078658754676257e-02 2.124738706902927210e-01 -1.017897111885906243e-05 -1.005636606905891501e-03 -3.288892681218832381e-01
2.053340972556365607e-01 -5.575893645531525278e-02 2.142566749377665114e-01 -9.048076297725086503e-05 -1.485972934410048803e-03 -4.070827101084574795e-01
2.809204137538887647e-01 3.885554328852279873e-03 2.160161703850205228e-01 -7.722339071207039282e-05 -2.095470840580767637e-03 -3.925738759266214628e-01
2.382103482268934924e-01 1.142532887244315787e-02 2.175760122834180521e-01 -1.059144912059780492e-04 -2.664375907393964297e-03 -2.624808775194015231e-01
3.161380123566593925e-01 5.881260901198291473e-03 2.190317445514559647e-01 -9.077883086749515690e-05 -3.254759207632200359e-03 -2.791548714052397573e-01
-8.450178547280301489e-02 3.595903601478324385e-02 2.001103254763170192e-01 -5.677422817086214534e-06 2.836084678831842735e-03 -2.672301747534894800e-01
-9.274271844616332333e-03 2.865975086614210715e-02 2.013776556955022556e-01 -3.046981110221583743e-04 2.721976911091725151e-03 -2.453268057062477636e-01
4.800802506420789872e-02 2.436566551114400375e-02 2.025231552791097456e-01 -1.201490450644625827e-04 2.101725066536358922e-03 -2.867532920950401354e-01
7.444392307924199703e-02 8.332968679405685850e-03 2.034598119750879452e-01 1.487388031970508459e-04 1.539244982312361820e-03 -4.542784450336366797e-01
8.357272750097126390e-02 -2.903262350587706986e-02 2.043235139840596792e-01 -1.893911049846402743e-04 1.443954244336831264e-03 -3.657781983131415671e-01
1.011459315988453012e-01 2.354668369290748020e-02 2.049218788323724505e-01 -2.161498342316675039e-04 9.474289767655661582e-04 -3.641096333933790952e-01
1.414893767485953524e-01 3.062050110867837321e-02 2.055755465265588500e-01 -1.721827186725191725e-04 7.840684408752182383e-04 -3.873099587196405791e-01
1.460137886079404257e-01 1.021457689348387043e-01 2.059708130208303678e-01 -4.116593543511934991e-04 7.985810315549874945e-04 -3.713338560593545390e-01
7.496756012747507469e-02 1.075074071312035334e-01 2.064478899542470103e-01 -4.168237509678688669e-04 4.712302912863918706e-04 -3.516718263705266856e-01
6.657939954171071539e-02 8.863643395250860035e-02 2.067477870159005748e-01 -4.841520107743857735e-05 4.082449105238123701e-04 -3.708096040510768243e-01
8.766542836530989702e-02 1.055734117387643611e-01 2.068671999995960742e-01 -2.720453004657551833e-05 5.422546836852625268e-04 -4.268290555674421616e-01
7.046905606841169512e-02 6.021869121979617906e-02 2.070110029386811323e-01 4.523470188446089221e-05 3.632506685992768747e-04 -2.437594285681918271e-01
7.530785506044801458e-02 -6.311692717982110221e-03 2.070990942220733433e-01 2.574721466212077058e-04 3.844115529862032450e-04 -2.085181260048514784e-01
5.806875834140980130e-02 -2.216992608274194129e-03 2.071057734891355584e-01 2.718681002884094466e-04 1.665293377289162079e-04 -2.657927634287803320e-01
4.816861709495037086e-02 3.842959375562281926e-02 2.070949432047328176e-01 -2.958563344048473947e-04 4.079244332812189473e-04 -3.422263014087675859e-01
6.059374557180794568e-02 6.132648556631883213e-02 2.072052947127587808e-01 -1.196307872269093973e-04 3.792282901143678676e-04 -3.591618143694472187e-01
3.126521570847363984e-02 6.960635975457765690e-02 2.073139454513977520e-01 2.416254665321193108e-04 1.502258768964038300e-04 -3.132979777685785949e-01
6.878703165068254799e-02 6.980241489272366595e-02 2.075010260437912257e-01 1.911939361497211483e-04 1.748376895040938011e-04 -3.150671144114060573e-01
4.599150727095057539e-02 4.256646903712370256e-02 2.078207257680694253e-01 2.143825500959121286e-05 1.610203553274083929e-04 -2.884389090878908268e-01
7.627650481702769047e-02 9.836058163735836302e-02 2.081125193661917394e-01 1.758620511230609351e-04 1.430703736289953615e-04 -3.914157475992479651e-01
8.966401211064708998e-02 9.370072010654326156e-02 2.086990547417952868e-01 1.321510391480141785e-04 2.232775780491221018e-04 -3.204276137259694512e-01
7.953042092730328028e-02 1.234329923606218155e-01 2.092611934747961588e-01 -6.549053974214546646e-05 2.390251748952212398e-04 -2.415380050171766768e-01
1.069512647256147531e-01 8.800748841473364503e-02 2.100712830250088814e-01 -2.662387344971281792e-04 3.586688714379127453e-04 -3.406754665751393629e-01
1.125573896868973245e-01 1.860080035503139662e-01 2.109135586849579802e-01 -1.314207435444568657e-04 2.334185827836734724e-04 -3.435114297187445431e-01
1.667470102601215087e-01 1.947186495305851528e-01 2.119532348375448016e-01 -6.388305205807040402e-05 1.117651420709872291e-04 -3.528109193589882842e-01
1.802362623877242775e-01 2.128338946618089644e-01 2.131374067540726669e-01 5.435094568644840729e-05 3.356732785692083057e-05 -5.097729533076735819e-01
2.375181027854871008e-01 1.934617043783560253e-01 2.143479627079334926e-01 8.756078574316798096e-05 -3.180550496455796699e-04 -5.538798338282758804e-01
2.502690568429222773e-01 1.946979160859129698e-01 2.156510132905644639e-01 -2.607091438397746456e-04 -6.089066383870769122e-04 -3.947357248883924252e-01
3.267913854689142306e-01 2.361782460159843333e-01 2.171362985798154788e-01 2.983108504781841158e-04 -1.258484184687635662e-03 -5.980615770835772116e-01
3.651431058082080794e-01 2.606373075054882471e-01 2.185436686532719608e-01 1.515274422473995505e-04 -1.841629216680239949e-03 -4.644303224111508421e-01
-2.244036826590224964e-01 1.931061791868692867e-01 1.994594037710574197e-01 7.947486414789363364e-04 2.058292230605726116e-03 -3.272252939652012804e-01
-1.813680318109027190e-01 2.209289953152081820e-01 2.010407304819165630e-01 -2.918759004874279844e-04 2.605205411205231084e-03 -4.102914418388302620e-01
-1.767457667597519821e-01 2.348771837611210167e-01 2.027966475615577413e-01 -8.759178050999865523e-05 2.067934419550680660e-03 -5.002912334779990866e-01
-1.370205139166735808e-01 2.706156937878278490e-01 2.045636482693120595e-01 -3.814946613847333744e-05 1.881095431785715852e-03 -4.411276041109072898e-01
-4.822018199006117278e-02 2.967477573001982005e-01 2.064594726350848508e-01 3.802900966446485891e-04 1.305304410620381416e-03 -5.182878481907435830e-01
5.284305962413029384e-02 3.353470813087298663e-01 2.082875007836597070e-01 -1.212031184542671994e-04 1.028512693283406684e-03 -3.584791134970738979e-01
6.888222025415136063e-02 3.222933580884316807e-01 2.103846139987658459e-01 8.525635746285075737e-06 -2.947264290868325631e-04 -4.069373567276157178e-01
1.139946578859544063e-01 2.763599780858310151e-01 2.124411727000954375e-01 1.795101887332257919e-04 -6.023008186957693301e-04 -4.618311011102614327e-01
1.038484901399767957e-01 2.992998469718279875e-01 2.145390331669728146e-01 2.851869875077925418e-04 -1.302683173309484828e-03 -5.002876136398619611e-01
1.712363266364775871e-01 2.660352394355030570e-01 2.168088009723394549e-01 6.461753126112353184e-04 -2.144469313487928734e-03 -4.113238988836974697e-01
2.363800088743848171e-01 2.911944410317089948e-01 2.188438568609700208e-01 3.314798280957790438e-04 -1.938005425429943900e-03 -5.235130118729293125e-01
-2.757203246794142082e-01 1.785743239835000662e-01 2.006160856946753168e-01 1.516250129379760614e-04 2.332056813548988913e-03 -2.899733637249543028e-01
-1.784308974799846959e-01 2.088481883190098642e-01 2.028741138920697740e-01 1.561124255796263413e-05 1.259643478955700582e-03 -3.817151366404309409e-01
-1.574621882006163043e-01 2.290812132455372629e-01 2.053144448872258887e-01 1.444875100419218926e-04 8.875081469750467850e-04 -2.717898297257485551e-01
-4.860928939535870408e-02 2.622625305760594161e-01 2.075771428239127081e-01 -3.141242475612776737e-04 1.303904550595305937e-03 -3.489207755205425698e-01
9.323244331480205760e-02 2.719691801921378382e-01 2.101411019206456676e-01 -2.642240167291302252e-06 6.060450173953924611e-04 -3.293796742338815364e-01
1.514100720723302596e-01 2.834005648719239989e-01 2.125564532851477173e-01 -1.274459728014744764e-04 6.322081790507224795e-04 -3.142383844672222981e-01
1.814740211977350359e-01 2.568844493438953713e-01 2.152070252220882329e-01 3.839026028179457189e-04 5.639398517676654827e-05 -4.559282453141229596e-01
2.737160035910142786e-01 2.766523339809310311e-01 2.176268478168262299e-01 1.342386073366153639e-04 1.076065561560387294e-04 -3.996715372762681406e-01
-1.714995180236270067e-01 2.821235779915641229e-01 1.996819517862785109e-01 -2.989922907302146283e-04 1.494030043337510587e-03 -5.177883919563619486e-01
-7.532896489236209914e-02 3.286316548999811404e-01 2.021146737807692495e-01 2.994560251619244449e-05 4.951441557970412714e-04 -4.788978921471070405e-01
4.812891404322973410e-02 3.735451524457447103e-01 2.046577025021961149e-01 -1.733925365561066428e-04 2.384422069190581732e-04 -5.151689233244760580e-01
9.534295945685038187e-02 4.095981815426801287e-01 2.071691027840200650e-01 -1.379783985374777311e-04 -2.872900603783182734e-05 -3.578162425661003399e-01
2.023576423453463113e-01 4.308060494056771828e-01 2.097958065110482329e-01 -3.968814287617419552e-04 -3.142480659042176883e-05 -3.138950998854993513e-01
2.710852269571849549e-01 3.781874848505567543e-01 2.123966485910968593e-01 1.659710410459930481e-04 -1.187088801487971222e-04 -5.363520182351848575e-01
3.398284055680380611e-01 5.095002278644910065e-01 2.150489225528488535e-01 -1.724464114856664112e-05 1.678107959898617323e-04 -6.011526335222346917e-01
4.517020588963113203e-01 4.660955240283917167e-01 2.177825439834629728e-01 1.593205204247210985e-04 9.481746190945978853e-05 -5.558458830115504679e-01
-5.713261924004359171e-02 4.458176765010963272e-01 2.001034636438505654e-01 8.486002911520842398e-04 -7.138433087925057010e-04 -4.247434934180372990e-01
-3.500448545860573857e-02 4.581188372794052222e-01 2.028417218176319925e-01 6.305392483922019368e-04 -9.310415352452657174e-04 -4.076397825003800768e-01
2.607012794679570283e-02 4.610907075195566640e-01 2.055868233216860963e-01 9.890558834204680951e-05 -7.654960125226462813e-04 -2.025615681124099121e-01
4.242820073269103209e-02 4.482372354101819001e-01 2.083508010572555080e-01 2.114278894026934752e-05 -6.482691169056284440e-04 -2.098229242385189763e-01
-1.327351117506635723e-02 4.653219481595444185e-01 2.111160355328476901e-01 -1.136305349056831234e-04 -7.516600068860637912e-04 -1.825476827674679114e-01
9.543426187285891649e-02 5.063897693658272470e-01 2.138467794979265757e-01 2.408234415198035278e-04 -8.241524872255201082e-04 -3.063286194782400274e-01
1.395640329785001188e-01 4.917172683877790718e-01 2.166351440119035909e-01 -3.575328832330420203e-04 -8.455516111353012692e-04 -4.243959444002285419e-01
1.522728953908909499e-01 5.553085618838085047e-01 2.193597421043121942e-01 -3.966654061614928234e-04 -1.034741055795757817e-03 -4.128190928689133843e-01
-2.924516372608002568e-01 4.944051664459725437e-01 2.022840805261950092e-01 6.101477851794709318e-04 -6.919924751399692507e-04 -4.717528997587340789e-01
-2.768686367504213375e-01 5.267719024059132060e-01 2.049998738684564170e-01 9.124580803955656904e-05 -8.749362578838741807e-04 -3.980484806173065215e-01
-2.525574007128872922e-01 5.095002937054208259e-01 2.077158266279191534e-01 4.943089923280690249e-05 -6.466439327267430861e-04 -4.345060610648751043e-01
-1.413284877131688877e-01 4.464827978510755857e-01 2.105656169110060039e-01 7.849721200570345639e-05 -5.920710060974025343e-04 -3.479313077783855457e-01
-6.482375892985253740e-03 4.233569566624619807e-01 2.134879867796348751e-01 6.522928867091319096e-05 -6.112888098869602091e-04 -3.356160054689664163e-01
6.541895401961289602e-02 4.585563033314756232e-01 2.160913829524356844e-01 -4.390906734192152640e-06 -2.215102105342181364e-04 -3.643127014522052898e-01
1.133724126259546688e-01 4.606515303606796841e-01 2.190137235770749369e-01 3.768773723318865444e-05 -2.991822481038201994e-04 -4.322888565692957763e-01
-3.995953975596407415e-01 3.739116292393256935e-01 2.014116291720390306e-01 3.514322827651924380e-04 -2.005969527355856436e-04 -3.653047250711191629e-01
-2.815394141245192161e-01 4.178204188000436137e-01 2.040225585321400192e-01 3.649486359567572294e-04 -9.301148014621593942e-05 -3.600009901884475005e-01
-1.685871011157111521e-01 3.916954761800429674e-01 2.067250153762075215e-01 8.771422365393571376e-04 -2.393377891583401250e-05 -2.424834462299667037e-01
-1.144324371445831906e-01 4.474885560563434117e-01 2.096720345535597607e-01 1.865069718509851783e-04 -3.286849007122262794e-05 -2.907770152394580365e-01
-6.508241479424983766e-02 4.034925172832935503e-01 2.125584574769370794e-01 2.173209629046376839e-04 -1.778830578058170086e-04 8.310471615148818866e-03
9.146730610677793194e-02 4.275995332696577167e-01 2.153745604223482601e-01 -5.545581787619040140e-05 3.243511881438230024e-05 -1.216230803948261663e-01
1.143091144651735974e-01 5.043581136347891070e-01 2.181851283759098648e-01 -1.775546198689311286e-04 4.030986406849376203e-04 -2.260632819062044496e-01
-1.820172509275410910e-01 3.037734221284658642e-01 2.002603908204329541e-01 1.510828169736945070e-04 -7.105444452965446658e-04 -2.143902292971053836e-01
-8.879880194139012917e-02 3.466820178245515471e-01 2.030444219517639759e-01 -1.385625932162395371e-04 -2.266626167875202881e-04 -3.279094366686813311e-01
-2.285298744323658454e-02 3.743662764324893755e-01 2.057441645774120698e-01 3.097291493377673198e-04 1.046748967895795752e-03 -5.821675820622160824e-01
7.100909909879994653e-02 3.878195819897048424e-01 2.087258202969117238e-01 1.379754688806061685e-04 1.405377580948175822e-03 -5.369092989516760506e-01
1.778840898503699364e-01 3.961667735592253048e-01 2.116221646664487310e-01 1.402527095480991749e-04 2.244735234725074753e-03 -1.934169549191878668e-01
2.145437764799920100e-01 4.094903136960247880e-01 2.145561085892787601e-01 -3.394667048201195506e-04 2.523201066878852806e-03 -3.380377042398701737e-01
2.730416206745261420e-01 4.990951519497335287e-01 2.174484778871207946e-01 -1.278811901790483574e-03 3.500234245776855102e-03 -1.954477041234477241e-01
-1.711364451728234204e-01 5.095440735422362977e-01 2.002185540740709091e-01 -1.846703921937644223e-04 -3.356922284919440502e-03 -4.537143785089949310e-01
-1.399710130954600618e-01 5.043065328673609349e-01 2.030693254755564503e-01 -1.208812131024976811e-04 -2.218179555603228166e-03 -3.885692163781943598e-01
-1.360714747029684313e-02 5.364162439412404337e-01 2.058061222975563487e-01 2.366644320755397716e-04 -1.042607066639136566e-03 -4.854513666194168464e-01
8.401279857972086818e-02 4.966977460961085056e-01 2.088383867130017002e-01 9.385782831580166989e-05 -5.816966042388262191e-04 -3.498691008272113989e-01
1.455033418445110249e-01 5.241691091444472539e-01 2.116491365551657622e-01 1.573278092229665422e-04 2.952898212154657582e-04 -3.288108455135983488e-01
1.949067367310445553e-01 5.473169132346371590e-01 2.145045725845122764e-01 2.129330404804386651e-04 1.228245229723784688e-03 -5.839158740141986437e-01
2.792681394984777299e-01 5.609799249942597488e-01 2.173355574209515084e-01 8.498811585755704841e-06 1.879972721149864587e-03 -7.917851055904815416e-01
-3.355588445196122094e-01 4.327512250671970429e-01 1.991767005441374416e-01 -2.150488136706103727e-04 -3.634881798362702733e-03 -8.127572189205748421e-01
-2.554658381635421249e-01 3.756777525637409743e-01 2.018509361173014827e-01 1.153338881775240778e-03 -2.581794529660117951e-03 -6.731958469582826066e-01
-1.322634731974362265e-01 3.172714189299734588e-01 2.047564808635908840e-01 1.679265049034252939e-04 -1.971370725859842351e-03 -5.624463874167392463e-01
-1.872265109839009456e-01 3.133959510949888561e-01 2.075539941163055402e-01 -1.385637357524668943e-04 -1.277371517037406614e-03 -5.362288630386637944e-01
-8.166660338882864023e-02 4.302996738904454888e-01 2.103076063643588567e-01 -1.148977117740171617e-04 -2.655928541061336251e-04 -5.445153058648091182e-01
6.542670605842248327e-03 3.347076621146187758e-01 2.132129526639203743e-01 -7.336645458276005397e-05 6.401198626634284046e-04 -2.026872913536928722e-01
1.169953594558280352e-02 3.780901832342341562e-01 2.159705612108351880e-01 -2.172128523197411722e-04 1.119199990500810470e-03 -6.358991977476222690e-01
1.135288789844059870e-01 3.191101702990036815e-01 2.186724816751907663e-01 4.269418612482330129e-04 2.259235079833123681e-03 -4.624574791477715219e-01
-4.208717980976748319e-01 3.691201758852774018e-01 2.006723410718952438e-01 -1.523395685614244556e-04 -2.277255047823825360e-03 -4.715123751758797388e-01
-3.069238108016399957e-01 2.832292982698511041e-01 2.033142457675234938e-01 5.851934680661557053e-05 -1.078623454330407839e-03 -2.321554020185915279e-01
-2.449926819395263911e-01 4.106865879914273210e-01 2.061518777223446119e-01 -8.284424498692276523e-05 -5.006411403127619718e-04 -4.710051810927456950e-01
-1.772818867497770456e-01 4.213085074154788723e-01 2.092627105724617076e-01 -5.276321166959270433e-05 1.538650297168212802e-04 -2.011644967484306212e-01
-6.460549098908642540e-02 4.107770692092566622e-01 2.118213428427772049e-01 5.549953322258379534e-04 1.737487443075760776e-03 1.696974982102313068e-01
-3.126646992599430713e-02 4.357875339504110324e-01 2.148453088316224502e-01 -3.212385027739219994e-04 1.733409389131779091e-03 1.472082176061169090e-01
6.312182582418965349e-02 4.632580302355774338e-01 2.177515790878607471e-01 8.903732826664180987e-05 2.616439314336335958e-03 3.970710147988650018e-02
-2.469706118111850701e-01 3.622817801006572580e-01 1.996724692011522806e-01 -2.340637649391635910e-04 -2.353966821044720797e-03 -1.625061472693532238e-01
-1.550129675104797433e-01 4.406309056547606517e-01 2.027164041312850551e-01 -2.593644359852155870e-04 -1.758577775442347804e-03 -1.779133802040079315e-01
-2.271965155858015617e-01 3.404029068985495732e-01 2.058539618618984712e-01 5.034074495340265802e-05 -6.294077648434054199e-04 -4.682709088356531435e-01
-1.070999373291381673e-01 3.661196555036168587e-01 2.087173682407137965e-01 1.018812459103344360e-04 6.599875969018246342e-04 -2.926839025438801034e-01
-1.295907872040789610e-01 3.420664491231521498e-01 2.117807518733099692e-01 2.521436442419812429e-04 1.569150772490674134e-03 -3.220858999766880726e-01
-5.412196607632310807e-02 3.785761717110607272e-01 2.147053994880365746e-01 8.497501761435529235e-05 2.496204443246164729e-03 -1.762905884948130220e-01
-2.104426106115850348e-02 4.378337216493265460e-01 2.172869471147684250e-01 -2.503528519013366012e-04 3.395677936775973790e-03 -6.548903702905908841e-02
-3.341580040720653066e-01 5.048215360229352244e-01 1.999284038492968874e-01 -7.544725597249557451e-06 -1.518314578843261726e-03 -2.865704196194208686e-01
-1.755633755934943030e-01 5.179678875872524291e-01 2.028688446028186210e-01 1.483578696962807337e-04 -1.190943874025377543e-03 -2.278259137854855843e-01
-1.486387862879237076e-01 4.586424917696544923e-01 2.058059275850829817e-01 -1.647429507930060430e-04 -6.944010298757569057e-04 -1.312798252761776252e-01
-1.574441845882369045e-02 4.846927312306674729e-01 2.085952569027928472e-01 8.023017107576618746e-04 4.382208452022877854e-04 -8.854343145536457127e-02
1.649367870428568306e-02 5.742877818314504612e-01 2.115781130290527168e-01 -3.884010608578703080e-04 1.051993871449597795e-03 -1.074574956408349130e-01
1.342716600079446043e-01 6.336242256813218177e-01 2.144025397596707183e-01 -9.110285098107763371e-05 1.627315642378840063e-03 -8.948051604255345681e-02
1.796749513207533122e-01 6.189236908316996244e-01 2.173268830056533374e-01 5.701414091124403107e-05 2.366041935545067348e-03 -6.002867298906252452e-02
-1.502477149894379804e-01 6.000861211185699595e-01 1.992210236173972415e-01 -2.740291166581817125e-05 -2.578598169214176179e-03 -1.403334756920849580e-01
-6.919568089614416828e-02 5.611351392050956122e-01 2.019739936231961241e-01 -1.347051977524812657e-04 -1.346454730600305265e-03 -2.863564697430061590e-01
-3.916343215139730244e-02 5.747299908768843668e-01 2.049677697383447406e-01 -2.085644436100789862e-04 -1.301335038789657719e-03 -9.932828940434001996e-02
4.165426523206765957e-03 5.685084004616356435e-01 2.077935038203058138e-01 -3.864057709933537256e-04 3.168599719370869213e-04 -2.648787683774446178e-01
1.027535786314488081e-02 6.054318452086970836e-01 2.107122359828964009e-01 2.359917551085159891e-05 -2.807550587546883344e-04 -3.416294413220180015e-01
1.053695167800950128e-01 5.928392428730557828e-01 2.136275657438597708e-01 -3.789479187983228948e-05 -3.120470960154515463e-06 -1.886559974612737889e-01
4.176220072139173733e-02 5.654618197649968758e-01 2.166022570469622321e-01 -1.381990633122305763e-04 2.586541503798640455e-05 -2.592398432819484899e-01
-3.567204690912187948e-01 5.263164142513959698e-01 1.992099149484035658e-01 1.275604916260632965e-03 -1.278010947530506527e-03 -4.248827281658980048e-01
-2.941976074594059298e-01 4.958592850335237778e-01 2.021453205656701946e-01 1.931249644646775585e-04 -1.235884286364473611e-03 -2.472638617525236560e-01
-2.362436592958925274e-01 4.878604833641625449e-01 2.050318566899466677e-01 -1.633278917671466754e-04 -1.211118508259761061e-03 -1.949646661887354804e-01
-1.576653691479988906e-01 4.661755042179378528e-01 2.080469730332771827e-01 4.759371404834939314e-04 -1.116865019759920568e-03 1.294020346550791289e-01
-1.073599986855752059e-01 5.448370435768890019e-01 2.110038602853288037e-01 -2.659740543022455733e-04 -1.693850275917951030e-03 -1.140930690686982885e-01
1.915376280902038666e-02 5.056482938002613281e-01 2.136478385884265085e-01 2.341075538305195040e-04 -6.430296426799945488e-04 -2.052666327618718201e-01
8.177552374641716693e-02 4.992659395758942131e-01 2.169021653091423030e-01 -8.594015854428419443e-05 -1.686804798643833873e-03 -8.063014155974028430e-02
4.069177566570290200e-02 4.252800858391578842e-01 2.196330054174014390e-01 7.105381787777139118e-04 -4.703462294050107339e-04 4.294161604737002647e-02
-2.164803967561778897e-01 3.199555948989333265e-01 2.017257433873584915e-01 1.940339451152189084e-03 1.157418062574646023e-04 7.887464427953309876e-02
-6.959381643574255594e-02 2.531917853831931464e-01 2.047332824102530702e-01 1.535280319863066133e-03 -5.956551520913942223e-04 -3.221065366568302835e-02
-1.048904906305173912e-01 2.876531901610003827e-01 2.076681245385304520e-01 1.096286119507896986e-03 -7.574658599483335975e-04 -2.102969789018147018e-01
-5.138780217226902175e-02 3.487562533040475810e-01 2.104608010289052422e-01 -3.698002648156514935e-04 -9.944804299131882255e-04 -5.983870896315308247e-02
4.433641290046889949e-02 3.611990896118514871e-01 2.134436329710749924e-01 2.639105480667758405e-04 -3.504231008664145477e-04 -9.470317397367220003e-02
6.777951472368852481e-02 3.653707316849427178e-01 2.161566266283589943e-01 1.389320342160258771e-04 9.379630465733997504e-04 -1.692509486534906349e-01
1.469369381691257304e-01 3.765749429499860024e-01 2.192433414115356194e-01 -4.978700267666259999e-04 3.766593125082743580e-04 -2.146236570434480184e-01
-2.703068964442313926e-01 3.178563802544371319e-01 2.011953077511182686e-01 7.023325969090742625e-05 8.233453155208973989e-05 -7.244998952165679351e-02
-9.912251751116946119e-02 3.084140696594960818e-01 2.039588422725474026e-01 6.237922655067123937e-04 1.918882864681916789e-03 -4.748052346548999741e-02
7.167037752807334239e-02 4.307564383256358154e-01 2.069329750010602265e-01 -1.291766710337189587e-04 3.120046587276918628e-04 -1.275650314916151884e-01
1.827151068850353943e-01 3.555730505594855151e-01 2.097676334810634757e-01 9.468602023494729770e-05 1.410528222476843186e-05 -1.982084008116404006e-01
1.734923879852867390e-01 3.276892769296931851e-01 2.127063721059697654e-01 -7.428179660611419169e-05 -1.099722782115045063e-03 -2.478473489164132182e-01
2.138437373456728574e-01 3.199372812630000285e-01 2.154285603318689679e-01 1.124147439344472054e-04 -7.169653495235780126e-04 -1.692914366042347074e-01
4.104644553235782256e-01 3.686738165078667917e-01 2.182670141403925124e-01 -1.968373467133732887e-04 -9.222005620129004920e-04 -2.674497110611409600e-01
2.273610732133514792e-02 3.169159084539346916e-01 2.003799070885007860e-01 -5.500712371403831350e-04 1.399880754015780850e-03 -1.816722344238473341e-01
-7.862425280068932598e-03 4.340055889442275827e-01 2.032712705572082834e-01 -6.621029382790372814e-04 6.259054003345358719e-04 -3.038307770097492533e-01
1.901623782456992040e-01 4.458393137429994546e-01 2.059929655619562872e-01 -5.027049327201051207e-04 9.476789222794800840e-04 -3.886611456884112026e-01
2.318354838170313126e-01 4.144025459459660388e-01 2.087864256851552081e-01 -3.243689785761219449e-04 4.744694118732576001e-04 -5.087642730468793228e-01
