-6.962080055191358259e-03 -3.544522108766838542e-02 3.648285752211308242e-01 -1.472991739785650483e-04 4.849268591753798743e-05 -5.426491915221615114e-02
9.391234316886988912e-03 -1.223480970832962339e-02 3.659187217038689655e-01 -5.346030921450633529e-05 3.632434256580857829e-04 1.568596994743025330e-02
5.593596791408084190e-03 6.241579519117674765e-03 3.655708569737725622e-01 -8.098693863829996590e-04 -1.141153224563609897e-03 -5.816553865748842755e-02
1.745278253989365064e-02 1.493049513845906909e-02 3.654660435832778331e-01 -1.697190129527414244e-04 -2.423534561136039735e-04 -3.652085697597132891e-02
-6.848558931119980847e-03 1.346512500845414330e-02 3.631414978891066014e-01 2.292841810599079882e-04 -1.302375158994325448e-03 5.587206982453210569e-02
5.280547169123569334e-03 1.067271581701784676e-02 3.646523355805093014e-01 -1.244437793176304081e-04 -5.360036829422086015e-04 -5.072068066540903059e-02
1.384243705256192614e-02 6.728174437769902753e-03 3.645881516415536150e-01 -2.218986886991498690e-04 -9.458674321602599997e-05 2.695372674190983295e-02
1.799264603008183172e-03 -1.261135521865685248e-02 3.650074942333988992e-01 -2.085716605914046630e-04 5.060988686780255267e-04 1.077083197139552806e-01
-3.043845129261753268e-02 -2.619712089939098959e-02 3.608976512682628424e-01 -2.518096071412961531e-03 -1.748912340048161377e-04 -9.178508598021653531e-02
-4.061373512914045331e-02 -4.659939663592597980e-02 3.655892434792259449e-01 -5.647491608452519631e-04 -1.271327085527366270e-03 -2.707624750702771754e-01
-2.066288374561166263e-02 -3.808199896670110690e-02 3.649401153519006291e-01 1.057765776323260024e-04 3.712502650613369939e-03 -4.739546382117017925e-02
-2.484721431615363393e-02 -4.163646140966729275e-02 3.649870985089408437e-01 1.623645573738144400e-04 1.559707284555185642e-03 -1.917503292182019536e-01
-7.843036210362062249e-03 -6.677515360915664555e-02 3.648996717677827073e-01 7.141131185539044033e-05 5.412070152585755824e-04 -6.357459984383656559e-02
-6.861986966761576649e-03 -6.103261263190467439e-02 3.649431394491273184e-01 6.551500566896650206e-05 -4.949904760851396839e-04 -9.477593400293603254e-02
-4.235800516320349825e-03 -5.560733460540155659e-02 3.649305999909544518e-01 -1.513273469543913337e-04 2.174930380485547882e-06 -1.524621095004357607e-01
-5.028686660147485381e-03 -5.381423981177831800e-02 3.649307710606742861e-01 -1.341385227645331411e-04 -4.729009464296370286e-04 -7.477784552256723505e-02
-2.883520302593362006e-02 -4.824637688764370907e-02 3.647976329079778979e-01 -9.787076771911994849e-05 -1.245711385293605221e-03 7.821555189633534744e-02
-5.149740260055461760e-02 -4.631472831932584300e-02 3.650719398269902660e-01 -7.151342966487874038e-05 -1.252660985561976435e-04 -1.778603912931641523e-02
-4.444436452200912352e-02 -6.672952880229265915e-02 3.651312941952274960e-01 3.676354586769546530e-04 3.886029159519308290e-04 7.848643922094240832e-02
-7.525857339013602987e-02 -5.261714560664623730e-02 3.649313334986396540e-01 -8.662080574974311171e-05 -1.270430857733795358e-03 -4.231866578520435476e-03
-6.716021286474169183e-02 -6.621393456956925494e-02 3.650569661914323527e-01 5.031027729276625832e-04 1.433730801025908611e-03 1.007454586948253183e-01
-6.104051338220697204e-02 -7.300721897393985804e-02 3.650455093800655249e-01 3.275427710242604447e-04 3.101484704305853277e-04 5.560740198917554084e-02
-5.210577974130300299e-02 -2.187996952729091144e-03 3.648018802435636365e-01 -1.023388218189414745e-03 -6.631748686384471856e-04 1.010519677319210996e-01
-7.268169835908509790e-02 -1.184351622480842199e-02 3.650653310700310850e-01 3.167978472197190316e-04 3.186761952650540137e-04 1.838981175954219199e-02
-5.625020263239273455e-02 -6.895096495654046316e-03 3.651324647259554523e-01 2.600049649766876265e-04 7.021913015890749073e-04 5.935865880820234003e-02
-5.705819278388177263e-02 9.631964590740383497e-03 3.649137568612926263e-01 -1.324774796445341994e-04 4.854542389753136226e-04 -4.009227082947655618e-02
-5.407946520364694670e-02 -2.153704482721506205e-02 3.650895385211713751e-01 2.005675607050157758e-04 4.337229959719712293e-04 7.722026131746315136e-02
-4.254195878693799865e-02 -1.780621445048626451e-03 3.650208033368846916e-01 -5.992313120171420321e-04 4.486359378551337939e-04 3.152987026678274324e-02
-3.424397006034457513e-02 7.891435678174546497e-03 3.650359019630889934e-01 1.828794659867144067e-04 6.336088085223166660e-05 9.401450333780720509e-03
-2.813305811547299126e-02 2.546082605558439710e-02 3.650245962135635902e-01 -2.985509689272566988e-04 1.467584044722606499e-04 -9.675051119708174413e-03
-4.234149681446616742e-02 3.829465725132103621e-02 3.650827066209072491e-01 -2.867164073223713451e-05 -3.542566662476315589e-04 3.743610167095690749e-02
-5.480038755797336097e-02 5.491906592971258078e-02 3.649298347779147411e-01 -3.568279328869478572e-04 2.737858232229250718e-04 -5.506291364874607575e-02
-2.813050103210518876e-02 3.101377468614977678e-02 3.650751241614633158e-01 5.061719203261253429e-04 6.306221846117353574e-04 4.948469220877880353e-02
-4.993425688235518523e-02 1.698669976119562483e-02 3.650106918572947334e-01 1.303081619881953860e-04 -2.394018286056696812e-04 -6.751117926923690116e-02
-6.075557239734137582e-02 -7.262248167359213954e-03 3.649949545464332146e-01 6.829186985144084475e-04 -2.409121315775949296e-04 -7.635218712884470071e-02
-2.744291517052326393e-02 4.109444936316897570e-03 3.649793432770074286e-01 -5.004965196268277997e-04 3.880160674326827352e-04 5.137341018301583295e-02
-5.637085363465422355e-02 1.572780158051960420e-02 3.647928624165673872e-01 -3.689015544717239980e-04 -4.634197181727171670e-04 5.305612496786617921e-02
-7.447726062858628371e-02 1.162676459939943063e-02 3.649944298806794829e-01 6.141130632226071695e-04 6.410800283096132609e-05 -4.137298857847880595e-02
-6.369395592571784614e-02 6.287326030688725198e-03 3.651076441987397558e-01 2.952756277280794311e-04 7.684086186864534608e-04 2.441006844769804535e-02
-4.385770604529497935e-02 1.321244463670413587e-02 3.652926836223482354e-01 -1.005037387132403276e-04 1.055870832594510466e-03 -1.862668501913946825e-02
-4.538703926861954036e-02 -4.893554891332354759e-03 3.650470270563179742e-01 1.295497513859910190e-03 1.533686661948767697e-04 -1.625833561165216518e-02
-4.659447528998281185e-02 -1.404851095798133678e-02 3.649727188583091753e-01 1.888935138455074669e-04 -1.971956139261757911e-04 7.890864016032062001e-02
-6.048178215035642652e-02 -1.708502490477660854e-02 3.650426677840891698e-01 1.314039651650918529e-04 2.203521544493608193e-04 -9.027487902967963607e-02
-8.053275916731737760e-02 -2.852413119209972620e-02 3.650857517481981285e-01 -1.987964909157283145e-04 -9.796372321763224377e-04 6.621740421538609665e-03
-7.553039114858549341e-02 1.206269449892502510e-02 3.646875721590603359e-01 -1.083547617562991873e-03 4.682638094758519750e-04 -1.041981707808765367e-01
-8.723474610602052759e-02 -4.034543794772037922e-03 3.651343921807306825e-01 1.264869151359531959e-03 4.561011504026154948e-05 -7.101456935361911971e-02
-6.151141205510000931e-02 -3.648281199090946817e-04 3.649746794328084798e-01 -7.412072877134407659e-04 1.270264109034149175e-04 1.370700289189438204e-01
-9.860117302316831478e-02 8.482042684551729939e-03 3.650635078153767199e-01 4.696524950465625356e-04 -6.128767273125082255e-04 -7.010312573149890536e-02
-1.056131541709579430e-01 1.526664107713556276e-02 3.649970392017294896e-01 -4.462585169981510454e-04 -4.602830853114896138e-04 4.892643121521865479e-02
-9.258400505719296958e-02 1.467075321883121695e-02 3.650006752066300431e-01 -2.620690641292340963e-05 5.538726518774031438e-04 6.474148191487358837e-03
-8.280692803183588302e-02 4.135997784436037245e-02 3.651150221299290788e-01 -6.123181067233810426e-04 6.871062267455808523e-05 -1.459217756645179720e-01
-6.579222783021203280e-02 2.734518914215736812e-02 3.650594882958339560e-01 3.150906316342990299e-04 7.298247284912649357e-04 -3.769169461609823968e-02
-5.820878492179375197e-02 4.311398495250077373e-02 3.651005110048305968e-01 -1.317186629013016724e-03 -5.093579630044420270e-04 -6.580025751572900206e-02
-5.077908988850401290e-02 2.083329902932512523e-02 3.650447697843268724e-01 7.976332661873709309e-04 3.100811835242039190e-05 -4.129269166799377083e-02
-8.234525983603201149e-02 3.676899501375541224e-02 3.650856428803179732e-01 -7.799404284608625094e-04 -1.079879599781342382e-03 -2.001694696926571010e-02
-6.725618933204036143e-02 4.605410227394989703e-02 3.649115078076093921e-01 1.098168846148108231e-05 7.734645514479611536e-04 -6.330851527465385098e-02
-8.339088429152924364e-02 5.759877420677050885e-02 3.650896341268581868e-01 3.440582300688497185e-04 1.056006480920731501e-04 -6.430342703310519548e-02
-8.580698265367774080e-02 2.389400904769617418e-02 3.651373752027592401e-01 7.838203218836389515e-04 -1.755860828391665252e-04 -9.332118868078943807e-02
-1.122420143724081470e-01 2.681094251380165827e-02 3.649900757575686994e-01 -3.378194607181867853e-05 -2.442288852469142184e-04 -3.351919882649152110e-02
-9.222236957689912418e-02 3.441326887171387156e-02 3.648687077798149492e-01 -3.393969004462937551e-04 3.914846004334816289e-04 3.454919105523940326e-02
-7.356902820632274520e-02 3.268183326555088031e-02 3.649642517293640864e-01 -3.722133066638032739e-04 2.074610346552291644e-04 5.312024617488751016e-02
-9.626870747783497495e-02 1.156309644797952861e-02 3.651699469428135725e-01 9.322934470847374496e-04 -7.757332877179370619e-04 6.950570524244621337e-03
-9.055826806090352954e-02 2.190107540514846240e-02 3.648806204998991110e-01 -4.839496495813649457e-04 1.748462472407519459e-04 5.430858702080549466e-02
-8.087341006737201743e-02 2.365179984874441962e-02 3.649442831039595436e-01 -4.994560569825388149e-04 2.423794631742083561e-04 8.178825095316685778e-02
-8.243396317501572312e-02 1.136226967745268199e-02 3.649556370445765641e-01 -3.671640918283891413e-04 3.240178109980325626e-05 9.368137482484198419e-02
-9.178374511842619932e-02 1.194033664823698770e-02 3.650399009746851386e-01 2.731197020316969881e-04 -1.235080277576170707e-04 1.435591938263888756e-01
-6.627257237803244050e-02 2.409272598823725825e-02 3.649114860495705770e-01 -5.200156833196921445e-04 2.945608325369033749e-04 -8.245708026541866825e-03
-6.945096700571669335e-02 4.010981248477667183e-02 3.649395267084061256e-01 -2.514670965393023326e-04 3.197124870150423260e-04 1.676546906668592574e-01
-5.606456811490029279e-02 1.829601977444263172e-02 3.650684314151071419e-01 8.428843706593906748e-04 -8.552960514166629651e-05 1.846319285797342613e-01
-2.496427887900158626e-02 3.302871086470025863e-02 3.649475010636925587e-01 -7.884594431354412453e-04 1.033953186198030951e-03 8.809929568458933768e-02
-2.315691796594724836e-02 2.042003137046171507e-02 3.649698670170352655e-01 -1.979037689879449145e-04 2.905743051833972030e-04 1.089748048074738046e-01
-1.274634941601837136e-02 2.677381430729418657e-02 3.651217831861459651e-01 -1.660878346314806928e-04 -4.892866807324348487e-04 1.596324734370840603e-01
-4.362950829981773748e-02 2.990890775518905906e-02 3.651354775973429945e-01 4.311303558212626458e-04 -5.278767931127480422e-04 2.929301589022100250e-01
-4.162661517996761595e-02 6.665936460635678296e-02 3.649483738509373687e-01 -6.034599658443787424e-04 2.100618647044976686e-05 3.197473919349402838e-01
-3.816381914703289441e-02 4.975496329973083665e-02 3.650015133031512260e-01 6.371501897386596357e-04 -4.271710327200367021e-04 2.279328482891568308e-01
-3.414320713380687711e-02 5.276470092123276140e-02 3.649624381300939913e-01 -5.203722501648238175e-04 3.391851769980511721e-06 2.292297518402692524e-01
-2.295814681041871003e-02 9.356479309445335513e-02 3.650523284692303028e-01 -5.741296889242243542e-04 -1.440105324550402350e-04 2.690436671567676408e-01
-1.240108952981350612e-02 7.618569579551119630e-02 3.649901495998010281e-01 1.595342559964803828e-04 3.068536527045646564e-04 1.974998683284611423e-01
1.900647190795011401e-03 6.531227795567015604e-02 3.650778850992346669e-01 -2.055285327411574914e-04 2.584684561822342191e-04 1.767979515349038522e-01
1.847392347040715740e-02 7.188651103856347202e-02 3.649440097879854683e-01 2.655256570815755276e-04 -1.330875491025170312e-04 5.808921051631231458e-02
1.083755702936455532e-02 6.219984392361498776e-02 3.650403440263513266e-01 -2.588821724365349665e-05 4.003823018123949169e-04 3.706594752423838374e-02
3.135516739249566594e-03 4.235772795306905897e-02 3.649596648823251188e-01 1.170589301117163278e-04 2.612623729735629569e-04 -4.225036432752433437e-03
6.266487290962191245e-03 2.955021730769065436e-02 3.649740683661991669e-01 1.537140686303507505e-04 -4.080264992204495110e-04 7.115912339997583491e-02
-2.104370727575420423e-03 1.918701012734783801e-02 3.650454511185882156e-01 -6.733067844718387059e-05 -4.920612105258230290e-04 6.952547946786084843e-02
-1.223200477945693247e-02 4.420709571526273279e-02 3.650589864288357744e-01 -1.985686166182747375e-04 3.672862092947243534e-05 1.792031357940184755e-01
-6.387941157076747721e-03 3.655764588699440126e-02 3.650254395788640194e-01 -3.776407721595598124e-04 -1.060104664819991891e-03 1.968513569845320443e-01
1.692439116465914092e-02 1.478509167654319841e-02 3.649849348790148440e-01 1.490005997257488424e-04 -2.333952173132415771e-04 7.168222927283351975e-02
2.040803863777075362e-03 -3.651448406440398892e-02 3.649291359687287795e-01 3.264437406323674384e-04 -2.263386351231109507e-04 1.329250926797653498e-01
2.210674220749244204e-02 -2.453861383395250853e-02 3.649729994591216498e-01 2.364955463100942542e-04 5.860099709645838744e-04 1.102448291294340658e-03
2.344455553381717683e-02 -4.853593854861362050e-02 3.649637762262490370e-01 3.357095375545406557e-04 -4.776145084206696173e-04 1.510786072067708541e-01
2.455526422919257837e-02 -4.012432297378592388e-02 3.651192249088781594e-01 -6.549502903378565761e-04 -3.827465737206178862e-04 1.352341682226143316e-01
1.097270366776589672e-02 -2.035366866354999804e-02 3.650843092922947952e-01 7.595017767248454300e-05 4.964906289382490677e-04 1.695030591135803510e-01
2.458746335390770907e-02 2.783385397554278325e-03 3.650344121686787124e-01 -4.809616818430704539e-05 4.263229636318008483e-04 5.312480939623129284e-02
1.939203387919859189e-02 -1.962262877728052773e-02 3.649427989581151555e-01 3.571437588734984164e-04 -7.413107826462265971e-05 1.270057634542179070e-01
1.681997158209144402e-02 -3.518445156899498855e-02 3.649551393825003487e-01 6.167494471900189968e-05 -6.701362704178544184e-05 -5.193799681195287055e-04
1.648871236261337941e-02 -3.289385856083720111e-02 3.650441928822439897e-01 7.077381929625394940e-05 5.668421237363554903e-04 6.986150853986668186e-02
2.522079970454190259e-02 -3.830417141538670911e-02 3.649625606249036203e-01 -2.331187473293644212e-05 4.909074675061453628e-05 1.014499145211406606e-01
2.935415367910794437e-02 -1.678427196892681023e-02 3.649971327859630188e-01 4.487041128182908613e-04 9.660373133440727962e-04 1.377888004583618375e-01
1.883656090772678829e-02 -1.693191291413151389e-02 3.650228942569866408e-01 1.166303304426508149e-05 4.483889061990563090e-04 1.651148635715315172e-01
1.238235989429697578e-02 6.886216472602898347e-03 3.649268129029550334e-01 -9.585815510330377917e-05 1.392548129231639025e-04 6.322093224984902393e-02
1.025888497175343403e-03 2.993681802938402692e-02 3.648779633179607407e-01 -2.962282450660388565e-04 -4.211737514566798687e-04 1.830712114626396325e-01
8.098039377988693749e-03 3.378607607866712659e-02 3.650389297787454135e-01 1.189273035512024523e-04 -3.579152733026748075e-04 1.430594896941509708e-01
5.528487327597596517e-04 2.553189608917398948e-02 3.649940997657677433e-01 6.618309088377401705e-05 3.687325767155764239e-04 1.566846586700394450e-01
6.479792389862042666e-03 -3.360657483544953611e-02 3.650324237042645859e-01 4.624485110724183955e-04 -3.069154980874124047e-04 1.302309775106894052e-01
3.933114974017307489e-03 -2.788076004810693259e-02 3.650062413184729238e-01 6.113225082308511749e-05 9.731672704260870834e-05 3.870102847751303449e-02
1.932164091835102473e-02 -3.335026444971714993e-02 3.649850067806568732e-01 -5.864537481759164885e-05 9.323321336725533498e-05 3.866501659994002211e-03
2.149531552874203374e-02 -1.576432846105264851e-02 3.650311103771975985e-01 1.357913136555034676e-04 1.053821939562440422e-05 1.196568809651325366e-01
3.002211542405158057e-02 -4.106001307701944575e-02 3.651555100761175177e-01 5.406782773112810917e-04 3.327215562128057005e-04 9.141368434110160035e-02
4.134010456694898333e-02 -3.445478797598318377e-02 3.650157840746218740e-01 -8.231674146867426283e-05 -3.585955071336989583e-05 -5.077341486867946105e-03
4.943041579248911438e-02 -5.177386623161359114e-02 3.649867691797177849e-01 -9.069608254813434404e-05 1.952137245489098723e-04 3.185417821491398627e-02
5.679875325854747553e-02 -5.255126439351479051e-02 3.649554363339627683e-01 -5.883977659774023398e-05 4.721340802398815554e-04 7.738931536754349583e-02
6.314693310988013508e-02 -3.513082576779540112e-02 3.649077416732352530e-01 -5.406446345116695069e-04 2.121603580113320074e-04 3.281660978902586900e-02
5.078959307148759456e-02 -1.084192531391443316e-02 3.649617090858059965e-01 -3.205469852131254409e-04 1.969339075576173755e-04 5.725069539451191347e-02
4.453519765580116890e-02 -1.425884791931068558e-03 3.649197234139854307e-01 -1.308504479602555146e-04 4.124908614612171967e-04 5.048486168951711595e-02
5.084792553276917815e-02 -3.901439717624979008e-03 3.648713770086258190e-01 -2.261941565829095986e-04 3.364093285373126951e-05 1.379625667734161731e-01
4.711022363499911547e-02 1.876214152147916495e-02 3.650006015807633064e-01 4.002063353330253279e-05 4.086993306159615266e-04 1.288759801344933620e-01
6.407790293667228743e-02 1.695177185215573229e-02 3.649871333425115383e-01 2.331783034087811274e-04 4.192612944912148167e-04 2.064611047146611977e-01
7.328324680802637825e-02 -1.389749939210175277e-02 3.650925858312572547e-01 7.003769069594997483e-04 -8.053547618437860694e-04 1.538268095059952545e-01
6.561916427094956206e-02 -7.752470449051205963e-03 3.649295694310334959e-01 -3.806384027474753813e-04 2.426145265707415916e-04 1.124801637395326653e-01
6.752857682642453285e-02 -3.511266464302032451e-03 3.649353342721827209e-01 -3.300793914227554229e-04 1.586387266861130662e-04 7.771945852059307380e-02
6.297849705270854026e-02 -3.963265050047247266e-03 3.649924244875909496e-01 1.528212195794665675e-04 1.766763212509177137e-05 1.523822949150725470e-01
6.012835011115719858e-02 -1.198432274568080047e-02 3.650388483107275261e-01 3.637040129213945717e-05 -1.885931571887849122e-04 1.822650023227597449e-01
5.875976634386569780e-02 2.556292441695056337e-03 3.650978105116667871e-01 -1.222852397776860103e-05 -1.511353948387020123e-04 2.273624958915889671e-01
5.385730952055033799e-02 -1.406401481943272015e-03 3.650305687706855151e-01 5.456283681443756489e-05 8.069945829409148647e-05 2.445447497632493306e-01
4.858432831597922497e-02 -1.754631710820561338e-02 3.649991782786438099e-01 1.081511816526851510e-04 -2.232035620944243070e-04 2.281817557171357536e-01
4.886553123208553506e-02 -1.049172209108451687e-02 3.649277690641339333e-01 -5.023852224841830359e-04 4.184849840024039186e-04 1.874155546811555884e-01
6.320149154017630500e-02 -1.243018685741915583e-02 3.649270270482519174e-01 -4.234688913779180566e-05 5.464734056693530467e-04 2.284206091427279928e-01
8.164331845612926575e-02 4.430352964200440224e-03 3.649933215851388080e-01 -2.303686549386072069e-05 5.363916699547616922e-04 2.192560743545928503e-01
7.102951080621307256e-02 2.048697835667734161e-03 3.647554791938433238e-01 -2.963531773554041395e-04 -4.629135331976655626e-04 2.229235620565873099e-01
8.042675797627125978e-02 -5.261026128139564308e-03 3.651087398445578280e-01 1.530792654781147546e-04 -2.578193059256320011e-04 1.572404461464790015e-01
7.084389576826019552e-02 1.240760674686020579e-04 3.651616331365227230e-01 1.473057270927485309e-04 -1.400206005244859103e-04 1.084878140454340056e-01
6.027260295754773012e-02 2.357903742581213616e-02 3.647783789603082916e-01 -6.316238035604933125e-04 2.031970287283663514e-04 1.283671694829561227e-01
5.854524752465830456e-02 3.881259257353151387e-02 3.649137455420752296e-01 -2.516617068313487969e-04 -2.540959511087390477e-04 1.217161435191766033e-01
5.204377441719270497e-02 4.255147845267039791e-02 3.650837245726750724e-01 3.884632163463092188e-04 6.809439747697631053e-04 2.317437929445784750e-01
5.925313460569232166e-02 5.286239049537420215e-02 3.650424194787685872e-01 5.382811904702100033e-06 -1.159024886838394639e-04 5.707656272626451810e-02
5.317281171875498647e-02 4.211452038922254559e-02 3.650611928143527862e-01 3.172518570015904634e-04 1.784704188153010134e-05 9.910848098299673836e-02
4.626379557031951029e-02 2.276529846218615025e-02 3.650165502802444895e-01 1.500680218671354086e-04 -2.403373295299825923e-04 -1.143023607186332245e-02
3.922150205559798292e-02 2.412918935639123477e-02 3.649878569879126400e-01 -3.776615196627138493e-05 -2.385818493533383106e-04 7.338812263546948267e-02
4.454597561550181772e-02 6.633741076074435583e-02 3.649708808456624265e-01 -1.582916468458739486e-04 3.116626461803830310e-05 2.204004399998740153e-03
5.831047042889758725e-02 3.986302788242394868e-02 3.650404872203439344e-01 8.764398897713267830e-05 -1.115872495246110843e-04 -1.198690719176355966e-02
5.293994258066688635e-02 3.415102339953248606e-02 3.650596532802179439e-01 1.804079421301925954e-04 -6.654217905041128226e-04 3.089726943727092237e-02
5.774069251494853144e-02 1.081709008738631662e-02 3.651156507902606485e-01 8.973925920885533194e-04 -5.538921158431359484e-05 -5.117485929510687953e-02
5.378589903571115438e-02 -1.620068287950110139e-02 3.650175649606023365e-01 6.463082533876443690e-05 -1.396342370790112062e-04 7.864508447741891395e-02
6.627365587995596996e-02 -1.336626405779667986e-02 3.650485873548432458e-01 5.366507828994074872e-05 -3.504574001280019079e-05 4.749908512833940499e-02
4.930122159475098381e-02 1.411112347774707253e-02 3.649572029649390537e-01 -2.229469654483346298e-04 -2.305024524694096737e-04 8.146796502384952635e-03
3.907251475621140863e-02 2.699143428453082416e-02 3.649413867931664002e-01 -4.273741805859353703e-04 7.889824208213061085e-04 -3.365332897550819824e-02
5.555745175604404062e-02 3.100878880178816605e-02 3.649257453870362045e-01 -2.863501618144757670e-04 5.277111068531003049e-04 -3.830452868683582868e-02
4.386488020497174983e-02 2.916074604343296683e-02 3.650046022092134912e-01 1.437447162400341339e-03 -1.672394958612172288e-04 -1.293023900630895784e-01
6.410695505717192710e-02 -1.776921864125044622e-03 3.649656218055254975e-01 6.650150109510175739e-04 2.667233516320447850e-04 1.721729690555851358e-02
4.233280056506387445e-02 1.470776708402419218e-02 3.649387991869321723e-01 -1.076503835031439532e-03 -2.742193090431195167e-04 -3.787109509137471380e-02
4.106061521275249787e-02 2.456422023124497922e-02 3.650253308492238391e-01 4.165175371240249959e-05 -1.839434414044629996e-04 -1.231828602398073319e-01
2.426677563686436764e-02 3.802697658612302911e-02 3.650472324086713183e-01 1.640893373166091545e-04 1.047228694260987603e-04 -6.887083758119415255e-02
-5.435735121304422802e-03 2.026008457655216130e-02 3.649691304204293330e-01 5.340897252412094964e-04 -1.339257160426977260e-04 -1.392575635436300585e-01
2.479037022659650539e-03 5.030316986916998220e-05 3.649689349623109202e-01 -2.768259279585757234e-04 4.073272960084975782e-04 -1.374771374622811848e-01
2.965621728222088416e-03 -1.317863246962051697e-02 3.650795741622026025e-01 3.246117201153219593e-04 -3.751690034582808204e-04 -5.024100604367918305e-02
-1.238694198495433234e-03 -2.502660253477880306e-02 3.650410748963872076e-01 3.969688504218513050e-04 -6.387870518986357607e-05 -5.334186307661708398e-02
-3.711910756039450243e-04 -3.301836451670150940e-02 3.649936766893801532e-01 2.425981634787908179e-04 5.115560415286397183e-04 4.365699546044363860e-02
-1.925660885662016167e-02 -2.671956784125148476e-02 3.650433255997824755e-01 -2.001596303711678816e-04 3.875178190202739338e-05 1.867327344195481853e-01
-1.133006165760212444e-02 -2.004209971471204981e-03 3.649843827541390251e-01 1.887563498622122195e-04 -6.952585275558131927e-04 6.995073995128150979e-02
-2.175818145978831303e-02 -3.970764380228314350e-02 3.650424424403664880e-01 1.616119326175036858e-04 -5.933585636939418047e-05 8.106033327874437311e-02
-8.354918669073998702e-03 -3.926160310885075388e-02 3.649723592812065265e-01 -4.932680894434108426e-04 -4.225936177444975070e-04 1.066689982655283780e-01
-2.294042852667393592e-02 -1.049599148271106001e-02 3.650317856764773161e-01 -6.658839230042593212e-04 4.229769557656357809e-04 5.352668490919465505e-02
-2.605149371895547697e-02 1.441494340013782689e-02 3.649448826556218051e-01 -1.490836018236854188e-04 4.078481707596068420e-05 -1.633443661159769411e-01
-6.931587018001914534e-03 -4.529764273443012516e-03 3.650319009460701869e-01 1.847291407548797156e-04 1.041455231095339204e-03 -2.598456030622792526e-02
-1.226578054247902047e-03 -1.154170912048592575e-02 3.649845371227036228e-01 1.020796907709308572e-03 8.776089019339197933e-04 -9.245019681291470615e-02
-2.574427569150411835e-02 -7.659167940829530964e-04 3.649211940511162267e-01 1.277572120492655064e-04 -6.953245295526895532e-04 -4.659596122967897547e-02
-3.977629161912884896e-03 -3.484340804104284206e-02 3.649906318418256745e-01 -2.519052825837868160e-05 -2.245224864789458342e-04 7.855817930347830380e-02
-1.174348602981382071e-02 1.794450879385882857e-03 3.650589499577907571e-01 -3.994899841029818811e-04 -8.758343971451535998e-04 1.005941245436059867e-01
6.376571909095649603e-03 -6.377269758265726764e-03 3.649664884896252071e-01 -2.889873173673962415e-04 5.154057056953500592e-04 6.426592995050947610e-02
-8.791716733405825421e-03 -6.097759968119262353e-02 3.652609786887746068e-01 5.991738295270867144e-04 9.807972429063649931e-04 8.308971020588934442e-02
1.181852637866900001e-02 -2.579199378926914574e-02 3.650506789621893455e-01 -3.745719997856345731e-04 8.669471493449403508e-04 7.458889758680582738e-02
-9.511061101964831885e-03 -5.060299138916143219e-02 3.648650144287753361e-01 7.311112312610940425e-04 -2.789459211191018984e-04 1.016485133048064676e-01
-2.347423609505172939e-02 -6.582319332309090332e-02 3.650031947771473217e-01 -4.464926414873651738e-04 -4.939104618887482428e-04 1.421203269252621637e-01
-2.411133527186351891e-02 -4.878517601732670905e-02 3.650166396686240766e-01 -6.245641269853088027e-05 2.100938477971359163e-04 2.452620796032710382e-01
-1.798780527630918641e-02 -2.457942066166239267e-02 3.650579537680937459e-01 -2.099926743490893640e-04 4.774804464314108435e-04 1.093967943372432666e-01
2.434533218130125604e-02 -4.664257602304532763e-02 3.650022198431022713e-01 6.284294148940998805e-04 5.749296738665157671e-05 1.338997049185837729e-01
2.978333572525418763e-02 -7.391263686584800818e-02 3.650206973396614152e-01 -2.357666176507825081e-04 9.060805700805332730e-07 1.510614614645506282e-01
4.114095391313279948e-02 -6.275714966920785398e-02 3.649243543927847000e-01 9.503787022320741261e-04 1.280887432293584532e-04 1.246537231983187860e-01
4.899781139371773425e-02 -6.153476113775104700e-02 3.649612339307664044e-01 -2.023051313374917264e-04 6.377505290348665576e-04 8.431215044719406193e-02
7.532421239937786561e-02 -4.796999047230281199e-02 3.649805094090752267e-01 -2.434570713172456850e-04 -1.975449442056597706e-03 -6.265733779393969916e-02
3.877442470206012709e-02 -7.507005857432313967e-02 3.650441335248645336e-01 -3.047409318313998696e-04 4.775111762555944456e-04 5.898749134308523684e-02
4.387967101543492621e-02 -4.656915840717259364e-02 3.649927380538360855e-01 -1.131818295764466261e-04 -1.700441297265385936e-04 1.678457858400378977e-01
3.959109079830008121e-02 -3.234762980442260072e-02 3.649644026410785447e-01 -3.782641094787821687e-04 -1.282883261868952591e-04 3.345104208655921840e-02
5.356285488765107766e-02 -5.080679799930622187e-02 3.650065640195372385e-01 2.156810586760765408e-04 9.418640002753764760e-05 8.832195818833264711e-02
4.884990114461452981e-02 -6.192797614534887446e-02 3.649734550345765660e-01 2.117363897815019902e-04 3.826944011160441804e-04 -3.014552261482024778e-02
4.412280844208101710e-02 -6.071811886205802367e-02 3.649989822141845863e-01 1.372720409021316670e-04 -1.475194053187467815e-04 4.437605478834932837e-02
2.945897308116754779e-02 -4.633628045275359902e-02 3.649973424368017083e-01 1.917590230786253059e-04 1.218474956289216938e-04 1.208618067312808159e-01
2.352448812819317794e-02 -1.996912955006698021e-02 3.649816238206339269e-01 -6.863620430269292544e-05 5.061678322924267849e-04 1.028647586552647458e-01
1.551983704353883387e-02 -3.720349047526114866e-02 3.650170092163180779e-01 3.913914838300303414e-05 1.831533283867148337e-05 1.478399849626586271e-01
-1.219333932706807670e-02 -3.720104468652562363e-02 3.649553148388857693e-01 6.875767450000036009e-05 -1.136196761242369612e-03 5.104558887418834956e-02
8.130111043885857383e-03 -4.647474287455930636e-02 3.650218983172409670e-01 9.146500328147768894e-05 6.498065953202895439e-04 3.280322044028982642e-02
1.124312077761083217e-02 -5.680444103941011819e-02 3.649999952048453289e-01 -7.858805435693796428e-05 -9.745706065129454594e-05 8.241141009912457405e-02
-4.719658711798546810e-04 -5.076034152773839514e-02 3.650508323241030695e-01 -4.513527968714052720e-05 -1.255459248699491775e-03 1.284595590404128962e-01
3.047333252877680240e-02 -2.746814051110414712e-02 3.648671368634687218e-01 -5.770510022551760551e-04 1.399802139368325161e-03 3.038853673497020347e-02
-4.158907286586742066e-03 -2.664623215524536751e-02 3.650480038410426342e-01 4.732607142877898101e-04 3.723449590334944217e-04 -2.624578700812596130e-03
4.655965736889980215e-03 -5.150586698635262195e-02 3.650743708153133538e-01 4.852788205894845576e-04 1.156672167646932334e-04 4.674115404178633137e-02
-7.593460018996163810e-03 -3.317181105211484266e-02 3.649903986293236979e-01 -2.518494696359017352e-04 -7.170533691544047922e-04 1.823038021428227684e-02
-1.257099169942084600e-02 -2.344976258705581615e-02 3.650054940965667960e-01 7.654760805550022177e-05 -2.610621250086241681e-04 -3.192227845421687082e-02
-1.160611210273404005e-02 -2.561866686003751864e-02 3.650162192255060889e-01 6.455816990845273252e-05 -1.938323224837936601e-05 1.351473841775008011e-01
1.730423220410230029e-02 -3.686647145433744055e-02 3.647654995928491517e-01 -5.516826134179887752e-04 -1.410991227391639700e-03 1.241725670730922798e-01
3.219819100548276108e-02 -4.794265902886286901e-02 3.648613579381660976e-01 6.120180793819906260e-06 -1.643364689967694763e-03 6.397059655878252482e-02
6.198575413774673817e-03 -3.883628273917021090e-02 3.650914464691443762e-01 -3.783498206706206453e-04 3.298886315233313742e-04 8.347886093948607422e-02
2.396354274898618904e-03 -3.064762498386281592e-02 3.649868723187775221e-01 3.284197043319802591e-05 5.586211079366805118e-05 -7.883084590903184641e-02
-1.806390913014857200e-02 -5.878325888022067902e-02 3.651014244995907099e-01 3.949597135304623737e-04 4.914563321361327571e-04 1.922359913899868546e-03
-3.496671598819921234e-02 -7.072886319083353246e-02 3.651005249968642952e-01 4.258745977778114855e-04 -4.696486124562496020e-05 6.947019579965045544e-02
-9.035769891011491070e-03 -9.492622309988463236e-02 3.651650314075028381e-01 4.469949975995393633e-04 1.882889281338885569e-03 -3.957297004579923144e-02
-2.026397929450165364e-02 -1.149621496894308176e-01 3.649607152338499860e-01 -1.045074287543155196e-04 -1.036548679816366161e-03 -1.619996792299039368e-01
1.177628308430241771e-02 -9.313790934175587843e-02 3.651878742568624991e-01 -2.230008414416337426e-05 2.062116339398746209e-03 -6.439570966245142247e-02
2.661441037061939956e-03 -9.378601653314652675e-02 3.650458151479897273e-01 2.717005217630215049e-04 5.947784380928014189e-04 -1.489460233755481311e-01
-1.657579477324759923e-02 -7.800970661508850601e-02 3.650916783908779162e-01 1.224820688531440087e-04 9.199445794121790566e-04 5.622562923805104335e-02
-3.466232699398572731e-02 -5.036660111859424249e-02 3.650380642331365610e-01 -2.629138808009368338e-04 1.514824453553116677e-04 -3.919030245604418483e-02
-4.463772799714699202e-02 -3.640505931970772907e-02 3.649822661518302147e-01 3.418281829464649239e-06 -6.580589462225915119e-05 2.128212825911555625e-02
-4.197393029984596013e-02 -1.603381276558153712e-02 3.649796484832135701e-01 -8.474002240305607292e-05 4.543908218630591535e-04 1.993059423829176557e-01
-3.325595845782882559e-02 -3.630929628215232713e-02 3.650974585189817878e-01 3.239311501027104388e-04 5.408012188941334385e-04 1.853708182417467543e-01
-2.006284358922458960e-02 -2.104110062568672126e-02 3.652175070768423626e-01 1.333950191057906725e-04 7.964422235609203886e-04 1.388283069490518495e-01
-5.167151500439386147e-03 -2.983313570742067780e-03 3.651248304425914193e-01 -1.683253821327612915e-04 8.045413351896344920e-04 2.392881431775558884e-02
3.366116711321971017e-02 -1.627116555383313840e-03 3.650243268465333535e-01 4.241476769644619892e-06 2.977524993868317779e-04 1.339440818034541569e-01
1.903609983746756135e-02 -1.581212272556541815e-04 3.649331907044581769e-01 -8.072500497563506758e-05 -3.972292059158459804e-04 2.067080693754351495e-01
1.821096187876882280e-02 -1.748871656138252517e-02 3.649505757394572170e-01 -1.891457328104933502e-04 -2.257788956546695361e-05 2.002111624822478231e-01
1.817544850782338173e-03 -8.757238848750252894e-03 3.647992386014455857e-01 -3.269673505644782731e-04 -8.547162514060479372e-04 9.419944315680697788e-02
-1.166150035673036399e-02 1.416859009598142941e-02 3.649523972722679699e-01 -1.498899336676426623e-06 -3.275946453631302401e-04 5.310305897659568786e-02
-3.340647997880014097e-02 4.578457402215405786e-02 3.649190866517599274e-01 -5.055106600697872703e-04 -7.689138194725964178e-04 1.998513539952065654e-01
-1.132761534498617252e-02 8.866219464149345530e-03 3.650012164690601968e-01 2.246787079002939046e-04 -4.159098519557671153e-04 1.227647016825380855e-01
-3.550579250889411564e-02 -2.466606309156297791e-02 3.650691571621805798e-01 5.798912653292337578e-04 1.155231112022545156e-04 1.198488489758280512e-01
-4.352976933764889089e-02 -3.194074126873369668e-02 3.650266815287315225e-01 2.566612446043847490e-04 -2.268373004691205216e-05 6.444925857068607711e-02
-3.266998438573653907e-02 -2.896711474798558186e-02 3.650299840496302184e-01 5.488385383369921505e-05 3.394322104371271139e-04 4.730847838513798503e-02
-2.134559841120775223e-02 -6.642816141767239613e-02 3.650076942462896490e-01 5.182539570719085819e-04 -7.012713441679135169e-04 1.490095956278997442e-02
-1.582444452890487824e-02 -6.276008454730562514e-02 3.650231448048312788e-01 -4.851991855237986493e-04 2.707001592022432600e-04 1.263782955282932996e-01
-2.308603149015959338e-02 -2.728989244768172118e-02 3.649719150443462845e-01 -2.766259835263559677e-04 5.388415018816582755e-04 1.486746753338564209e-01
-1.655588524630708172e-02 -2.094618843056910915e-02 3.650104911082104331e-01 -2.363787821543858881e-04 -6.370047292652329879e-04 1.162540498534535283e-01
-2.724051271439567948e-02 -3.713903538100882945e-02 3.649759805959227332e-01 5.712035642897227497e-04 7.652153649418829990e-04 3.795458370366336376e-02
-1.031152974831981567e-02 -5.021118581488204918e-02 3.649825177426631040e-01 3.695845411275372602e-04 1.187614415965166856e-03 1.797085633034220253e-01
-3.291035111222914006e-02 -3.826719226234972376e-02 3.650972187600503016e-01 1.161759327669143447e-04 1.391643019697271345e-04 3.482027081693658127e-02
-3.258533799173329859e-02 -1.209699419606229467e-02 3.649155746719711102e-01 -1.863695441163983990e-04 1.818644125970187851e-04 6.043798077500132579e-03
-5.154692552978074049e-02 -2.418487021674584070e-02 3.650919173139363094e-01 -4.339480511873480611e-04 1.771868998657867512e-04 -3.384789610384655607e-03
-5.116830850071136388e-02 -3.249753453538747894e-02 3.649703914139070804e-01 1.376719593292784953e-04 -4.499242492511806597e-04 6.890586730503872430e-03
-2.700955731429324769e-02 -3.301009893195237105e-02 3.650044287608449345e-01 1.633821115892368763e-04 -4.833080632906365474e-06 1.201323254882693311e-03
-4.840866920689298331e-02 -4.385497305345285174e-02 3.650835600415875959e-01 -1.396848986790644057e-04 -3.366323504993743820e-04 -5.277199354146091571e-03
-3.421028153941578498e-02 -5.022991057995331715e-02 3.649694987016051662e-01 1.962213643455869077e-04 1.119414335597366058e-04 -3.953919579002778545e-02
-4.732308308970906846e-02 -6.845488804760289925e-02 3.650964209810903527e-01 4.557547185692312447e-04 2.596904317710913490e-04 -4.337039676359615709e-02
-5.026335687881614694e-02 -5.921799256756626190e-02 3.650643227726458884e-01 1.537013843828090949e-05 -2.202825797676213112e-04 -6.445331271092825942e-02
-5.988633585105460067e-02 -3.798628663993266347e-02 3.650076861965055319e-01 -2.038826549939226222e-05 1.218120045132408335e-04 -1.032528325354790111e-01
-5.610354885291361782e-02 -2.344640296661946316e-02 3.650464816982388339e-01 -3.831795674197207321e-04 1.926943435926483468e-04 -1.029019870261019820e-01
-1.049827097148430255e-01 -5.041043887286669745e-02 3.649636933999379496e-01 9.719349443728602484e-05 4.122996521859872672e-04 -3.895468301316017123e-02
-7.360720863476831466e-02 -2.626744290986720784e-02 3.651380679664469886e-01 -2.594962599132604126e-04 2.755485029237832718e-05 -5.463841370115925244e-02
-6.456985083602012621e-02 -2.489778393311518206e-02 3.650275378598589748e-01 8.116914992597854147e-05 3.505017193030205997e-04 -8.623970601525608737e-02
-6.329929837281424165e-02 -4.955255941293493921e-02 3.650093865590439135e-01 4.128046288629203561e-04 5.432706995156759552e-04 -2.401642744989367431e-02
-7.723084113653130856e-02 -4.682010961012272182e-02 3.649445012821254108e-01 -5.095504129656848675e-04 -2.640219946827931547e-05 5.209305403121770178e-02
-4.159477411775534123e-02 -3.036214890571893935e-02 3.649916132092678733e-01 -1.423752158033652813e-04 1.219878563871761354e-04 2.638866046182170577e-01
-4.012153484635203049e-02 -2.434043686605884271e-02 3.649696787368369999e-01 2.656097320653736369e-04 1.121234867656889376e-04 1.812394367146310803e-01
-2.012600198808926419e-02 5.135070721672490256e-03 3.650163031775748301e-01 -3.796833674351830453e-04 3.748899007761625850e-04 1.596710979926591611e-01
-5.727258427593585888e-02 1.830328048836869434e-02 3.650396527011430248e-01 -6.015517488133356527e-05 -2.341223439736221472e-04 9.287154531250571554e-02
-6.688259442249164244e-02 -1.998180694825996487e-02 3.649950715522897182e-01 -1.725219863150098058e-04 -3.354237107660507437e-06 1.242775851943510312e-01
-6.071096871147162177e-02 1.289432628095650872e-03 3.649822070175644528e-01 9.072147264119450726e-05 3.748744680706658067e-05 -4.500900908604631157e-02
-4.136413074058327422e-02 -3.567663286316187510e-02 3.650724608954588613e-01 1.000176981874948128e-04 2.160057359973070886e-04 1.337855302408591865e-02
-3.301776566761521065e-02 -1.643417840755176731e-02 3.649689456448647062e-01 -1.141254526577535882e-04 2.149994413994029015e-04 -1.144249442828886021e-01
-2.896257295624254935e-02 -2.276292258499876958e-02 3.649821933041434985e-01 5.423119311649551524e-05 8.242746113503873903e-05 -1.389830513659121303e-01
-3.893424371447497950e-02 3.015539343352665116e-03 3.649552238312728791e-01 -2.963647263513468911e-05 -8.246024001604403369e-05 -6.551058977123998261e-02
7.380788992318781071e-03 -3.744162739515160404e-02 3.649820899564734100e-01 -2.310530795044042521e-04 3.347116194104933972e-04 9.344953448333259693e-02
-3.132735761052363871e-02 -6.459051542810261004e-02 3.649932455057279812e-01 2.310650997645359245e-05 1.231776676346196062e-05 -4.601981883891901465e-02
-1.019200685384279506e-02 -4.749294688437630946e-02 3.649887981787627300e-01 -6.953243176999390991e-06 1.320665943514413734e-04 5.276614393296651107e-02
2.251101182840330259e-03 -6.588951800154280170e-02 3.650246518540757878e-01 -1.933820435080599133e-05 6.894871379840404200e-05 -2.087181483555392014e-02
-3.148713920462369031e-02 -7.532432956275850189e-02 3.650463317332963697e-01 -1.365863824875636855e-04 2.139759892982380127e-04 5.141322733499394115e-02
-2.701313947385938080e-02 -5.501677684199711427e-02 3.649946001555783304e-01 -3.992686236387752916e-05 -1.641989177912546596e-05 -7.674909146446751151e-02
-5.139524310971485543e-02 -6.175728478259802368e-02 3.649789146994072420e-01 -8.986387660399097120e-06 1.532827260178403568e-04 -8.426874071818567236e-02
-5.002210053417485702e-02 -7.302309241216881075e-02 3.649128632246024795e-01 3.108837284154836633e-04 2.774439472206874585e-04 -4.702385007863679744e-02
-5.351723086550837921e-02 -7.599926214810955039e-02 3.650218087823290380e-01 -3.357260950776326741e-05 -7.730068443279210742e-06 -2.788255520795235309e-02
-4.496868973898215244e-02 -8.300134778540414759e-02 3.647548364772130736e-01 9.618278771778930711e-05 5.447169597775914892e-04 -1.780402274130409856e-01
-7.165639189606747006e-02 -6.150877190236549164e-02 3.650699320464072528e-01 4.032504755976597146e-06 7.094943347797424689e-05 -1.254637516168597700e-01
-3.374869873562434675e-02 -8.693187165506488512e-02 3.648926882848939623e-01 1.706296577174058976e-04 1.290965314932483233e-04 -1.216650685995396552e-01
-3.158886336749897744e-02 -1.055044050629238978e-01 3.649021026399553724e-01 4.051662993045869097e-04 1.586949978388221990e-04 -1.557103992955323479e-01
-3.004205515973645130e-03 -9.083454231971338499e-02 3.650179746335061592e-01 1.876150647199410207e-04 -1.285057426446663069e-04 3.435738258662117406e-02
-2.624179181490883875e-02 -8.094645042867071316e-02 3.650904848425514659e-01 5.385788380293292051e-05 -1.683243574974513704e-04 -1.882893082236066287e-02
-6.691516482864906697e-03 -6.290353835346196298e-02 3.650173426611683647e-01 -2.034593226201354048e-04 -1.021122549948046642e-04 4.280867299504662049e-02
-4.755393340294223475e-03 -8.109334166448736725e-02 3.650174139172123189e-01 5.438762963073865266e-05 1.033149921920816351e-04 -3.030901537669674836e-02
3.282371204286993471e-02 -1.378705656041323280e-01 3.650559821260285220e-01 6.007347935336358399e-04 1.570033937868930279e-04 -2.120251391961369258e-03
6.294115728426959155e-02 -1.258006871890321177e-01 3.650148539132797576e-01 -5.346523220351003853e-05 1.072306809462404226e-04 1.336186805053519444e-01
3.454401368555953811e-02 -1.075124800454404367e-01 3.650397794454497968e-01 -5.427389759551675590e-04 -1.142033009078673259e-04 -3.428438632227419347e-02
3.790145730434242577e-02 -9.105887250541565281e-02 3.650132639759818831e-01 3.739114050591680564e-05 -3.462884287240161564e-05 -7.840586352958490990e-02
2.411972997676714234e-02 -5.052079288031655069e-02 3.649824253279414510e-01 -8.835542840331189285e-05 -1.143369845672889791e-05 -1.698049429237042524e-02
1.989795620494384538e-03 -6.085958214276487865e-02 3.650470568556469786e-01 1.890570809588549452e-06 8.996328222552135720e-06 -7.407815435164176454e-02
2.770676304440483281e-02 -8.840584134878029521e-02 3.650580633754222371e-01 1.751420140511490836e-05 1.427056983284382037e-04 5.734228937959664346e-02
3.858315086756679974e-02 -8.300199825905846263e-02 3.648708041151039749e-01 -2.435772546708862699e-04 1.069683969078009337e-03 7.181987307170788204e-02
3.659173768314966796e-02 -7.174997899173590765e-02 3.650109124047024589e-01 -1.717041252682655766e-04 -3.231316563358685684e-04 5.251068988073971655e-02
4.453350240761184964e-02 -7.157070216993102751e-02 3.649676050144872730e-01 1.280466942581711483e-04 1.904442243565000205e-04 4.033036038734761491e-02
3.589096873998744164e-02 -6.965999593296083592e-02 3.649945291089090604e-01 -1.780627636480958391e-04 -2.196764381002225513e-04 -6.561019224100478157e-03
6.645910701401003262e-02 -7.352851178058185388e-02 3.650146172653254695e-01 4.045029173073149569e-04 1.379513506112701950e-04 1.412924624004459617e-01
5.654237456072994106e-02 -5.337640131929555914e-02 3.650434788087031368e-01 -6.393761402493572518e-04 1.746213951261129478e-04 5.406345780292060726e-02
3.089618809356068502e-02 -4.110992286345926949e-02 3.650040108480110401e-01 6.101126534644652027e-06 -8.282914503393609985e-06 1.172875232420204777e-01
2.793093603428583802e-02 -5.724417382808178606e-02 3.650015999274098810e-01 -5.593428034318346511e-05 7.092292173753236557e-05 8.543228990542703349e-02
2.832668821906613593e-02 -3.846608643866317179e-02 3.650058793673940372e-01 -9.782879191368633201e-05 -2.559241632472405593e-05 -1.853331694535936824e-02
-2.027340372551897189e-03 -6.567909670370571107e-02 3.649682183322744411e-01 1.043600355909934875e-04 3.488422608216081179e-05 -2.547461166143820486e-03
-1.324921069378469374e-02 -5.200369480079482937e-02 3.650068831119555046e-01 2.794336779545007112e-05 -9.328659943485339927e-06 -2.281268589130878641e-02
-5.239828359912738695e-03 -6.683166536761409038e-02 3.650039447351847155e-01 -1.555134547024440083e-06 1.204895743809402250e-05 2.074513378205139827e-02
-4.489983283313922144e-03 -3.187126378026582108e-02 3.650246389776067302e-01 -4.752654757267848942e-05 3.140578782943955101e-04 -6.380842515192508557e-02
2.440819596965631416e-02 -5.024550364650586659e-02 3.649775030309233559e-01 1.114875254050319018e-05 -2.408021242753183647e-05 3.428595636819035865e-03
-1.002432745869929163e-02 -4.289948296658651489e-02 3.649756044402022725e-01 -2.680369937618535620e-05 -1.658229697512643086e-05 -1.067735180822311364e-01
-3.095011228547210960e-02 -2.453876476154793693e-02 3.649937206582691274e-01 -7.104017017325632967e-05 -1.170952206393653693e-04 -4.775709379510771624e-02
-6.434021691341522929e-03 -1.756680685065621639e-02 3.650511008207296682e-01 -5.843013206219457394e-06 -6.437020266864514844e-06 -1.584390672764463825e-01
-2.408810165115404800e-03 -2.268547490804019573e-02 3.650476090684772190e-01 1.487378268479438146e-04 2.095021390945725037e-04 -1.323219034465258626e-01
1.992147404112247847e-02 -2.112380568514850288e-02 3.650145602373982001e-01 -1.605336765471081405e-05 1.109074743848313172e-04 -6.599355188107142167e-02
4.163752403654457507e-02 -8.074407350175304143e-03 3.651815944139951697e-01 -4.437430362990879454e-04 7.308826062200703176e-04 -7.036047700873809818e-02
4.116188644607491481e-02 5.695441874369758760e-03 3.650215487248869017e-01 2.531064980462049844e-05 -1.439604594820576815e-05 -3.291438296150709687e-03
3.699135216103736912e-02 2.619578431821445105e-02 3.650036053554683857e-01 9.830165425857939436e-05 1.337778128210477260e-05 3.464892697132990196e-02
2.304122048771171244e-02 9.194342283523213033e-03 3.649890953523744486e-01 -6.154694281329735979e-05 -5.643473103921889438e-05 -8.136551097983235614e-02
8.085471348136787084e-03 2.417209024476130869e-02 3.649954287924321861e-01 -4.021465245350574466e-05 -1.461283254225309439e-04 -1.539186165492549205e-02
2.597555340984910449e-02 3.779584534474348528e-02 3.649708871651939357e-01 -9.612750806853586098e-05 -4.260821861802784874e-04 -1.022862373462992830e-01
2.749865504398515612e-02 4.541302379800085665e-02 3.649873973587096643e-01 -1.866827270887483120e-04 -3.996402954278390819e-04 -8.035501928878464872e-02
2.069485935807905200e-02 5.079839238165548970e-02 3.649898379212522248e-01 -6.513593374900028586e-05 -9.208823426154897815e-05 -1.125668070498207912e-01
1.548185582379160187e-02 7.679390668806379550e-02 3.649316369114056213e-01 -1.119294439388124877e-04 -9.374492230765583403e-04 -8.973653296281956793e-02
1.085761658425983892e-02 7.434240494130804622e-02 3.650255044313197583e-01 2.332739415292694129e-04 -1.191265399023118610e-04 9.970117343367777482e-03
-8.881802125223006716e-03 5.112812662971348565e-02 3.652204200535749123e-01 2.616174893250110788e-04 -9.324611012287619541e-06 3.398028616604429480e-02
-3.622247693034463898e-03 6.519889309069118455e-02 3.649708419650400937e-01 -1.953275955092062055e-04 -1.975593496944631620e-05 -1.645108762580201186e-03
-1.459433696890027887e-03 5.102769732612195269e-02 3.649242086019961473e-01 1.934017999477966434e-04 -3.113946621599032369e-04 1.835865541998394079e-01
