-1.141879082079000907e-01 -1.254869018423915294e-01 3.649612121397631803e-01 1.146973706919126017e-03 8.485166319358007853e-04 -3.287592537157747741e-02
-8.026578130619357876e-02 -1.159701239021623809e-01 3.651567691978806485e-01 -3.261489175293133861e-04 3.592391399071805341e-04 -1.640390544452878241e-01
-6.677567664857074481e-02 -5.840375472723049327e-02 3.652564573604891729e-01 -2.472258571901436545e-03 -1.024318293284238665e-03 1.709120803385276444e-01
8.885742168956047363e-03 -3.359064822002073153e-02 3.651525008582769960e-01 1.260158348779142875e-03 1.649232353965337551e-03 2.844941262802503368e-01
5.658136118439161671e-02 -7.262932473625702268e-02 3.649667964120510977e-01 6.872677757639371159e-04 4.745758616316759766e-04 3.478410513165787199e-01
4.301061033864243127e-02 -8.374047220230025623e-02 3.649174649234793177e-01 -2.566464385054265996e-04 -5.696010995096943453e-05 1.795580764545646330e-02
-5.217191496075530843e-03 -5.421692747624225206e-02 3.649357181386692073e-01 -4.879415556595358898e-04 -6.531681431633020460e-04 -1.220337584469014663e-02
2.990223494414910935e-02 -6.914517939958064741e-02 3.649053158379463868e-01 -8.935144699993427867e-05 2.031233659377471371e-03 -1.783200731295498526e-02
-1.087183440404337594e-03 -5.224321400548341543e-02 3.651707896879588522e-01 -3.423707237135171100e-04 -1.072244937398158420e-03 9.789749808935353792e-02
1.886407169909131223e-02 -5.533131790207389267e-02 3.652017182749314195e-01 -5.667807337108249702e-04 -2.701851441203488363e-04 2.117172650149158897e-01
5.144055198755732167e-02 -7.019319597731933646e-02 3.650571521020001264e-01 -6.778236424845175516e-04 -1.007651487418819965e-03 1.114728445165575482e-01
4.263222919492200280e-02 -1.041560173425799957e-01 3.653512480340875279e-01 -1.325149008012164954e-04 2.551522857100564645e-03 5.542986186132130982e-02
2.620682860056932142e-02 -4.585023824898004641e-02 3.646449912781098424e-01 -1.166810094978459889e-03 -3.298800102549796515e-03 3.908980577019345592e-02
2.070632067168629367e-02 -4.902099462460172280e-02 3.649421070187260918e-01 -4.520904145028125699e-05 -3.891054387351074845e-04 1.630566077183514262e-01
-1.147663459013878624e-02 4.319279758295561239e-02 3.651292404188969387e-01 -4.684643458377764184e-04 -1.582825480310944390e-03 2.192239653688747292e-01
-1.379835112780896517e-02 6.812472645814532379e-02 3.648991488248076731e-01 4.113587873516886357e-04 1.622169554741602609e-03 8.729237735679104548e-02
-3.300735472623236161e-02 8.179075040926665763e-02 3.647810040193926184e-01 3.575240765363137054e-04 -2.959955298580663457e-04 4.949601304098891208e-02
-3.452100687804610796e-02 1.006273892411476550e-01 3.652352884333986971e-01 -5.660160301987299334e-04 2.005843704260079987e-04 8.876029311519686993e-02
-5.439116080834353883e-03 1.778774227978507233e-02 3.646804046873636240e-01 -6.177418561046887609e-04 -8.361920392432218782e-04 -9.674773985267741405e-02
-1.992071470967513838e-04 6.826655732448898284e-02 3.653466250375249080e-01 9.049965607883171843e-04 2.390478247284465608e-03 -2.463541046727283079e-01
-2.609111397687468789e-02 -1.291384219819520229e-01 3.650122071559459558e-01 -8.768507975378710942e-05 -1.036804727996542283e-03 -5.039040162245104343e-02
-1.137612778870424578e-02 -2.234206685788728275e-02 3.651175366292858104e-01 5.593550359797749187e-04 5.088285070895726039e-04 7.584088070128366943e-02
-4.340186321508503892e-02 -1.397811684321607906e-01 3.648347966286603627e-01 3.904890975779763468e-04 1.688696399286184141e-03 -9.853192694811439833e-02
-6.259975318324026428e-02 -1.326688233232140579e-01 3.649121235087818271e-01 3.269495170452111602e-04 -9.026897928195030040e-04 -7.270638602678701490e-02
-3.059771624833283396e-02 -2.505780233775803945e-01 3.652576730261672955e-01 1.536642528559756466e-03 5.355410403936666786e-03 -2.215897551877656912e-01
-2.132696945711943376e-02 -2.788886733355672165e-01 3.653807161645153956e-01 1.508850163789140835e-03 6.475520334634879719e-04 -1.394776250883907609e-01
-7.766907200994413582e-04 -2.853487025096614893e-01 3.646146764419587183e-01 -8.477030967179199124e-04 3.942824842477716217e-03 -3.503009834707904169e-02
-4.562027065019942304e-03 -2.569254409666308359e-01 3.647995229619710456e-01 -1.427718438270026357e-04 -6.682657022505790034e-05 7.928059225168794522e-02
1.924749622561500173e-02 -2.056930141099376219e-01 3.645997527987657749e-01 2.374008817594406066e-04 2.483065760843225240e-03 1.716932698615587505e-01
2.189470331025930930e-02 -2.300569700421081776e-01 3.648880307796770195e-01 -2.042451672099886736e-04 -1.121666285026468686e-04 2.047008533514683148e-01
8.469781643058590936e-02 -2.008583986319892323e-01 3.651275671613917750e-01 -5.727345315643773494e-04 -1.537579996672459480e-03 1.859147232133854244e-01
4.973186300611747573e-02 -2.007957379785084706e-01 3.652081596779509498e-01 -1.843860585584719070e-03 -6.583442436705683014e-03 1.100761824714574233e-01
2.905308505223145547e-03 -1.447471428309176356e-01 3.650258440335598653e-01 -2.756776863184273252e-04 -3.693566189325918564e-04 1.982209943407856056e-01
-6.441416352082132701e-03 -2.073606520992920810e-01 3.650090468529015864e-01 2.710956326920587974e-04 7.367351653429675884e-04 1.986399729254512692e-01
-5.954982781179735118e-02 -1.356972836588010711e-01 3.650385275944515451e-01 -2.375666881565379526e-03 -2.830240393041780472e-03 -3.769856418685959415e-02
-8.086773751293084567e-02 -9.626847322331683054e-02 3.646924385434747173e-01 -6.032591783972037804e-04 7.632893529182180900e-04 -5.828901218295680364e-02
-8.231277644923699899e-02 -9.630657356750510142e-03 3.649017427724530194e-01 -4.827565011247969703e-04 5.524682196800336821e-04 -1.239727246619879986e-01
-1.435874234431802898e-01 -7.657442580318730985e-02 3.653160703708466794e-01 -5.323247947246369368e-04 -2.949081954656907444e-03 -3.525983838637053360e-03
-1.675528468380753089e-01 -7.231882814433029938e-02 3.649755467137442144e-01 -5.838398432687514359e-04 -1.139452301504633976e-03 1.370613431205194854e-01
-1.256650197420402515e-01 -8.066952107297534202e-02 3.650540774747247363e-01 2.626586500965587571e-04 1.601446417660068932e-03 1.150005948652651350e-01
-6.868963269970074226e-02 -1.000781030727358190e-01 3.649494007561346898e-01 2.741568449090400375e-06 8.264489877371062167e-04 1.900709158469951754e-01
-2.927542495488755919e-02 -9.701756603425414072e-02 3.645655489425557727e-01 -3.281114619184321776e-04 3.578296795579441209e-03 3.438981093903310110e-02
-1.071400233587938150e-01 -1.425471950902458540e-01 3.652901337526722747e-01 8.143579690934372615e-05 -1.709844117154115479e-03 1.318403524641355851e-01
-8.610853763600255506e-02 -1.605254042899072198e-01 3.645733460999005526e-01 -2.388015612849864991e-04 1.766668084828501096e-03 6.351502121886325181e-02
-1.099996319627180030e-01 -9.753077235616068597e-02 3.650237083150988937e-01 -3.523293689273254508e-04 -1.531106910171184041e-03 3.379902511399841825e-02
-9.367063914063887553e-02 -1.590151713895206487e-01 3.648891952997649346e-01 -5.461399635833215967e-04 2.196922107883227115e-03 -3.862890184711018082e-02
-1.154623153399933072e-01 -9.741026564125696008e-02 3.651830234379854767e-01 -3.160872761249414317e-04 -8.253520568048392696e-04 1.246672497970038353e-02
-8.418913162620061952e-02 -7.677248852975038229e-02 3.650548218522362554e-01 -3.581019574661363156e-04 2.944953484612558136e-03 8.640513863374747403e-03
-6.447415530805590544e-02 -1.103858192185149661e-01 3.650490549269005958e-01 -5.233791382767020777e-04 3.641665611156190256e-05 -6.004555605674481711e-02
-7.617211756423143687e-02 -6.670355133699697181e-02 3.649936130620284880e-01 9.544586745602833249e-05 1.893743436931763155e-04 -1.149044882169698439e-01
-3.728746243060152704e-02 -7.027477833854127443e-02 3.648118272570509690e-01 -2.452416991256449550e-04 1.298429832777258860e-03 -3.295395995610781587e-02
-7.823624310360978440e-02 -3.947113041072141532e-02 3.644825787145158924e-01 -7.347363592680761658e-04 -8.902214014448916113e-04 1.483897283898090100e-02
-4.262235920387503346e-02 -7.284523363509910754e-02 3.650161028576300315e-01 -5.117593922501097436e-05 1.678854049937385197e-03 8.827608086741058069e-02
-4.008252114765341323e-02 -4.132141306377434820e-02 3.650659943978306066e-01 -4.586344796941229924e-04 1.296069157627535978e-03 1.756381050312380565e-01
2.892559973183265326e-02 -1.848218729863749035e-02 3.651358633991755864e-01 -1.949090964984455734e-04 2.338145492406280921e-03 2.620092008981896314e-01
6.272864338616306046e-02 -2.861328867964796352e-02 3.651711047253537457e-01 9.332797131297649771e-05 1.045491473897896357e-03 2.125762428015824934e-01
4.936587339090746374e-02 -8.046653064609519956e-02 3.650256099724508152e-01 3.995773704229554110e-04 -2.091389159640732413e-03 2.146144495171624644e-01
2.800127910785348354e-02 -6.586345766454823614e-02 3.649141103867811764e-01 -5.750791954842747510e-04 -1.253816821271254824e-03 1.002889770268456382e-01
-3.818110006912592280e-02 -1.017770657452054250e-01 3.649672212160662843e-01 -2.119375416101654762e-04 -1.470894091817557831e-03 1.822501995715158224e-02
-4.135152576729101553e-02 -1.378412910836513128e-01 3.650557083564097693e-01 5.584523466311119150e-04 5.955136770271755213e-04 5.957558373028284948e-02
-5.264780524399379630e-02 -1.182712532734516847e-01 3.649732141618389769e-01 -7.565105849843753449e-04 1.127441117742307165e-04 8.336082339296899124e-02
-2.011095387099335816e-02 -8.789238922739125992e-02 3.646899926447471629e-01 1.032600884479363936e-03 3.512757009215831689e-03 6.218275546836266043e-02
-2.910567292910942391e-02 -8.849347806723745213e-02 3.650200005320837215e-01 1.984775565417774433e-04 5.850962072277693512e-04 1.481397026286850604e-01
-2.136215801220227653e-02 -7.777494858593739235e-02 3.649692300966477232e-01 7.669696508825937483e-05 6.866944508511923801e-04 3.136567472184583621e-02
-4.717569322412401914e-03 -9.593528391075098471e-02 3.649065360734914387e-01 -1.656795792836888450e-04 -2.015359914278814970e-04 2.671134421418923724e-02
-1.107626999550134078e-03 7.453374803125733476e-04 3.649131787279207839e-01 -5.718362596395359503e-05 9.799665961414382451e-05 1.073786145263912195e-01
1.414010328526221034e-03 -5.263405785662553932e-02 3.650631871874285839e-01 6.855167424783627553e-05 5.921163203740919005e-04 -9.843253957787964983e-03
-2.380000502953835001e-02 -6.650920814529487357e-02 3.649886286056195916e-01 -2.447055549546604141e-04 -1.818761814385407537e-03 4.199198468382078775e-02
-1.239419860757583203e-02 -7.535441141561324829e-02 3.650161686085272583e-01 3.969065071276235430e-05 3.290596698109364603e-04 -1.102090771946568903e-01
-4.912862177740406899e-02 -9.224344212649961128e-02 3.649379718689692575e-01 -1.922467389715833087e-04 -1.197651701919601099e-04 -1.350150709725165821e-01
-6.756847497172431549e-02 -6.582236431615857974e-02 3.650444941503493412e-01 -3.826110257744478834e-04 -1.144645680375343429e-03 2.936592896178652490e-02
-4.728107447340471753e-02 1.920350849488465170e-02 3.651413611613484878e-01 -2.804196109223602938e-04 -4.067419162880436096e-04 -5.230402369845538885e-02
-5.093629300670481086e-02 -3.835381648517652287e-02 3.649122711467880920e-01 4.475188147063839466e-04 4.606698520076199228e-04 6.452380272544027025e-03
-4.713648197113829569e-02 -4.669733664888475744e-02 3.648622383453870022e-01 -1.191270830275071376e-04 -6.242971231984373488e-04 3.164877434501916359e-02
-5.807321273385145088e-02 -8.618398776432821540e-02 3.650327493968141823e-01 3.984879624775747938e-04 -8.291542593943383081e-05 1.044864791426355355e-01
-7.120025852668643296e-02 -8.921752871397421736e-02 3.650297247956743041e-01 -5.197030661049276785e-04 -1.070436346674815287e-03 -1.008759462900092052e-01
-6.558096474987767932e-02 -1.121074031684660965e-01 3.650139198353664627e-01 -1.419744008025059640e-04 4.165052585415023457e-04 7.172067759433657652e-02
-3.461417894332415035e-02 -6.018911608934285340e-02 3.650747579507073182e-01 -2.569813700441355092e-04 5.028432681721541845e-04 4.523490850589841072e-02
-5.679728720900367039e-02 -4.275315444893934558e-02 3.649653796329200284e-01 -1.403770579204879770e-05 2.439084981712127606e-04 1.294866280968969552e-01
-4.804215218175190982e-02 -5.432216240228188164e-02 3.646908132792449631e-01 -5.216563789884063121e-04 7.269239100483038379e-04 1.007516460804346731e-01
-3.047831869802117635e-02 -2.980638341609248218e-02 3.649611184242262940e-01 -3.348009143948514014e-04 5.126969519256711948e-04 1.426849107492219604e-01
-2.922303004007889560e-02 -1.478735022635930749e-02 3.650004757720297643e-01 -8.107448602958984183e-05 8.902434934106939833e-05 2.280722142651677928e-02
-3.349152831673436748e-02 -2.656908651251969206e-02 3.650022805243615109e-01 1.041519706409800258e-04 2.305954101284922811e-04 -8.577329625313186504e-03
-1.876376223826913339e-02 -8.537373404673437999e-03 3.650536244703753153e-01 -3.331768221727172193e-05 4.107169476355987782e-04 1.234434323893299490e-01
-3.008727983862906005e-02 -3.388132769131418920e-02 3.650971444952905154e-01 1.443222715970013175e-03 -7.481827700620933966e-05 8.531419967927263148e-02
-3.354708299084767364e-02 -3.594411376509459854e-02 3.649545419734009366e-01 1.448752063851003731e-04 2.154693141706922623e-04 2.448189108025880523e-01
-3.560486374040981034e-02 -6.603985489881067719e-03 3.650471322454219569e-01 -4.137946246170316972e-04 -7.886545052890487088e-05 5.232162829228834133e-02
-8.246980570784000902e-03 -8.631131049210349557e-03 3.651088236725543723e-01 3.236151402640370092e-04 1.126008458716485326e-03 1.163964740171054835e-01
-2.308362161323353548e-02 -1.106949547201753828e-02 3.647928861079749452e-01 2.028242413852109137e-04 -3.371036402663569694e-04 7.576644747101120292e-02
-4.378991954141275150e-03 -3.264394108004200351e-02 3.653090770845210944e-01 -5.304565973219844141e-04 5.016419216443924675e-04 -1.480884342736633608e-01
-2.543485493309681836e-02 -5.460461645505235856e-02 3.650743904602148371e-01 -4.250664858785773749e-04 -1.383661348207099445e-03 -6.816001727352309636e-02
-3.183091695327699977e-02 2.201505117174247864e-02 3.653459246352263046e-01 -1.557298224527845897e-03 -5.701548541080870072e-04 4.638177213850846331e-02
-4.667437505505968309e-02 -3.594808944847684845e-02 3.650926875523075599e-01 1.341497701172864318e-05 3.632352513368748839e-05 -2.122625268122700637e-01
-3.495382592960048079e-02 9.862102049531850170e-03 3.657057376936300175e-01 -1.848809156541945942e-03 -1.441587939051011354e-04 -5.212567089587334494e-03
-2.105863185890631886e-02 5.687290234964362430e-03 3.650355008653711208e-01 -1.365963436213270759e-05 3.010707189724263697e-04 -4.887001158928437443e-03
-2.892419587666599304e-02 -3.843168401251172584e-03 3.650715206066320606e-01 -2.820325736085105566e-04 -3.352454120723108097e-04 5.316936383235619512e-02
-3.338379385713006325e-02 1.493194150219834954e-02 3.648866402420384847e-01 2.628157995658559517e-05 -3.036455653588335441e-04 1.241301903746072979e-02
-2.575776655866237816e-02 3.822337330716149648e-04 3.650376864382386399e-01 -7.326809288550994626e-06 2.083580239942480351e-04 4.772061085108770043e-03
-4.314837269899511607e-02 -2.676867458451350976e-02 3.648597320791673315e-01 2.321377560734864964e-04 -3.257595222339274444e-04 -4.296064009090734721e-03
-4.939920249770769767e-02 -2.134191947768570088e-02 3.648819953317720133e-01 2.586686759323391098e-04 -1.237292211834498047e-04 -3.704938189889268180e-02
-4.227102982756240218e-02 -2.359849218048759925e-02 3.650770376415215512e-01 -4.742971361136515211e-05 3.398392470977680655e-04 -2.015779103211943341e-02
-4.050444391355602358e-02 -3.731797599077986416e-02 3.649996279439383651e-01 5.345982691318325628e-05 -7.486951758624821155e-05 -3.662264236310097069e-03
-4.151086439031390074e-02 -2.435660424639492921e-02 3.651570220180687665e-01 -4.844371906392663601e-04 -3.270180776256943300e-04 6.413224953681108398e-02
-4.268292727638078182e-02 -1.643639911836993969e-02 3.650415486501966678e-01 -1.332875009285169822e-04 -3.484574847032065006e-05 6.162485167498606142e-02
-4.152165859468363168e-02 -5.493739660699231003e-02 3.649442953944513346e-01 4.822800073759119172e-04 4.517490091217761300e-04 5.666439104591113052e-02
-4.634776584419647572e-02 -2.230453827846412898e-02 3.650532524737116757e-01 -4.451423316715036175e-04 -5.814832225541674126e-04 8.752548379560430580e-02
-4.424786662998634462e-02 -4.100447897700309347e-02 3.649197783831957809e-01 3.337078958480283364e-04 2.961799012515146999e-04 5.535903217353491806e-02
-5.100457198892886790e-02 -3.708141790824825978e-02 3.650031341876265878e-01 -1.821172973554568788e-05 -2.468318222513723320e-04 5.740210674920118161e-02
-5.959558463678658879e-02 -2.119800783625017115e-02 3.649862838874521342e-01 -2.039526475524125991e-04 -3.842707438962833098e-04 5.989611377198007097e-02
-6.534646731229044880e-02 -2.085934069110553096e-02 3.649446936302367384e-01 8.768044029578983209e-05 -2.069321854217467537e-04 4.884796348960138146e-02
-5.356942967898512681e-02 -2.542531775565775448e-02 3.651450086561074393e-01 -1.464339978050597808e-04 3.199924120469725599e-04 8.334284742653975953e-02
-5.714020453396233268e-02 -7.633474516470351023e-02 3.647373082921285814e-01 8.722350785010873171e-04 1.369283027907032373e-04 2.611436014329650626e-02
-4.731313834871366669e-02 -3.957027015226882022e-02 3.651025525999437304e-01 -2.821401356573865343e-04 2.630277289134692301e-04 2.303985226771227812e-03
-3.857200397921643764e-02 -6.757581844890757361e-02 3.651153556289892799e-01 -8.203846635136922700e-05 2.555491853406627279e-04 5.551254857655162772e-02
-5.342688507712622936e-02 -4.945374401034684231e-02 3.649255554484553410e-01 -2.311905406050889070e-05 -4.077478647034845673e-04 2.019173647976710631e-02
-4.164832782573357067e-02 -2.461413770110879116e-03 3.651774864288427347e-01 -6.304664815660359538e-04 1.676704385659412661e-04 2.117750199170135433e-02
-6.013094680652913970e-02 -4.535364258523955777e-02 3.648143998574766567e-01 6.134713881931645523e-04 -3.150690875465265214e-04 1.038368257826729167e-02
-4.601816946190655233e-02 -3.373926511719866489e-02 3.650607524326134889e-01 -9.810975555229803206e-05 3.785380511007170688e-04 -5.116326969819466955e-04
-4.072284114868432447e-02 -3.992742226992246346e-02 3.649931635675917607e-01 8.636383129193006742e-05 5.016985921562176081e-05 -1.053651592677375994e-02
-5.019158277095439602e-02 -5.154337599878079657e-02 3.649412398647944866e-01 1.243318338730672618e-04 -3.019032644326727116e-04 4.216553110879235562e-05
-5.414995382882720892e-02 -5.074500868276514420e-02 3.650006744232834333e-01 2.812503778249234395e-05 7.499915115943897451e-05 -1.534870414438483516e-02
-4.365496837253837747e-02 -5.497336989902634752e-02 3.651098988256207267e-01 -1.261869236236966502e-04 1.971567185579744142e-04 9.805368809621439405e-03
-5.872206064880205328e-02 8.949134860258976115e-03 3.651197539804044156e-01 -7.952518385058276714e-04 -7.640003872399427250e-04 3.009386384341232804e-02
-6.626599240468690477e-02 -3.031946564010493030e-03 3.649658420577900353e-01 9.558973944991325656e-05 -2.757362541046225472e-04 4.571301352926034067e-02
-5.642853181466058604e-02 3.925658841992580965e-03 3.650993559443417302e-01 -9.713687768296600477e-05 3.313814908677686910e-04 4.269256410217040637e-02
-5.938479861480681909e-02 2.748725399119627578e-03 3.649598349673957021e-01 1.160159146496818192e-04 -9.202177282911535151e-05 4.075554825159100059e-02
-6.065815390542450558e-02 1.100223300638955744e-02 3.650347690359498909e-01 -1.559200634833356517e-04 -9.882052474608956358e-05 6.099324722828122075e-02
-5.797288796174072945e-02 -1.211819900620160831e-02 3.649693771127170416e-01 3.380940893100982088e-04 3.731199026588535232e-04 1.955882799165056807e-02
-4.592739169499057000e-02 -2.317487741292814304e-02 3.650261345372696198e-01 8.323950198180004732e-05 3.199197213938297069e-04 1.285239961593996789e-02
-5.210933018974759495e-02 -1.131143096281642807e-02 3.650617184646867686e-01 -2.567330424211561432e-04 -4.181349079660561462e-04 4.522679035630858269e-02
-5.927354414093938262e-02 -7.286041783345908150e-03 3.651782231754743258e-01 -4.433123946176834333e-04 -2.018762677452097141e-04 1.222311731823760156e-01
-5.908865597015972027e-02 -2.219987745913912583e-02 3.649982296341123256e-01 8.697657682798134773e-06 -1.180466531712732813e-04 1.506154678976740491e-01
-5.394490185455447923e-02 -3.380205585501776938e-02 3.648851834967271612e-01 2.776857481721220836e-04 1.945661290551284751e-04 1.119688884124080824e-01
-3.879216034870719421e-02 -3.541329640688992142e-02 3.650641365614124001e-01 1.415955457484979361e-04 6.122580719372404173e-04 1.039932646320588239e-01
-4.775341222498527549e-02 -5.621720176022789589e-02 3.649449671979888565e-01 1.718851627951130140e-04 -2.276811700031506941e-04 9.311859678735666390e-02
-4.798354601955455434e-02 -4.250910868703901280e-02 3.649188197672563749e-01 8.943937410141562588e-05 -8.808295983656168674e-05 6.156832272455652066e-02
-4.325797934660009086e-02 -3.887074291175352664e-02 3.649339863897272940e-01 1.831139990112311548e-04 3.508457802402916120e-04 -6.345849108649857101e-03
-5.223881066982628829e-02 -5.219043830242623555e-02 3.649707664249610684e-01 1.227124621917183560e-04 -3.253930070742522556e-04 2.410736679061129678e-02
-5.220433028622655652e-02 -7.232023620750142878e-02 3.651115008391337957e-01 -6.475272631952269339e-05 1.914808274655882667e-04 6.435826392284883790e-02
-5.320872456616036056e-02 -6.762861019161084397e-02 3.649457540262787680e-01 1.598396955700295786e-04 -5.573800482223165815e-05 2.974881039165980581e-02
-5.357456833473226571e-02 -6.571159997812120457e-02 3.651192560652527508e-01 -2.742970324543187528e-04 -1.009742530103643405e-04 7.597355145430070844e-02
-5.228302984875285442e-02 -5.139395611738878378e-02 3.649826938872242077e-01 -3.359155351982675246e-05 2.902882781771288432e-05 5.961983908719115099e-02
-5.113933043446877713e-02 -4.298640080103462158e-02 3.651946490101709575e-01 -5.261266282579725798e-04 -2.266039393576265945e-04 1.347980985253212360e-01
-5.200733882549107845e-02 -3.531562477955064311e-02 3.648263005972890438e-01 2.856749357171888210e-04 -1.272714392155713107e-04 7.095971847883807138e-02
-5.621424783916164486e-02 -6.396028839054979098e-02 3.649161221515468401e-01 3.425881811283056121e-04 2.348133442261569133e-04 4.556999695433325975e-02
-5.180513031869923152e-02 -5.713662487513285204e-02 3.650724539980653160e-01 -2.052591687211290897e-04 -4.611816404412933561e-05 5.655735136367775334e-02
-4.737864729050953599e-02 -5.761542770536361158e-02 3.649430971104179466e-01 1.836771191473122523e-04 2.539947876707390794e-04 2.867475676674932292e-02
-5.176403712912337751e-02 -1.672556366658616012e-02 3.651498588912274190e-01 -6.115715578760190247e-04 -3.429696464186619679e-04 5.515844121439034825e-02
-4.724347998540995991e-02 -1.668928834273081252e-02 3.649534531515598035e-01 1.107496906430297380e-04 -3.080954237387155268e-05 3.960768536074969759e-02
-5.222117659816145202e-02 -1.571185748928361631e-02 3.649476837217499048e-01 8.019026480034638024e-05 -8.237870572024671610e-05 2.466794082429651924e-02
-4.285779434458544118e-02 -1.685250777402499955e-02 3.650863923796873189e-01 -8.354034957221795029e-05 2.758367801926797820e-04 3.064287389245657148e-02
-3.935272130238592903e-02 -3.063019038531103813e-02 3.650910269480700521e-01 -5.802296319250048408e-05 1.532389444796664990e-04 5.453040182548596349e-02
-5.027639059108868214e-02 -3.741420116243255461e-02 3.649245513152871156e-01 5.952094873642951877e-05 -3.918775488604676568e-04 5.817475469668482307e-02
-6.265528030762003431e-02 -3.826350423679152069e-02 3.648709301068945310e-01 2.335184887822241366e-04 -3.590298900144950670e-04 4.209614488098557816e-02
-5.032393707382735309e-02 -4.908781999896168202e-02 3.650275325459566567e-01 1.529059202585347408e-04 5.862701248309674582e-04 2.788686108626446322e-02
-5.172202280532217644e-02 -3.557818388126079978e-02 3.650088345899574760e-01 -1.878510069718936310e-04 -2.808438328196188449e-04 1.971028416265385719e-02
-4.286044550412581450e-02 -3.076633404458429394e-02 3.650106426350046007e-01 3.175706194576448442e-05 1.084712123341779490e-04 1.115710049289771189e-02
-3.856288128207636251e-02 -7.714859468743284765e-03 3.650725827871111884e-01 -2.504311240622277370e-04 2.779396783633532255e-05 -7.831329825999867184e-03
-4.635371308755414227e-02 -1.846345160210488209e-02 3.649799323279223628e-01 1.189312668268210856e-04 -9.100424853143203189e-05 -1.918949938026302772e-03
-5.143974140643232940e-02 -2.526830864791652226e-02 3.649926324753725027e-01 5.296332740158762626e-05 -6.251070806976546847e-05 -2.726027579557048627e-04
-5.247940819415592567e-02 3.700027448306504162e-03 3.650986365653099974e-01 -3.187392491564763333e-04 -1.767776778562080728e-04 2.904145639785641470e-02
-5.242740299662343451e-02 -2.130433853047752207e-02 3.649936675584739554e-01 1.322192579374562949e-04 -2.875187723871471007e-05 4.877580833364596885e-02
-4.787095080541634018e-02 -2.255843041331621543e-02 3.650905327413164758e-01 -8.784160509657300091e-05 2.136245202203826269e-04 6.194671994155739186e-02
-3.966175152919355906e-02 1.074336025484081379e-02 3.650152137808954089e-01 -1.712187747171940147e-04 6.340123392585334981e-05 2.279773434042581606e-02
-3.809296920334529629e-02 -1.463602222980031446e-02 3.650660491424809750e-01 6.542187324731450206e-05 1.869473774778806835e-04 4.851932809720260059e-02
-4.229174991235767900e-02 -1.868329401427281516e-02 3.649632753259230977e-01 7.298800099413692863e-05 -9.137138927058923604e-05 4.178677861117520431e-02
-2.227835795581106088e-02 -1.655047672994822833e-02 3.649536052727411217e-01 3.791941969992899432e-04 7.415019590331640683e-04 -3.295620334271733703e-02
-3.250806690769637158e-02 -3.745949903863706604e-02 3.650802404191688111e-01 -2.192939305562551896e-05 -8.754112738136949820e-05 9.064559093574489981e-03
-3.695013569242602824e-02 -3.847611603740348774e-02 3.649965372663154239e-01 -6.825112151033463880e-05 -1.380189905659870973e-04 1.789837637510754281e-02
-4.019399291403829427e-02 -5.685477292994268322e-02 3.650693885980683118e-01 -1.264749460954149379e-04 -1.853844131566493539e-04 5.684270699102035584e-02
-3.175746189489990490e-02 -2.439843928986290891e-02 3.650710486833837476e-01 -1.911547376006532645e-04 1.386250439975659479e-04 4.073016646839304478e-02
-3.363778545545086096e-02 -2.893491496747986960e-02 3.650390634348193442e-01 -8.898121575700139734e-05 9.310671336598029673e-06 3.257743468956326993e-02
-3.031276006345762566e-02 -5.205739687583058051e-02 3.650375381851845846e-01 1.238149408172330428e-04 2.696477316964214716e-04 4.290549238797376763e-02
-4.718257199553187869e-02 -4.683632402554351037e-02 3.650020316419929634e-01 -1.919383870177097137e-04 -6.385024492912905799e-04 9.061843719600480573e-02
-4.636688173635898635e-02 -6.304849240491557094e-02 3.650598296275332499e-01 -3.922231034853388440e-05 9.549890638895819123e-05 1.182590970339294223e-01
-3.509636047499689604e-02 -5.114970921331409015e-02 3.650684322398283777e-01 -2.126968533637826171e-04 1.536204419161932375e-04 1.049824467292200386e-01
-3.667128524829955244e-02 -1.803102552160601099e-03 3.650172660301086447e-01 -1.818532489110307522e-04 2.387269551962196580e-05 6.991808832715805389e-02
-4.936528953552019039e-02 -3.800915752052724805e-02 3.647631449655912572e-01 5.595510461736130387e-04 -3.874481695807083974e-04 5.261929799514280387e-02
-3.571183138163772086e-02 -9.258755276166556747e-02 3.649454440636932251e-01 6.102442479578785344e-04 8.537600703788860530e-04 3.682434302534820514e-02
-4.434139706917576002e-02 -7.468980007459452564e-02 3.649823082249580297e-01 -2.514802344997125062e-04 -5.556022034983014186e-04 3.598368839906971456e-02
-3.228147266745954452e-02 -3.188408889649205213e-02 3.652728414485469366e-01 -7.564377981331345561e-04 1.796052247860414777e-04 8.270122899351239898e-02
-3.523640253957788931e-02 -2.325480600447419818e-02 3.649976430059732602e-01 -6.366621711398206282e-05 -6.591769864095647392e-05 7.856475599114136343e-02
-3.263982013018697920e-02 -7.557357678337693098e-03 3.650982800381472049e-01 -2.622914120698224372e-04 -3.602954321560191190e-05 1.018116415378551437e-01
-3.829621554242654269e-02 -2.589374141599982970e-02 3.649351905108515481e-01 2.725891128979548756e-04 -6.274960970855934816e-05 1.024451362912850855e-01
-5.190849417580213621e-02 -1.761834417009803394e-02 3.649385343629515943e-01 -6.719484774377041292e-05 -5.296108548370076236e-04 9.124635135850663048e-02
-4.706183394699017114e-02 -3.595423019854029206e-02 3.649657127940539869e-01 2.063451019386171109e-04 2.917444952040222422e-04 7.248100659877862451e-02
-4.161802834481397734e-02 -3.873815468584740351e-02 3.651032044749040750e-01 -2.388842714900612249e-04 -5.809380442894510131e-05 1.222135030425758190e-01
-4.473191239259853569e-02 -6.332997688006103409e-02 3.647617823636754020e-01 7.781634902022752662e-04 3.656960286311130410e-04 4.371650966319564485e-02
-3.837877082656665495e-02 -2.521065175869765737e-02 3.650275494047107161e-01 -2.093572414541830854e-04 1.364966808121323124e-04 1.234066743013562811e-03
-4.273424809176144118e-02 2.641777200326096958e-03 3.650654052129703731e-01 -3.771728693838191670e-04 -3.651173025345292016e-04 2.390444113725586836e-02
-4.248311319732100966e-02 -1.987415489725121581e-02 3.649217666242929869e-01 2.220374863174729341e-04 -8.316077696850447795e-05 9.178886335388629011e-03
-4.182074107067361435e-02 -2.973115164493497081e-02 3.649424445913170834e-01 1.271849527136443788e-04 7.784513786771543760e-05 -1.381430574060088338e-02
-4.317031215397575811e-02 -2.228307877993711272e-02 3.649969590028762090e-01 -2.017630654006476653e-05 -1.186347579521672055e-04 6.698665207093773034e-03
-4.743202101465284620e-02 -6.362017708353738706e-03 3.650712293424092092e-01 -3.396356315790008732e-04 -1.399591998497685898e-04 1.773888145862450444e-02
-5.138507183426006125e-02 -9.032876785662695071e-03 3.650520486228304162e-01 -9.761660687403534071e-05 4.275295466803543385e-05 1.977186815114117396e-02
-4.643976217276392371e-02 -3.650603972690771165e-02 3.649625723115579312e-01 3.493079854795961290e-04 2.898523750681836534e-04 2.204770474632965910e-02
-4.920336406591544615e-02 -4.435154806374078801e-02 3.650012718283144331e-01 -4.462693182029483207e-06 -1.470960686871992549e-04 2.460146487228676709e-02
-5.442254196701120511e-02 -6.723946949690372266e-02 3.649754841489674662e-01 1.244982527545092301e-04 -6.731839986815468249e-05 5.384566643355386678e-02
-3.994652199022245137e-02 -3.647353670441031565e-02 3.651277204840822632e-01 -3.307024192631374923e-04 4.021898910920047713e-04 3.205062284271425338e-02
-4.695103071994337351e-02 -2.998866029266153421e-02 3.649705938007101191e-01 -4.485980252833430187e-07 -2.474429409519339441e-04 3.199152606689693867e-02
-4.855726336555323680e-02 -6.120515462155456249e-02 3.649170555361154200e-01 3.953038184801240147e-04 2.332087364547241021e-04 1.645840988206174332e-02
-5.867022952940404573e-02 -6.769532633332825400e-02 3.648734335974853638e-01 1.342070978108220885e-04 -4.521411512319303870e-04 -2.030333919055120687e-02
-6.606877018570471438e-02 -2.752154106259871447e-02 3.650855119483766842e-01 -4.528670685201265024e-04 -2.851262259258715106e-04 2.722601185179570303e-03
-4.779736717500192300e-02 -3.944008619228731721e-02 3.650747923652752913e-01 -4.259792452220727727e-05 4.108067433947306985e-04 -7.757824757563502351e-03
-4.309275513729197288e-02 -2.882090924228075668e-02 3.651765742947111759e-01 -3.768536685978078875e-04 -1.845731701347868973e-05 4.017300509563121597e-02
-4.443087606271263479e-02 -3.403440911120194506e-02 3.649838321955628517e-01 6.047716455888874982e-05 -5.574239456167653982e-05 3.935496453503558451e-02
-4.572650475991200947e-02 -2.951891377394005866e-02 3.649080988356220301e-01 1.231754409744776626e-04 7.311666713666831934e-05 -5.884350755410342783e-03
-3.729770635956598801e-02 -3.800310407398790891e-02 3.650466350038712449e-01 1.094000066815925651e-04 3.656869785418388080e-04 1.713925769467693205e-02
-3.326960486081102786e-02 -3.500146554045385078e-02 3.650580092574278179e-01 -1.150485811484838554e-04 1.056640195054052493e-04 2.232218501389289858e-02
-3.135429875813806194e-02 -1.044254948346061765e-02 3.650289783214712425e-01 -1.597467437584551586e-04 8.155504081468340752e-05 1.571343374339866442e-02
-5.962344755291108106e-02 -1.353661781809034625e-02 3.648508840500822581e-01 7.840481782474328714e-05 -8.201708396307607002e-04 1.483163691887901502e-02
-4.435092717571210985e-02 -3.385331966132678477e-02 3.651392001697184586e-01 -1.602027682875459096e-04 3.812604543101249664e-04 4.756208159338239094e-02
-4.799317895694885788e-02 -4.623096545287842807e-02 3.649995209882075375e-01 -1.863203322800938123e-05 -3.052588372931512589e-05 5.973479415768270101e-02
-4.344496549284914549e-02 -4.658100398298595235e-02 3.649812869497736090e-01 -1.514006986208440370e-05 -4.110000375734622336e-05 5.207476255518903030e-02
-4.066351129533356257e-02 -7.218928719193200977e-03 3.652087392900833507e-01 -7.325282558191535979e-04 -2.803580277715195419e-04 7.749637663938974130e-02
-4.769906853066014502e-02 -1.814686987581919445e-02 3.649702200869452406e-01 8.624731411068790236e-05 -1.420501848146168815e-04 7.223818003520696140e-02
-4.390219595751775755e-02 -2.892248821263980474e-02 3.649008660209120958e-01 3.022906614412822061e-04 9.838216342674148060e-05 2.873562320677499130e-02
-5.325650385232792022e-02 -4.547701866382330808e-03 3.650232941285124766e-01 -3.388917156030306810e-04 -5.191309642453291158e-04 3.597008061963095221e-02
-5.224445938859908350e-02 -5.514603425863413844e-03 3.648953618448037561e-01 2.634774003154867852e-04 -1.638373645883899521e-04 1.534811085082888465e-02
-5.691154045843569570e-02 3.222378553800106168e-03 3.651519794493977566e-01 -4.353193638740312588e-04 -6.438493333361045630e-05 4.462460622048654291e-02
-5.697567769126534593e-02 4.417972620104126252e-02 3.652420716694776970e-01 -9.419548685981264224e-04 -8.432315052654646174e-04 1.545898567759831921e-01
-5.743508843041059131e-02 2.011525686640764504e-02 3.651408696566456058e-01 -2.102418075571266471e-04 2.044852146987275376e-05 2.070278901513994407e-01
-6.181724412251222989e-02 4.883514112854211477e-03 3.649384621285648445e-01 1.742495257723435955e-04 -1.305545289396760594e-04 1.920523638836277858e-01
-5.273779430729437501e-02 2.439648309720324551e-02 3.649216252873197508e-01 2.073878795497897021e-04 3.900281449380736416e-04 1.190863151503224054e-01
-4.737425440674255389e-02 4.692940870543053922e-02 3.651946985333537343e-01 -4.908217017212821104e-04 -2.439945810750226480e-05 1.661300292075323093e-01
-4.897778026220302866e-02 6.114418287459660178e-02 3.650138328635305629e-01 -9.820919184934470030e-05 4.066135818386834054e-06 1.513357179918421724e-01
-5.627508508065697662e-02 2.365427684087394178e-02 3.649125445096818021e-01 2.348284024911288272e-04 -2.595944025324006766e-04 1.538464606114618993e-01
-4.862347491114459019e-02 3.133702433390254255e-02 3.650992243561009820e-01 -1.079253610596050191e-04 4.438018441301656305e-04 1.362369021435086425e-01
-3.545818045084561665e-02 3.593740534420132582e-02 3.651527237871864395e-01 -3.330210407115773066e-04 6.030051254088840195e-05 1.806379030227824312e-01
-4.202835337446714226e-02 2.164854815401221280e-02 3.650274194750681156e-01 -3.434251765041125538e-05 3.420521000064726371e-04 1.787741466546338975e-01
-2.395313801105698401e-02 3.985052693418177777e-02 3.648413632914092597e-01 1.472903879256830663e-04 2.122160986646976031e-04 7.416516707286111010e-02
-3.085990411528523672e-02 2.101384049977336743e-02 3.649738024062297859e-01 6.309777321428136198e-05 -1.920004293678842153e-04 6.453417804278210879e-02
-2.592779371813424064e-02 4.042131720709953024e-02 3.650152911234892938e-01 -1.664994172240687631e-04 3.640868964638451703e-04 5.672845521262517669e-03
-3.605421602752126309e-02 2.590592900163009998e-02 3.649462282618265441e-01 6.628292189491065726e-05 -4.655163963490969547e-04 3.869264884137604138e-02
-1.904390821001697431e-02 1.795564809899198241e-02 3.651693222459855281e-01 -5.743444088181742617e-04 2.730172365373041937e-04 1.968217871311029460e-02
-1.264942451173047162e-02 4.329346277719391123e-02 3.653480347758144009e-01 -1.436791424647733623e-03 -5.566888963470624984e-04 6.356197443202186992e-02
-3.811247073715233469e-02 7.644287470084125402e-02 3.653911246172661942e-01 -9.604413782206925329e-04 -1.535062099336184042e-03 -1.297300579669335707e-01
-4.600188236420279381e-02 1.348911516923207571e-02 3.651261002302267356e-01 -5.560447289616606784e-04 -7.559591565481585005e-04 -6.687515118923405277e-02
-3.083004588523889991e-02 7.937639290683534687e-02 3.650196856417536884e-01 -6.751364719286085054e-04 4.815900628415421933e-04 3.272451330834885708e-02
-2.232498085032593241e-02 1.156482781625644760e-02 3.650978770333667134e-01 3.066226307416904779e-04 1.314838132449472631e-05 -2.457296698156741510e-01
-1.273176015957543962e-02 -1.799859691185129798e-02 3.651003060352990826e-01 1.464667058705073255e-04 1.354805721238387531e-03 -1.131118909825980928e-01
-4.578733479334771983e-02 1.453323020864636002e-02 3.650261771042641046e-01 -6.352625298740761928e-04 -7.207898465842745798e-04 -2.404879851427690340e-01
-2.473467118302749568e-02 -1.330461825280615518e-02 3.650236994720554851e-01 -1.117511818701170240e-04 6.208520359669599312e-05 -6.584076927732752937e-02
-2.255121465224889984e-03 -4.262801729010669283e-02 3.651217224117483950e-01 8.091994653711235023e-05 3.098532931856354537e-04 -1.330812933643621410e-01
1.058585215601248741e-02 2.736489003988327832e-03 3.648325331333192034e-01 -1.325483981122406755e-04 -5.669637617789840493e-04 -1.430058598840615227e-03
7.180565587178765544e-03 -2.015959051906165891e-03 3.650950588950050424e-01 -3.834732104514853191e-05 2.157681756274730121e-04 -1.756114346201709600e-02
1.332499422305768837e-02 1.035125114206215252e-02 3.647924101767869298e-01 -3.505648325111097321e-04 3.566676459711923004e-04 -8.131087835101163952e-03
1.506454745360732463e-02 2.524031600796078009e-02 3.649505778308786419e-01 -2.030515291566027767e-04 3.777438325204791956e-04 4.804448182653450056e-02
-4.054489890509123569e-03 -1.601188967167258351e-02 3.654599269315934595e-01 1.151654877670518946e-03 -1.644963267957549858e-04 -8.963789894058173113e-02
2.202786804186447882e-03 4.571610735253833768e-02 3.649740472000099212e-01 -1.813338907329139615e-04 -3.645492256763093277e-05 -9.595815644595470650e-02
2.304100230616159053e-02 8.841450471522231680e-02 3.650401458430833079e-01 -3.017132815345762538e-04 -1.545034523778618385e-03 -8.859801300294625759e-02
-9.460133210657781927e-03 6.844062774543127614e-02 3.648223747030816533e-01 7.101558629937556873e-05 -6.073954160482125317e-04 -3.703163618253534767e-02
-2.377772125839953260e-02 -1.151305817317125474e-02 3.647658930536906707e-01 2.183353415269883332e-04 -4.878733390326150205e-04 4.229809370165836524e-02
7.475564414823075710e-03 -1.079191197025070742e-02 3.650327549333238220e-01 8.407529417819053943e-05 4.652375558268998239e-04 1.168812643660074591e-01
2.997550742383889300e-02 7.855874285459718900e-03 3.646031874812981632e-01 1.429654860348205259e-03 9.111151674728210862e-04 8.059803980099475296e-02
1.988246433868456897e-02 -8.921196083384579090e-02 3.641494444137303721e-01 1.342276542078106030e-03 -9.138846329320505276e-04 -1.582036017379774839e-01
1.402320749461399320e-02 -6.478073044518310730e-02 3.650585715511492357e-01 -6.741196730590599167e-04 5.319886120609319423e-04 -2.154970786565021945e-01
2.934048581645699177e-02 -4.915620076512821485e-02 3.649016967533483258e-01 -5.626410366051374417e-04 -3.677177523964546589e-05 -1.354712975741288739e-01
2.877958243992995852e-02 -2.766929989538549281e-02 3.650683399376095650e-01 -3.650659434214917820e-04 5.077883882981177373e-04 5.211159885960010146e-02
1.373425019680000504e-02 -8.588227146533164436e-02 3.649997204219741498e-01 -1.083917791370417761e-04 -5.141182354752552204e-04 -2.019806071272174652e-03
-4.330530435180147963e-03 -1.645111591596052081e-01 3.654712936789721311e-01 -1.028470574988935449e-03 -1.021050581906164656e-03 7.332448070383223993e-02
-1.541168558887215032e-02 -5.527930227814683434e-02 3.651051514353305660e-01 -4.681506010196995258e-04 3.548727193461162564e-04 6.412302200102963645e-02
-4.003708341039517032e-02 -6.736560500790318880e-03 3.649703052075289333e-01 -1.216690638437080066e-04 -4.953600105001618572e-04 -3.650222385003805414e-02
-3.217193821027160977e-02 -6.337762111186293068e-03 3.649590148012292756e-01 4.327578375264108310e-04 -2.920474135017350000e-04 -1.722472329685588791e-02
-2.612430712561959051e-02 -2.462068923773399337e-02 3.646342207768361598e-01 2.873670407787584776e-04 1.274556404873168343e-04 9.229898335182940700e-03
-3.580121061841873981e-02 1.053726598836439605e-02 3.648421946850801678e-01 -3.723285470688781577e-04 -8.670365867321744129e-04 1.575101751857493071e-01
-4.002101128107617839e-02 -2.828918210050795218e-02 3.651733870451246422e-01 1.298830677264279168e-04 7.048254159030704078e-04 5.269205831416717833e-02
-3.521283438213859696e-02 -3.818784959210158592e-02 3.649717564943582016e-01 -1.048342168199708243e-04 -6.519963919691273589e-04 -1.529268351066345177e-01
-4.407933677692921909e-02 -1.721239950700878887e-02 3.649355154231941345e-01 -1.225731070198259835e-03 -2.140806076381991533e-04 -9.318324330506512487e-02
-5.430288284775042912e-02 -4.533904384115124836e-02 3.651885365060833499e-01 -8.976668670525649258e-04 1.640267884908840372e-03 1.074616605739833336e-01
-4.221260064304748622e-02 -8.479715653599088562e-03 3.649159405587975025e-01 -2.949216004183851129e-04 4.371319821841045550e-04 -2.975803270541465748e-02
-4.944743228409972241e-02 -1.942473458183702683e-03 3.648847953938298971e-01 2.952429542537233793e-04 -1.180231711813852120e-03 -2.897704982001198318e-02
2.848474547188259431e-02 -1.294635623434753913e-01 3.657539016278533728e-01 9.279626185887746622e-04 5.036027098271071614e-04 -5.320785398636951324e-02
7.682817822288108556e-02 -6.835369270571731160e-02 3.650774944769005770e-01 1.060664383035390956e-03 -6.377861941854801910e-04 -4.291988985698121095e-02
1.905247995227163024e-02 -9.549392241923670976e-02 3.646580210654562504e-01 -1.421627225376323250e-03 9.239922517227152623e-04 -7.336758322384388797e-02
5.203234760197127107e-02 -7.843126183797007045e-02 3.653341541964265637e-01 1.786896418241423756e-03 7.312172056425928412e-04 -8.080243402053047946e-03
7.831334107763607624e-03 -7.450831772070043435e-02 3.647469078150782362e-01 1.095687117396915757e-04 -1.298684618862723473e-03 1.963286381899063682e-01
-1.119857923551330348e-02 -4.486845445156924239e-02 3.645211828066093895e-01 -5.655671090142939039e-04 -4.819924926482087291e-04 9.901673479225198138e-02
-2.158667196946785841e-02 -5.260018481309412797e-02 3.650637034668652303e-01 6.815580930032623950e-04 -3.925066635937841291e-04 -9.889883423791724637e-02
-3.498357746593170475e-02 -1.358669161398105008e-01 3.650347760867201363e-01 8.819681938625944986e-04 -9.637079533299949775e-04 1.223515872725233940e-02
-2.114611966882746011e-02 -1.507455099078419403e-01 3.652800476053438827e-01 3.755028189153516516e-04 -6.129012408854399643e-04 -1.495624254361141436e-01
-8.101122736280544985e-05 -1.682844173297408097e-01 3.649391064986340361e-01 -4.449022279502991837e-05 -1.623596254824402239e-04 -2.705363224593391180e-01
-1.125598312658841922e-02 -1.334774784273480008e-01 3.648049161055612610e-01 -3.063290554668420982e-04 4.059327549325156595e-04 -2.561929236312547875e-01
-6.601594675080107825e-03 -1.046221804406086975e-01 3.650538954398983016e-01 -2.591565291158588443e-04 5.745747662124886437e-04 -2.154713321400643644e-01
-2.601402541850006758e-02 -1.407022620452290373e-01 3.650431139060880681e-01 1.506279550425330873e-04 -1.701209696528721332e-04 -6.485682221344254983e-02
-5.561598801766884370e-02 -8.911670619092228185e-02 3.645317558209151265e-01 -4.105468870153317052e-04 -1.761073174672226271e-03 -7.136714756039962138e-02
-7.115202647501282784e-02 -8.493557286908412496e-02 3.646433848963220314e-01 -4.492594552475319761e-04 -7.240163555642698283e-04 -1.592427228701017161e-01
-7.390862718457658076e-02 -3.005668296210348492e-02 3.648584842607745515e-01 -3.686255506472278223e-05 -1.955314834263603176e-03 -8.644023285431041981e-02
-9.468172254443879554e-02 -5.705808246068524991e-02 3.656233614975039625e-01 5.331685772192067737e-04 -1.223017885759842931e-03 -2.771695897799985597e-01
-1.505359017713339409e-01 -1.223626700489997970e-01 3.648934254467915972e-01 4.338057845902328416e-04 4.991600297681299215e-04 -1.748782615289714015e-01
-1.266811009361632490e-01 -1.525376192847757439e-01 3.651010067492366784e-01 2.307572718176295482e-04 8.801323425281276560e-04 -2.985481508960833308e-01
-7.233195053931262830e-02 -1.497719375775092288e-01 3.657387576440038757e-01 -3.751224904727062633e-04 2.199880527450668623e-03 -2.328253321300299272e-01
-5.265007940095300237e-02 -1.329337211891742643e-01 3.649372020595827992e-01 -6.037657103428723361e-04 -5.204334283963475666e-05 -1.738230166257667964e-01
-3.521277014697730273e-02 -1.492185820015614062e-01 3.651888774122319381e-01 9.865893037891972854e-05 1.351281897311702338e-03 -1.715667671167738773e-01
-7.935875574999484011e-03 -1.079892485440923089e-01 3.649464668968136483e-01 1.245374184588092471e-04 6.009522395162226940e-04 -1.653614381137112899e-01
-3.902255390257172718e-02 -1.202359924419274251e-01 3.649202136403109087e-01 -2.643906497183608640e-03 -6.253766938594810176e-04 7.814429573290183895e-03
-3.846019727677758848e-02 -1.672424109732744413e-01 3.649898406019901898e-01 6.971086823672301787e-05 -5.004527978266392794e-05 5.022243804144267687e-02
-2.011587938150444579e-02 -7.990146479834536741e-02 3.648918232274422357e-01 2.759534884977489846e-04 7.520265220692167818e-05 2.235752661444995269e-03
1.114559417595545159e-02 -7.469798533269614293e-02 3.649476649137644024e-01 -4.005126078250418210e-04 1.366287042469459907e-04 3.961545808660282830e-02
3.794804817785842228e-03 -6.970828730278098850e-02 3.647977916597747172e-01 -6.770582259626855420e-04 7.309900878888670210e-04 3.561747353326874532e-02
-2.557352247626772535e-03 -1.149602999797403879e-01 3.649684903917086998e-01 1.365462796795137369e-04 -2.440621074807401778e-04 2.190686188548160718e-01
-2.750404540726233277e-02 -7.590014108637661849e-02 3.652111727284904630e-01 1.530014517150580502e-03 -3.471796207466358412e-03 -8.683411835781110200e-02
1.184026967531775316e-03 -1.057167516618356534e-01 3.650161677206804622e-01 -1.464950947970132967e-04 1.535778750666464060e-04 -2.314030646022810847e-02
1.332809249062214679e-02 -8.193774343170495689e-02 3.651093199594913630e-01 1.194711239370535471e-05 5.129021125433697818e-04 -1.859740641866584540e-02
-1.777002352703615790e-04 -5.124346881040862944e-02 3.648651436123618863e-01 -4.889765130702137174e-04 -2.612357734684394315e-04 7.547263372581984597e-02
2.410907261482667444e-03 -6.155300707374528751e-02 3.650726526523306870e-01 1.751176153982761993e-04 1.382971697067457477e-05 1.253366697727296697e-01
9.305994357778504464e-03 -8.883114334676101009e-02 3.647447500317168023e-01 -1.680213487028472084e-03 1.474961799308206756e-03 8.020866724393026226e-02
5.156947629353265082e-03 -4.631688705647509646e-02 3.649224273188355627e-01 -5.215723145567597083e-06 -2.521793535056711865e-04 4.019036198793328463e-02
2.962359153202093198e-02 -1.961311492531818759e-02 3.651095488470461614e-01 -9.276706773400229372e-06 6.406731788914237250e-04 2.204572664265749826e-02
1.608585418795692099e-02 -3.520519671561687935e-02 3.649519632344270237e-01 -3.833173121797872049e-05 -1.555933215048944430e-04 -1.693791192557399976e-03
7.600748845662166214e-03 -6.038491161582782568e-02 3.647759791268199159e-01 -3.572706816699654014e-04 -5.623685880272948729e-04 -9.263382894071163498e-02
-3.938430837329781609e-03 -3.552636817313987311e-02 3.647462527343713345e-01 -1.880193333343284996e-04 -4.947503099525490510e-04 -1.843138886749269567e-02
8.371772446721341757e-03 -2.167027252309253887e-02 3.651695036365073532e-01 5.290487926023370148e-04 -2.419555624065201959e-04 1.489530157765528440e-01
