1.709910249757062572e-01 -1.271580584850560969e-01 2.175692269495898556e-01 8.527453155681947257e-05 -3.166731822541576837e-03 -3.217920983590364936e-01
2.040330791197016991e-01 -9.400999862066411472e-02 2.173524126920233224e-01 -1.869833703071184400e-05 -2.695165983954795914e-03 -2.569165492712636167e-01
2.061273688780091429e-01 -6.637427721739644348e-02 2.176099097683490968e-01 -1.628611750128168589e-04 -2.870499132389243545e-03 -2.267437485827713262e-01
2.003262187397086835e-01 -7.866944307374268419e-02 2.175391382960270015e-01 8.064424701266923920e-05 -2.566890112062690348e-03 -1.846754506172924026e-01
1.906437483017904833e-01 -1.168210992406888832e-01 2.176872916946638314e-01 2.840977950051127134e-04 -3.386139774571789770e-03 -2.774483951873104037e-01
1.865121800661197482e-01 -6.010176385146175082e-02 2.174865261829184715e-01 -3.573171647454099218e-04 -2.889347077785027994e-03 -1.381409927288199668e-01
1.466715020448596252e-01 -7.125309591848449919e-02 2.176470265664227632e-01 -2.894698315886861122e-05 -3.095682455950589124e-03 -1.779610805290082198e-01
1.678273680814768298e-01 -3.019432164321961612e-02 2.175953081789639421e-01 -4.884147631295944047e-04 -2.751864125093917996e-03 -2.202109265100100910e-01
2.046526135531999135e-01 -7.231174586964023154e-02 2.176350265820898855e-01 2.993234975607533886e-04 -2.926769778030270490e-03 -2.124063576858534197e-01
1.774452789145264109e-01 -5.636464500709176956e-02 2.177627525058367097e-01 -2.948369990251210730e-04 -3.317025560334069863e-03 -1.475173138749227286e-01
1.899307510673212684e-01 -6.607012358244183925e-02 2.177033580830592396e-01 -1.499013856286091473e-05 -2.821729321295984427e-03 -1.311023616525941460e-01
2.242778863197958106e-01 -1.594909730064134751e-02 2.177483342139516220e-01 -2.282655183177032486e-04 -2.604633894104587972e-03 5.059206281522623042e-03
2.192670947859525765e-01 -3.197518793304791190e-02 2.179658977357843974e-01 1.087649715678688182e-04 -3.119449202757418761e-03 -8.580094809441074499e-02
2.317722239138099993e-01 -6.062912813618356878e-02 2.182275722832814902e-01 -7.196915462012010807e-05 -3.082156620466932131e-03 -2.303174112104167948e-01
5.114636501193989271e-02 2.988923436927527766e-02 2.048625778926203567e-01 -6.516193118383069825e-03 2.782159869539565372e-02 -1.899445270229964122e-01
9.889566093164917082e-02 5.584411618858674958e-02 2.051607053793804702e-01 -6.830639543775118144e-03 2.764483174155179038e-02 -2.418729434799526401e-01
1.373650893665928630e-01 9.172350666059073121e-02 2.053790952949843263e-01 -6.883040308462184606e-03 2.695257985000696840e-02 -2.625340822388653184e-01
1.412097004006115097e-01 1.425076854973111873e-01 2.057702588589973569e-01 -6.458888500817310668e-03 2.632832667664223442e-02 -2.130644724727144279e-01
7.529697030666504531e-02 1.212999222235556784e-01 2.062703948621521510e-01 -5.884797077916920950e-03 2.509119234016139385e-02 -2.411533843203139682e-01
4.259466201205468899e-02 1.344837697798032528e-01 2.068063667576488518e-01 -5.242436314757046439e-03 2.299953673139187513e-02 -1.649063692340128895e-01
-8.816228785889584918e-03 1.539481567983727039e-01 2.073403262418110904e-01 -4.202453224155235263e-03 2.079711802624981468e-02 -3.745696298111069744e-01
5.287611442612538681e-02 1.399894883108945831e-01 2.080384771223305340e-01 -3.079349175098130328e-03 1.802911619906305551e-02 -2.565452967953468777e-01
3.134936677079207257e-02 1.497588048529037430e-01 2.087120314944249100e-01 -1.914879580526320565e-03 1.475277172139334049e-02 -3.942091283137845181e-01
9.962018263074930158e-02 1.189278689776566700e-01 2.094848815548744358e-01 -1.033497316229074151e-03 1.201306296669539704e-02 -3.608531848114034379e-01
1.221190253640306450e-01 9.026744304652729867e-02 2.103429010499828222e-01 -6.311607059028565350e-04 7.196502316800013760e-03 -3.722607985073178027e-01
2.033283239551087751e-01 8.737337965350230884e-02 2.110722648239231614e-01 2.742879092345285269e-05 3.889562392729756322e-03 -2.025104303507890280e-01
1.619512004144040840e-01 1.771004522533013992e-01 2.118898392186650548e-01 -8.509205172273115090e-05 -1.278884362965463121e-03 -2.759945921363531895e-01
2.074617127156401508e-01 1.723362290647737494e-01 2.128424629552648217e-01 -4.157019227641350510e-04 -6.127623207978114342e-03 -1.995795411208595715e-01
3.699675399424435795e-01 2.117074789232145926e-01 2.136694100150029474e-01 -5.092174666187275576e-04 -1.080080786304248898e-02 -1.765764958908510318e-01
-6.893648981877797954e-02 1.685079679403307940e-01 2.063172386505930378e-01 -2.083825257657539488e-03 1.365861342131489617e-02 -3.966649150224985099e-01
-2.176716759036111115e-02 2.040635823710177654e-01 2.069633572725079196e-01 -6.706595731768139447e-04 7.714424705825364409e-03 -3.354563601680991547e-01
2.841211658208023239e-02 1.770359132700513316e-01 2.082852700230885534e-01 -1.386458514479882713e-05 2.756978675452991055e-03 -3.893922871373561856e-01
3.760505836118891582e-02 1.626465005509628026e-01 2.091908185376424312e-01 -2.246774714684032488e-04 -1.635423808371444000e-03 -4.131867152013602440e-01
9.114632710590674092e-02 2.341739422385716585e-01 2.108163059311712328e-01 -3.637628576085959057e-04 -4.920040370088066620e-03 -3.954012920717670521e-01
1.824201627223147326e-01 3.430832752169188371e-01 2.118176311363438868e-01 -7.665330699049491400e-04 -6.182576563757609563e-03 -5.376119389674131055e-01
2.816267639965999159e-01 3.899925515074446625e-01 2.136999287315161089e-01 -6.418529335678248727e-04 -9.127455162829754484e-03 -3.966311647443122590e-01
2.909710179556401211e-01 3.278421767077615567e-01 2.153722773533270907e-01 -5.953908665616948004e-04 -1.139297218065689864e-02 -4.106698047554619979e-01
3.292862247083473415e-01 3.453447438436389461e-01 2.170976598245988320e-01 -1.501441452119738193e-03 -1.263549214191030633e-02 -3.799048597139793038e-01
3.833069208815151341e-01 3.990712898464389147e-01 2.185415039609658328e-01 -1.905428097085487245e-03 -1.275147176930347716e-02 -1.953430330730053510e-01
-1.480471640857553284e-01 5.485104601976439342e-01 1.999465310363356396e-01 -2.025506824787273849e-04 2.466396733324416096e-04 -1.020526230065633283e-01
-1.192122346171861219e-01 5.586789439789295875e-01 2.021353626502331302e-01 4.554537951826877402e-04 1.282027837169306570e-03 -1.322928516824779799e-01
-1.594033998779459393e-01 6.133821227843084811e-01 2.040688337697820209e-01 -9.561734312617352750e-05 7.044454870396558337e-05 -2.224036389292715077e-01
-8.895842666378497854e-02 5.360552177712685218e-01 2.065614036777945750e-01 5.670645166846540906e-04 -1.001689919567863178e-04 -3.038948113614514113e-01
-4.845042344049646510e-02 5.143816716985392112e-01 2.084144520818643209e-01 -6.849155679692665866e-04 -1.609070345205944764e-03 -3.451020179692684819e-01
2.373458202998174338e-02 4.761726885551800237e-01 2.107585646848996186e-01 2.831792524987916172e-04 -7.875874361759132788e-04 -2.630854036648154759e-01
4.457159553516944206e-02 5.445470704067595369e-01 2.133894385175992281e-01 -1.764857104761706952e-04 -1.957247099067119158e-03 -4.247497362839297019e-01
9.832589767500735101e-02 6.597523441199720784e-01 2.153625172126489296e-01 -9.208660141946231267e-04 -1.499664398717271601e-03 -3.826536728532697329e-01
1.356889156231003701e-01 6.195768961716134893e-01 2.176411605814652095e-01 -1.184016593529232329e-04 -7.968942423010415667e-04 -3.388553455807253867e-01
-2.424051566063739338e-01 4.196053650972641491e-01 2.006582013583604884e-01 2.633198539269732824e-03 2.118615357415236204e-03 -3.844218879409989631e-01
-1.323554360970082000e-01 3.757400862372453076e-01 2.032614924059925055e-01 1.161749288703457957e-03 8.339261903137488345e-04 -4.099882234213438892e-01
-7.571881412067259232e-02 3.741351599921328153e-01 2.060442215260216425e-01 4.543253317398487511e-04 1.743571090074871031e-04 -4.152069189616943157e-01
7.063912631084377780e-02 3.587038623212749355e-01 2.086715337267603942e-01 8.345314064228784344e-04 -5.825020688957819161e-04 -3.259401818566143860e-01
8.182002939271876274e-02 4.316900534256588595e-01 2.116472573511474220e-01 -1.233001681730075448e-03 -1.846569670081976396e-03 -3.202113210384137654e-01
4.673833203751769083e-02 4.012624685294414184e-01 2.144821054726810949e-01 -6.900770790376476154e-04 -7.580718832343304268e-04 -3.899045426452805718e-01
1.551266996335991522e-01 4.641124116155548318e-01 2.174494974642836587e-01 3.288944227596713311e-04 -2.583279120279195916e-05 -3.438086497279388420e-01
-3.484905059830069041e-01 4.740502417503225097e-01 1.999606848783748725e-01 -8.635653018593390416e-06 -6.787808015509238634e-04 -4.790937394581253894e-01
-2.551507083623686389e-01 4.671731304614290536e-01 2.030223790635581893e-01 3.936810224045778138e-04 6.720476567425047237e-04 -2.834334376950005119e-01
-4.663059249088689906e-02 5.705267761221831657e-01 2.060803736182403867e-01 -2.382433807772097736e-04 7.263224898329427104e-04 -4.954315703384247760e-01
3.985781305118273055e-02 6.047626966574455309e-01 2.092320986944123939e-01 -3.665686488094580951e-04 -1.033116199178579195e-04 -5.218954075724898667e-01
1.571296711758009834e-01 6.659264530622324152e-01 2.124481611406046633e-01 -3.125022314730539243e-04 -8.795038132932170253e-06 -5.237626115710856123e-01
1.986393232065167824e-01 7.485031686086185410e-01 2.154850754812338565e-01 9.039156793719575972e-04 3.435276174932479871e-04 -6.024292209755717220e-01
2.821031161990185665e-01 7.143966932400211967e-01 2.187627618979765542e-01 2.362467311421633475e-04 -1.975176788091868928e-05 -6.509593913008114852e-01
-1.852235843576957308e-01 5.658384594658630862e-01 2.014719500600173907e-01 7.328387017864094544e-04 -2.654524369281229738e-04 -4.072182684150264520e-01
-1.300960289379544665e-01 6.403707556290092473e-01 2.046606405104467452e-01 -5.472904765694611672e-04 6.899655543899810371e-04 -4.296791692804152185e-01
3.124753054716122164e-02 6.932726545156101539e-01 2.080246251543916847e-01 4.348084314089952260e-05 2.550811950738256294e-04 -3.442013757517971562e-01
1.250272315580895355e-01 5.648218953696813038e-01 2.113448140050565027e-01 1.561948097428342698e-04 3.491686231651622827e-04 -3.408480107603278353e-01
2.232873586865142257e-01 5.292870493462109582e-01 2.147026380526217970e-01 3.077128209838284165e-04 4.370952570389060850e-04 -5.003139752782505001e-01
3.765253070072944186e-01 4.332548137878250993e-01 2.179824222764747410e-01 6.958019035051933110e-04 -7.341720685209538074e-05 -2.922192023422203744e-01
-7.748317294579831760e-02 4.179831783790953215e-01 2.001067925542931447e-01 1.059335689298737020e-04 -1.315844591476114439e-04 -2.403853358105925986e-01
3.730172162753178644e-02 3.361310079266713324e-01 2.034038581661007927e-01 4.969689193247019489e-06 6.639471104338699932e-05 -2.599141017592723410e-02
5.734215550118634125e-02 2.809976168317565026e-01 2.068013222371271054e-01 2.173712736824272827e-04 -2.125508773909432273e-04 6.204011522315248245e-02
1.193205008261044170e-01 1.734800586007952949e-01 2.098695887364245838e-01 1.372098096245131908e-04 2.183252690855279289e-04 -4.973890870133876319e-02
1.667816266213802412e-01 4.271840395350499087e-01 2.129681818870381993e-01 -1.049801301858990224e-04 5.990150043095415983e-04 -4.059019021133183913e-01
2.412019112635188645e-01 3.957050081262025731e-01 2.163171631853917365e-01 -9.846105356619528032e-05 -2.505949235734229600e-04 -3.765652441755188984e-01
4.156977295368530778e-01 4.833700711329354527e-01 2.193786134120059850e-01 8.371722720208330372e-05 6.640382299770932915e-04 -3.790565063386929223e-01
-7.353487038681943977e-02 4.353611668127936873e-01 2.012205615801778702e-01 6.162510276582278189e-05 -1.293130997102248723e-04 -1.879208480268882153e-01
-6.946719729649313002e-02 5.213682508676610317e-01 2.043832672055737598e-01 -5.768985445599431099e-05 -2.446092956159904154e-04 -3.277315100931493808e-01
1.934330129033333401e-02 4.440581010144687424e-01 2.073625576303239071e-01 1.260520920829058945e-04 1.301309348557231097e-04 -2.345019993498699828e-01
6.250747527803375558e-02 5.074698413983302903e-01 2.105778843307153370e-01 8.358925803939828189e-05 -1.281818164427454398e-04 -2.072963070464343416e-01
1.222102041141151785e-01 4.687208696668712093e-01 2.134567989827907408e-01 1.176129194766118585e-04 2.725277654938090214e-04 -1.801056912410517463e-01
2.602695301323081911e-01 4.953216666280715330e-01 2.165376721563301854e-01 -4.119672707387462087e-05 3.626507485439200507e-04 -5.105364041809710290e-02
3.035018743590804369e-01 5.145249683606741842e-01 2.196300447436064229e-01 -6.369642242643125873e-05 2.778514054244912539e-04 -2.501789559854960543e-01
-2.551382770324834848e-01 6.097750461878056472e-01 2.015524370498606999e-01 3.570712615688899035e-04 -7.775590859832948523e-05 -2.347069706276182222e-01
-1.424220460428025081e-01 5.408729615620786468e-01 2.046299637037712893e-01 5.804275940666652226e-04 -1.850078786781678500e-04 -1.113266441152030578e-01
-1.017696994912309083e-01 6.927590953383039318e-01 2.073130634497784008e-01 4.246768229288795248e-04 5.731836025379304696e-04 -1.054424254376418735e-01
1.998604051044565455e-03 6.167367343363672205e-01 2.103452939172081315e-01 1.446241828959396209e-04 2.094646736460164637e-04 -6.487919802779493206e-02
2.297824432204795958e-02 7.525396789156943989e-01 2.130948576256159743e-01 -5.102029767143343754e-04 5.479213777391101067e-04 -1.989842574340742465e-01
1.617975724282024186e-01 6.756953126194132908e-01 2.159453409949558811e-01 -4.594479243870939231e-04 7.087950451564893530e-04 -3.462389109065542314e-01
1.998969186356933381e-01 7.041325920882024469e-01 2.188600633187798294e-01 1.394642734342677189e-04 2.634826250914867060e-04 -2.998795526271445522e-01
-2.421628422508309286e-01 6.245280434712066064e-01 2.013389500190655435e-01 2.469555208226900322e-05 2.360717944052528937e-04 -2.863050062963004572e-01
-2.543625958118838626e-01 5.333766492915162916e-01 2.041270254453972921e-01 2.663067480008153749e-04 -2.886798192691890212e-04 -3.771606741171077970e-01
-1.259946177600443085e-01 4.959491044692427297e-01 2.066289400078306637e-01 3.350454135068357212e-04 3.031355597938251221e-04 -4.205676212302908445e-01
-1.055174713551845639e-01 4.980457629746494752e-01 2.095226728094072288e-01 -8.496539278584846707e-05 7.706271359069795379e-05 -2.881193726378604159e-01
-6.321916175823802386e-02 5.162075865106448003e-01 2.120285396465011463e-01 -1.633341326012032434e-04 5.248056048816204192e-04 -2.890568306745401328e-01
-2.049533325931295752e-02 4.081453521296491971e-01 2.150023630658706164e-01 1.750816849426227743e-04 -2.351802092175931281e-04 -2.014431831377254123e-01
-4.440453639854135409e-02 4.033814152278216159e-01 2.176616913371038908e-01 -9.095535676205896748e-05 -2.764466912489235142e-04 -2.233081817693440829e-01
-4.792476527804352404e-01 3.134450962548950836e-01 1.992412255631724749e-01 2.495850107147005331e-04 5.267092518669304709e-05 -2.026737474981644693e-01
-3.903906729899252470e-01 3.243366283518573923e-01 2.018179638106066265e-01 -1.729991567366010894e-04 -7.154663696901179251e-05 -1.083877204962082202e-01
-3.786762930455105369e-01 3.573520249460543363e-01 2.042540702578436451e-01 2.507095927240497475e-05 1.743579275711976237e-04 8.950010304663301094e-03
-2.148772878319873125e-01 3.683717400456087976e-01 2.069283100471226433e-01 -3.282026978335374554e-05 -1.304483223570950597e-04 -3.223593039720140663e-01
-2.522595350366156342e-01 3.708565305889263142e-01 2.093714358788636432e-01 2.175287616116510869e-04 -2.786218879310059038e-04 -1.636430110900389812e-01
-1.708225248644233418e-01 4.274487883520538545e-01 2.119396178877863690e-01 -1.199669104631859088e-05 -2.148080786463548439e-04 -2.342097559058708978e-01
9.724301434411879164e-03 4.516356906554867545e-01 2.144876045063148773e-01 -1.472119266348795156e-04 -4.460260231709913589e-04 7.806199832307847419e-03
-4.249008084740560354e-02 3.989101619821455169e-01 2.170334680141262629e-01 1.407411352933911819e-04 -6.943671352218906386e-04 4.020555075722467842e-02
-7.571050243126967172e-02 3.945324433124844377e-01 2.195634127428865434e-01 -5.496159108021171462e-04 -6.762134817932616976e-04 -1.236954023669168679e-01
-3.910586158867885853e-01 3.326909692834150167e-01 2.016890294230606617e-01 1.221955421654669180e-04 -1.089204841858426587e-03 -1.672996430472441579e-02
-3.540091869656833423e-01 1.991461534613938045e-01 2.040344793505970977e-01 9.123881025962013707e-05 -1.111704869286485710e-03 -1.843683982464470461e-01
-1.985217778376358044e-01 2.936566373909725303e-01 2.060507685426723468e-01 1.340153431424405655e-04 -5.104417914857324644e-04 -1.669045953390852211e-01
-1.137550415083612432e-01 2.046954351874652189e-01 2.086419527636970139e-01 1.002340080418504729e-04 -9.796947599986145262e-04 -6.466940404062761216e-02
-5.000916086358998119e-02 2.046771738914086591e-01 2.107636290509508070e-01 -1.969094592236680658e-04 -7.739205591556003920e-04 -1.734532112042267427e-01
5.381677962639809520e-04 2.116992480035439494e-01 2.133495997283015866e-01 -8.791485222224296940e-05 -1.249270981167120882e-03 -2.517582710373933996e-01
7.210899934099547492e-02 2.653401841982601650e-01 2.153951504522739202e-01 -1.637910214333196282e-04 -8.312505597057953406e-04 -2.452881125529390860e-01
3.698046010569089326e-02 1.685713049852481937e-01 2.177762014455916217e-01 1.341175879697347525e-04 -7.314222169757128057e-04 -2.246330502671929352e-01
7.976737363767770483e-02 2.214424997432868636e-01 2.199209651019018996e-01 2.990424142708644601e-06 -6.571531100300487130e-04 -2.621094249728377901e-01
-3.160811875358151557e-01 1.684592270139207981e-01 2.013647417684504837e-01 -2.625254230980208635e-04 1.532085008040621858e-03 -2.840681549815110007e-01
-2.184543324780428841e-01 2.213229568854938045e-01 2.035547913294066258e-01 -1.140079177708738735e-04 1.200587191483864493e-03 -2.799995986851396834e-01
-3.683982758269412072e-02 2.346527006913717017e-01 2.056066669580433603e-01 2.263740032846517911e-04 1.050280230624970300e-03 -3.075806540092515529e-01
-1.236703394976532006e-01 6.669569985514793575e-02 2.077188229768690553e-01 -1.663650774765159632e-05 8.885724898857988267e-04 -3.300268303094762157e-01
5.687840070421097682e-02 1.405891352416500581e-02 2.095843840735007735e-01 1.044157278775310167e-04 9.635911787273919058e-04 -2.833780400064037641e-01
3.754084107547092652e-02 -2.279633143168031950e-02 2.113358027688784224e-01 -7.514809668220367176e-05 7.617396714546287610e-04 -2.463073305760890563e-01
1.304564814449501176e-01 5.029911463520410353e-02 2.130814168252458396e-01 -4.208904178808062154e-05 7.429810118455005804e-04 -2.898670581851363615e-01
1.503799761045676031e-01 -1.105499052311192110e-01 2.147024177569537007e-01 1.676368139623047899e-04 6.038159333435995152e-04 -2.611213031671581475e-01
2.047339131572456505e-01 -8.437990604556731833e-02 2.160736499425157664e-01 -1.224991432681996387e-04 5.653052920331143750e-04 -2.504325734786407853e-01
3.281492829294865854e-01 -2.042238909246051407e-02 2.173613492805830938e-01 -2.295466472300083450e-04 5.545699693990183967e-04 -2.924772553325542535e-01
3.697041333475311609e-01 1.032416504577363982e-02 2.185170304821115739e-01 8.722500632569240371e-05 3.781158698580118949e-04 -4.065243134206916742e-01
3.354208564243824631e-01 -1.390673803187264870e-02 2.196150244946889485e-01 -1.540428388695547121e-05 3.838622259311035294e-04 -2.673272423669373343e-01
-1.069004651492451441e-01 -3.178751760421136274e-02 2.006183733829016713e-01 -2.312018518306335074e-05 -3.456702595813042858e-06 -3.921767913511887693e-01
-1.776536144504492487e-01 -4.758458777130943756e-02 2.015701221592965386e-01 -1.461510739992264959e-04 -1.600975754168816053e-05 -3.487574218201777154e-01
-1.900140935819853993e-01 1.223134734088254447e-03 2.023165374109966441e-01 -1.724766217041529687e-04 7.811898145942611357e-05 -4.044696435595132034e-01
-1.516844682066466055e-01 8.172953676520254562e-02 2.031404446507146799e-01 3.559149119640454665e-05 1.155692169454776593e-04 -3.056071862870063938e-01
-1.260057416592782475e-01 8.161737942664595846e-02 2.039642519464836545e-01 -2.980778380672764369e-04 1.665752213495824588e-04 -2.407267847358031398e-01
-1.429910992088617439e-01 6.097260744875551697e-02 2.047968266690568528e-01 -6.607686825080192304e-04 -1.787941851058317004e-04 -3.582075602361378119e-01
-1.245884411669842817e-01 1.050061932774461471e-01 2.054037157581691808e-01 -4.846714384831101678e-04 1.124949280080657756e-05 -3.866613123664375817e-01
-1.022270515474964642e-01 1.400775011921973900e-01 2.060192049084016430e-01 -4.847674950631665567e-04 1.035401605694826789e-04 -4.047903327498448833e-01
-7.356405155123628414e-02 1.345410183189893749e-01 2.068611809749319463e-01 -1.242785979500042538e-04 -5.394382799034066670e-05 -4.675881149185455166e-01
1.267102094011195515e-02 1.869276161449582030e-01 2.073631771144188729e-01 4.591368442828272067e-04 3.266555387001027233e-04 -4.723101125970535774e-01
-9.342176264433659644e-03 1.019784481126817938e-01 2.081385398260976460e-01 2.255671825855779542e-04 7.884171003413608682e-05 -4.541977862709215552e-01
1.582369690065784512e-02 4.198940521006965659e-02 2.087982496786389697e-01 1.483459917441248962e-04 9.740980997123598528e-05 -3.955173924225988680e-01
1.959432512581874009e-02 -6.538078229349887638e-02 2.095044449206007742e-01 2.112474680692753067e-04 1.045515770621894443e-05 -4.946058166639650810e-01
2.616290942418228807e-02 3.702932181835877357e-02 2.099212722745840698e-01 1.087850541483559340e-04 2.134048463514278435e-04 -5.160441884642431587e-01
5.917955673388990145e-02 3.934900359679326109e-02 2.105411753963565280e-01 -1.160385308718517571e-04 7.324591200192983481e-05 -3.715955584950379476e-01
6.496962966957937902e-02 3.916981311627271145e-02 2.109423431435054064e-01 -1.146989089706688264e-04 1.579931529941755051e-04 -3.360550250774048675e-01
8.841500469623514435e-02 2.801439421234810240e-03 2.115934366514195530e-01 8.466762338592075891e-05 6.012082037936146276e-05 -4.231081589320799807e-01
1.234006090927510096e-01 2.748473323921661604e-02 2.119574029759856426e-01 -3.626544656177259221e-04 3.533837093869616764e-05 -3.856585200762832621e-01
1.379578591325037462e-01 -4.584068000813258659e-02 2.123725726699473570e-01 -2.765083556139212052e-06 1.402548936749777149e-05 -3.451885097376404254e-01
9.059128850074163464e-02 2.712372544937807772e-04 2.126448805560554045e-01 -8.697911136796584270e-05 3.810016797504053166e-05 -3.289049655700584385e-01
1.009071414383592574e-01 -2.115425822294922376e-02 2.129132434617550529e-01 1.675444751341240146e-04 1.761540175796326630e-04 -2.232816128803884193e-01
1.457896415862863226e-01 5.438447840003466510e-02 2.132661128185972532e-01 -5.247794030212562990e-04 -3.204959864892039100e-05 -1.547871842825264965e-01
1.594839539731720268e-01 7.173100118333944342e-02 2.135351205072187342e-01 -2.112886921406849491e-04 3.519672070124560322e-05 -2.696490879234582083e-01
1.729060914756779255e-01 9.485115343456469728e-02 2.137860497725727060e-01 -1.456148542319145799e-04 3.669628106031563495e-05 -3.245450539744403895e-01
2.045849141244483471e-01 1.290715657409694239e-01 2.139442433740272320e-01 -3.543000021384424647e-04 8.064104942806429510e-06 -2.486661502386567080e-01
1.911752089198176241e-01 1.503527551430420273e-01 2.141735348563952868e-01 -2.464292584316858225e-04 -1.402850378842381755e-04 -2.235412193074004517e-01
1.815880534287530601e-01 1.206906130101074170e-01 2.142407230627466075e-01 3.529395271805024076e-04 1.163479159287670515e-04 -2.124178752218431054e-01
1.454689791255021625e-01 1.464678791444138650e-01 2.143856758805577911e-01 -1.235797064894942027e-04 -9.223188811572079508e-06 -3.226535823070588727e-01
1.962198038814099432e-01 8.060104239226982548e-02 2.143831125179534447e-01 6.210493828775964179e-04 2.269329918392164994e-04 -2.045128253363817095e-01
1.478011955177739034e-01 3.611137141860547295e-02 2.145507663304956347e-01 -2.473095698009049998e-04 -1.104969340387885140e-04 -2.689416646871544692e-01
1.699999845747358074e-01 3.150256089716224617e-02 2.145862571448308720e-01 -1.090066241196533715e-04 -3.999241086934260332e-05 -1.966910791470324327e-01
1.389431633412682998e-01 3.328188232648793266e-02 2.145867863586229385e-01 -3.087406266165021776e-04 -1.254924292431266900e-04 -3.421802550194863457e-01
1.721263966179229499e-01 -1.579802174074370832e-02 2.144798056717100443e-01 2.292331670474784353e-04 1.262662373786511462e-04 -3.293643616961327014e-01
1.640159980846007115e-01 -3.393966021444778242e-03 2.145110085425578905e-01 1.651125354086793067e-04 1.012707988550042937e-04 -2.820847683609643552e-01
1.811146085041001330e-01 1.852932443803943785e-02 2.145816452803049335e-01 -3.733409796584230144e-04 -1.322409408293444928e-04 -2.889118130089184944e-01
2.066325041335826396e-01 3.962383534020982867e-02 2.145696510472790419e-01 -4.887186572437135198e-04 -3.711851755446078123e-05 -3.812532696605427929e-01
1.538018593100434206e-01 2.941847825690913770e-02 2.144653376459899619e-01 5.291454829106439443e-04 1.354252692508626252e-04 -3.082397412666885161e-01
1.184761536104989993e-01 -7.991456967457991403e-03 2.145752731083738207e-01 -2.297528540275692636e-04 -6.478380118481013846e-05 -2.462204765536356033e-01
1.631175390723776375e-01 1.881289004126368569e-02 2.145171434456904502e-01 2.801590814018414702e-04 9.366859723620917584e-05 -3.525998033186792391e-01
1.604309763473414363e-01 1.875332559784715150e-02 2.144920219655397919e-01 1.224695684225316687e-04 6.582457221528985260e-05 -3.136133694093102275e-01
1.574905271305577226e-01 1.009871888298850655e-02 2.145699246413889649e-01 -1.401947592900127336e-04 1.202232958757217747e-05 -3.041337027745703026e-01
1.529299594659535022e-01 2.377524904488744970e-02 2.145567917401715041e-01 -6.735790820105255370e-04 -1.722399817383061572e-04 -3.918035382582791826e-01
1.739550745841763890e-01 9.852643501682331606e-02 2.145072610058652574e-01 1.090100913310007200e-04 1.680288098566193723e-04 -5.064816924914800067e-01
2.000598764163707133e-01 1.217476858417624042e-01 2.144875300661736039e-01 7.971585440442704226e-05 1.330974473161884741e-04 -4.525361163619890381e-01
1.805418895660011458e-01 1.755649599806956562e-01 2.145594879780500785e-01 -5.085978304704866053e-04 -5.760559118582909283e-05 -3.620012156760382682e-01
1.679197491063620651e-01 1.902846056460947843e-01 2.145755418276978355e-01 7.828058123941701888e-05 2.592055112494516574e-05 -3.499200383594681107e-01
1.850459109914328604e-01 1.113513708605516489e-01 2.145152380658058577e-01 5.661406676804368963e-04 1.054434898012955509e-04 -4.735028513927532767e-01
1.730551015324839625e-01 1.291436858272741461e-01 2.144856105672297564e-01 1.449695513238316677e-04 1.240937050414508188e-04 -3.469426265254467179e-01
1.900796755429376428e-01 1.346504783708910580e-01 2.145235377037839064e-01 4.533378654857566845e-05 -1.457043314850610287e-05 -2.912379529803179046e-01
1.669742991272460397e-01 9.453028951487152387e-02 2.145563544788833821e-01 -2.213833127982419162e-04 -5.154847429993115982e-05 -2.933161326179721251e-01
1.713202758246550883e-01 1.148345606018243426e-01 2.145931819882990199e-01 -1.835757974526620542e-05 -4.815336420696776437e-05 -3.743949456345511129e-01
1.973703817300065111e-01 5.921385385056359557e-02 2.146090532443074572e-01 -3.371214604567328147e-05 4.370854455291659285e-06 -3.580336181374707549e-01
1.570450366130610176e-01 -7.068504140873982378e-04 2.146648945391194108e-01 3.112529308716204890e-04 1.066165172437039028e-05 -2.757743365672950531e-01
1.727263648739198465e-01 5.804239320353406228e-02 2.146837379289689984e-01 -6.192523770305985139e-04 -1.146642477769970251e-04 -4.048907759600017253e-01
1.896543827309718488e-01 1.256984179875390850e-01 2.147335013501221468e-01 5.068706190258621085e-05 2.519233976348170817e-05 -4.381278387275726605e-01
2.071297903566206577e-01 1.176389125540416719e-01 2.149547300234723735e-01 -4.505645424109137962e-04 -8.619213479321500540e-05 -2.825351626389471793e-01
1.505253911867631689e-01 1.560002210200532036e-01 2.150698282205814604e-01 -1.494166213925922826e-04 -3.024921150486368127e-04 -3.646600784521270011e-01
1.438153864616474320e-01 1.365794707359933302e-01 2.153832228222050116e-01 3.996863760900820861e-05 -2.836859203870411498e-04 -4.223276442147147480e-01
9.532528215941687977e-02 1.321195099724577771e-01 2.154465301088656637e-01 1.813154332317340510e-04 -1.221343655410847941e-04 -2.188859622603702149e-01
1.545871282004147029e-01 1.492375438148015321e-01 2.156985756865789639e-01 -8.830543324252711538e-05 -2.902843053579846400e-04 -3.642237645185082973e-01
1.274745186391592622e-01 2.347537859028433205e-01 2.159762942021962728e-01 -4.814344532609699206e-05 -4.199532859998623383e-04 -3.800064376231668817e-01
1.182141462135779669e-01 2.249439672154564251e-01 2.162332159054659031e-01 6.387120049872114017e-05 -3.814439563189424114e-04 -2.958102298610847392e-01
1.463970317818051037e-01 1.106342145247167508e-01 2.166054019985131363e-01 6.791744871753063349e-04 -3.587989093083284115e-04 -3.015958767503005289e-01
1.049955558860448529e-01 9.794944591313628490e-02 2.168457560405463447e-01 -3.002989554527775616e-05 -4.890527374669349781e-04 -3.606409587885662793e-01
1.553658986759076654e-01 1.341356728801120779e-01 2.171471912538813220e-01 -7.746728666089431475e-04 -5.911977116507779236e-04 -4.231961461998264284e-01
1.502038915065621316e-01 1.739699653434458038e-01 2.175336602813488507e-01 -4.644765830827918100e-04 -6.578271186538423281e-04 -4.007319132559638564e-01
1.911411214840808837e-01 1.693343948817433164e-01 2.178623445969899985e-01 -3.140740709347130885e-04 -6.019207644309154150e-04 -6.562844580484128443e-01
1.873789064597403964e-01 1.410402819376783135e-01 2.182390437168063579e-01 6.708796169397502479e-04 -4.093863117712790139e-04 -6.405812975719786806e-01
2.348654569228241784e-01 1.616166032717042678e-01 2.188749161263796594e-01 5.449144310876370846e-05 -4.591410970271557739e-04 -4.317429533395149566e-01
2.220724910884246672e-01 2.351761161842659265e-01 2.193848906698921963e-01 4.695250821318642316e-04 -4.407387703442135294e-04 -4.367914972875548973e-01
1.567269974840335145e-01 1.698951797766797556e-01 2.201066022830923119e-01 -2.281936127003498084e-04 -7.344752877277891355e-04 -3.775320161219599124e-01
-3.927283512787952402e-01 9.187115445248753010e-02 2.003704833008279063e-01 5.584516967077468976e-04 -3.342841714927374504e-04 -3.531766784197508668e-01
-3.025479878513800402e-01 4.671263868430068633e-02 2.012452261884226656e-01 1.734037225530993904e-04 -7.126829850130051531e-04 -3.631640370008878960e-01
-2.708716153177940789e-01 1.830450206089632714e-01 2.020305193352428530e-01 -1.006496394895774020e-03 5.928381209694169292e-04 -5.874691531609961270e-01
-2.687162689631603096e-01 1.852251296175098094e-01 2.030438788139067308e-01 -1.548831339716747108e-04 -2.593545550372113387e-04 -6.121675396301501371e-01
-2.694855861665170216e-01 1.886007259684519544e-01 2.038173977689317629e-01 1.074499757756777708e-03 7.308358732232907596e-04 -5.601090137681505876e-01
-2.959819041443951249e-01 2.410746471511168720e-01 2.050973840997559750e-01 -1.152001575318833525e-03 4.736596609176819375e-04 -5.616271264192672641e-01
-3.501934826240193921e-01 2.161713733107364366e-01 2.061585965677437127e-01 4.481931461098293099e-04 -4.549588490000194742e-04 -3.759373026453156630e-01
-2.688100592268785616e-01 2.090962170839062995e-01 2.073038660741147732e-01 -3.707054530646503943e-04 2.261678839538263329e-04 -4.312077320746130482e-01
-2.519596090483401385e-01 2.654368733995320917e-01 2.085469686799119593e-01 -4.657240273346870195e-04 1.121225874478568198e-04 -5.254600107754108240e-01
-1.910805306947084281e-01 2.838114007286571816e-01 2.098361588590410554e-01 -8.427766368152416485e-04 3.160889183681934631e-04 -5.494730745646269066e-01
-1.598385659058094710e-01 3.611665999128497728e-01 2.111578392943469495e-01 -1.826318462364057312e-04 1.865980624246903132e-04 -5.685436497702142100e-01
-1.169193057171163813e-01 3.701826486422450380e-01 2.125368859932411647e-01 4.102845939689383960e-04 -8.311953019818956660e-05 -5.207649860080920678e-01
-3.093356184949936846e-02 3.888760196740873587e-01 2.140985608219250214e-01 -6.328690755571427786e-04 -1.906920806962621282e-04 -6.282682785716944274e-01
-1.368111436456424801e-03 3.342400748037990255e-01 2.156347559114558110e-01 6.348675695729798230e-04 -1.962770450386356648e-03 -5.101990047241099502e-01
2.200042767098451743e-02 2.557299594053771274e-01 2.171447139046194796e-01 1.967819969749992105e-03 -1.380903707854749373e-03 -5.285136368077874014e-01
8.779540527652399118e-02 1.623187340904841680e-01 2.190081342585291635e-01 -7.234294422710419890e-05 -1.463063466711280640e-03 -5.132506890597834381e-01
-3.117080268995904846e-01 1.271865686230199410e-01 1.999648682605050243e-01 1.505311156089661014e-05 -1.172123933923270057e-03 -2.754931570066276314e-01
-1.929084560780063295e-01 1.489808224142190884e-01 2.018052540939518358e-01 1.159090925784233390e-04 -1.554774503535758315e-03 -2.110360296739508534e-01
-1.389015299017007099e-01 2.273370225528615896e-01 2.036266258143351049e-01 -2.096918212086866051e-04 -1.886745829014283655e-03 -1.653279638604991664e-01
-2.483525380485311629e-01 2.049809835200290808e-01 2.054423159937757148e-01 -1.804075813035842029e-04 -2.468118655255147065e-03 -1.750582503128153833e-01
-1.425700986384846325e-01 1.004537571936707507e-01 2.074114120745497725e-01 3.736133756384564996e-04 -1.296894012296033807e-03 -8.673674375429857308e-02
-1.263509895350598544e-01 1.696975857712794689e-01 2.096463961411645371e-01 2.468132122160371185e-05 -1.859159374830305885e-03 -1.096824046734658775e-01
-2.130764905162895254e-02 1.400830310289999103e-01 2.116689039237209524e-01 -1.080447397884998391e-04 -6.074253661501846950e-04 -1.936526495781044355e-01
8.532250099434390833e-02 1.418762330062838251e-01 2.138427856773307267e-01 1.747292538704737293e-04 -4.211344483988831112e-04 -5.784252755015154707e-02
1.704191004460536840e-01 2.443116884400512723e-01 2.162507926500017441e-01 -6.094423262591534525e-04 3.567387989654882230e-04 -1.198142262147059434e-01
1.726655910417242701e-01 1.405158816388214771e-01 2.185086971406861589e-01 2.722258879992171983e-04 6.245477900645019451e-06 -9.077544546976019924e-02
-3.884591621473237333e-01 3.058276190707036601e-01 2.006961909261820165e-01 -2.156138180488322031e-04 -1.764682497554977527e-03 -2.787584767817029574e-01
-1.825686797440456421e-01 1.963111258778026946e-01 2.033782806474455640e-01 1.481174948633219156e-04 -8.017434398969542015e-04 -4.700977433904014735e-02
-1.645706991129698149e-01 1.639445671957420470e-01 2.061043839050476500e-01 -5.491852974872157232e-05 -4.161675304350214290e-04 -6.719913909640075345e-02
-1.412134107511825443e-01 3.091156609091506580e-01 2.090191904335519935e-01 -3.717641750769228081e-04 9.917792816974892070e-05 -3.854872288040974149e-01
-2.450812786443835531e-02 4.487482671201604156e-01 2.119502572886464709e-01 -2.381967995252152201e-04 3.638278126515679441e-04 -1.594877326607602730e-01
1.533924481008406282e-01 3.617241170040038645e-01 2.149557596069767151e-01 -1.081737552672807598e-04 8.734947172907060482e-04 -3.089788812399456019e-01
3.060881908263039519e-01 3.088416199637872839e-01 2.179380689000031124e-01 1.251029642358801152e-04 5.088292766442340269e-04 -3.224423618178159368e-01
-1.729723730068737086e-01 5.409616200846302236e-01 2.005505940906704421e-01 -1.767573379873870788e-03 -1.728840979295193482e-03 -4.257838708002328332e-01
-1.940133733333635757e-01 4.443691328492560544e-01 2.036197822550382952e-01 -2.450032018271885190e-04 -1.755212926753025151e-03 -4.851300651919816520e-01
-3.974517346388762445e-02 3.754941948093870607e-01 2.070160961897317686e-01 -1.265191942581635773e-04 4.539594291471976857e-04 -6.498954152355108649e-01
-3.545341794366560495e-02 5.565177225427291319e-01 2.102509919003592853e-01 -4.967216425894432344e-04 5.121681187974235243e-04 -8.659071704210276055e-01
-3.149465252241787083e-03 5.737382127193618730e-01 2.130155588276300693e-01 -3.464627857507696432e-03 -2.562000263395573189e-03 -8.221650059427138002e-01
-1.027987824124674543e-01 8.473571846759129222e-01 2.160810203766280746e-01 -3.281226624195326437e-03 -3.581929569430787868e-03 -7.180534514781565791e-01
-8.316032624949116769e-01 5.552767491136368916e-01 1.992914829720467407e-01 2.124780998746428112e-04 -2.772876631503513618e-03 -7.835381185373502255e-01
-8.046115067174643976e-01 4.263087929179771862e-01 2.021490664835073892e-01 1.026534388422681993e-03 -9.579438193652514287e-05 -4.310767703245633742e-01
-5.513074764213732326e-01 5.955730021248988315e-01 2.053921001576400895e-01 2.298908546773461108e-05 1.545975562582773116e-03 -2.664461139740498252e-01
-2.644544470889942933e-01 5.870713642418019518e-01 2.090653866018248319e-01 1.186426838997989329e-03 1.215995756042187502e-03 -6.096164198711871984e-01
-8.807517823621474617e-02 5.645327793338510425e-01 2.123117387334040873e-01 -3.358805533924521863e-04 2.176662111614841282e-03 -4.453554546891410615e-01
-2.922030356025014097e-04 6.242529665015267293e-01 2.161050780382475223e-01 -1.356983403042455179e-04 1.174244386655989413e-03 -3.810628800894293455e-01
-4.810403917508087601e-01 5.497890184883713616e-01 1.990725179454029825e-01 2.503646639553715214e-04 -3.143942702936061945e-04 -4.200139962125346016e-01
-3.352856261239683389e-01 5.768874943431760993e-01 2.024099955460317846e-01 2.790865011203883943e-05 4.615996386868499181e-04 -5.123258974293318779e-01
-1.766524341853893398e-01 5.242217123732844097e-01 2.064054322761787463e-01 1.082479813499188058e-03 9.405757085483246399e-04 -3.041623563438767275e-01
3.469021967134685441e-02 4.616161372814565067e-01 2.097906524771690484e-01 2.642213876958922933e-04 1.095478612493393884e-03 -3.767680205537104476e-01
1.314775424609933019e-01 4.299277928869015275e-01 2.133100155944436804e-01 1.153508869939308851e-04 1.354298035375378281e-03 -3.855193189526035513e-01
2.966722652421501794e-01 3.381635542367327774e-01 2.173154432670572067e-01 1.270420832643796545e-03 2.555955267844901152e-03 -3.442776603476271347e-01
-1.737232666793116498e-01 3.536670722957075408e-01 2.005982051600935234e-01 2.856108775124946864e-04 -1.789542590106034652e-03 -4.374913317599933293e-01
-1.264021924897127946e-01 3.875141387612685562e-01 2.044475838534486889e-01 -3.238578862459213218e-05 -1.587681007959854855e-03 -3.771479218597348360e-01
-2.846082966522123919e-02 3.832969796063271928e-01 2.081176962215633974e-01 -1.033147451460815502e-05 -8.524822965919865402e-04 -4.719181948692521278e-01
5.224473994332032994e-02 3.543205991041761260e-01 2.116946223696052343e-01 -5.165667256309625441e-06 -8.800681736914321858e-05 -3.588638785550153920e-01
1.101198174615911490e-01 3.362114580402899566e-01 2.156141502985343128e-01 4.491719330812958761e-04 1.064194952845856954e-04 -3.822116500974754860e-01
1.083804793523595045e-01 1.814031927988409565e-01 2.191164379159893372e-01 1.846236454651488564e-04 -1.710440598690587098e-04 -3.567989173721993201e-01
-1.040923493165337999e-01 3.323666449492542196e-01 2.015939259053980415e-01 -3.772585337069832290e-04 1.839459540516964189e-03 -2.768035575261048042e-01
-2.960051411077346817e-02 2.601908811116256381e-01 2.049087711823243674e-01 -1.647430387063263568e-04 8.500639251131927258e-04 -9.248646709061345006e-02
6.958311583717114585e-03 2.411042336295859956e-01 2.080297536982557705e-01 -1.494008478644975445e-03 7.368281724063328354e-05 -2.027619316250331150e-01
2.821738964850149453e-02 2.946019942953950199e-01 2.106660396965074900e-01 -9.443059267662687545e-04 4.059140446300506353e-04 -1.402515198138524488e-01
1.047862586991843287e-01 3.066641081632768828e-01 2.131293708063382586e-01 -2.379983814140075355e-04 9.096902189321128896e-04 -2.306764845795090668e-01
2.890891807614851539e-01 3.104929508125460202e-01 2.155852451031124994e-01 -9.810082115812284592e-04 5.811692132733369031e-04 -2.480630660347612759e-01
3.008019299180896833e-01 2.275309352360474491e-01 2.180809595612154816e-01 -1.965024093407169317e-04 1.037363811090657008e-03 -2.807751311552399986e-01
-2.981636939723383284e-01 3.956552403563671216e-01 2.003368880295767207e-01 4.223086831390964889e-04 -1.086115323251944220e-03 -1.677733098007263279e-01
-1.662720894349554446e-01 3.400979435584940980e-01 2.022120956920618884e-01 7.626756952249212369e-04 1.939964643905806464e-03 4.000225029168448521e-02
-2.644342544179192345e-01 3.273095013429440647e-01 2.042682710572460425e-01 9.235097679380165460e-04 4.699483555135083694e-04 4.193478638286065041e-01
-1.502535196830508124e-01 3.538673840084908262e-01 2.060009155836970418e-01 -4.279783621820173155e-04 1.618526979346909464e-03 2.450509094227779350e-01
-2.183528934952321254e-01 3.273520695808225245e-01 2.075703129741335862e-01 -4.883393851856487455e-04 7.274363655050843482e-04 1.805742239379916347e-01
-2.131095637865017545e-01 3.409653808562481125e-01 2.091746449101292704e-01 1.457801948778608952e-04 9.900265087332662042e-04 2.009525891858135183e-01
-2.271396673623643503e-01 3.475101979114349482e-01 2.105980877403748064e-01 -6.600083655756039825e-04 -1.180154867382558719e-05 3.114696761622280374e-01
-1.516054169941495333e-01 3.845508442118697467e-01 2.117510430074714400e-01 -3.395146557337605465e-04 3.996138763014552790e-04 2.289972640900099776e-01
-1.448146002510708186e-01 3.851948899273858751e-01 2.131058257937939460e-01 -3.566352000862943786e-04 4.252315610075092008e-04 2.834584331388801393e-01
-1.039564796966200577e-01 3.518065759736203058e-01 2.141530396598624875e-01 -4.786648914515927297e-04 6.317759489219135953e-04 3.311469214338696454e-01
5.909234386150477580e-02 3.228140042744043203e-01 2.152955321501366925e-01 -6.506568589759997032e-04 2.614711434557373516e-04 9.564448291280722159e-02
-9.647849483341587595e-02 2.787654385800422685e-01 2.163723677493601949e-01 -2.961840383653475289e-04 1.085654109184279074e-04 1.746420021722043803e-01
6.525782150552904282e-02 2.883394954103709606e-01 2.171213491500597059e-01 -6.135386753682704839e-04 4.946494026731948100e-04 1.395947847870600278e-01
9.762384222865197470e-02 3.151692182368823203e-01 2.180515551772012062e-01 4.991712367170708263e-04 9.234687495466012072e-04 4.205788947671239980e-02
6.232921307916576559e-02 2.792052545867200752e-01 2.188679183017698260e-01 7.684930209790639206e-05 3.890787283113062334e-04 1.421149768422763637e-01
4.000303029946246369e-02 1.485424787061688789e-01 2.197649759763544708e-01 2.732143023678272587e-04 -3.014481459241414340e-05 2.309354453710079913e-01
-2.207684479314608872e-01 1.984958761516526782e-02 1.998498723941884436e-01 2.501046825241954891e-04 8.077705698659568044e-04 2.235421221257508639e-01
-1.976165690094218996e-01 4.325282749233490959e-02 2.003099243120584627e-01 2.397920147095220091e-05 1.890821751435626066e-05 1.267950914266813001e-01
-1.941080790020071611e-01 1.305232195272871265e-01 2.007290904125879627e-01 -8.618308721496405461e-04 -4.925588445966543700e-04 9.236312914673375229e-02
-1.946345765801593686e-01 2.245885847823692605e-01 2.012844406640694195e-01 -1.368774867873094256e-03 -6.226638337487460121e-04 1.758599403221514368e-01
-2.133774409143311679e-01 2.776930780525256326e-01 2.013843450688678760e-01 -2.993792939426409062e-04 -8.055495452401092689e-05 1.212746899247587606e-01
-2.051224563800159162e-01 3.156078585316812180e-01 2.017603262752635240e-01 -3.558383776523661160e-04 -3.005302311898562918e-04 2.197239610889738792e-01
-2.656307549421199621e-01 1.988006785914836205e-01 2.019634775550450123e-01 3.788243863666662442e-04 2.488573872747926988e-04 1.031380990563001004e-01
-2.074085148075112128e-01 1.568025524516849234e-01 2.020624773089023107e-01 4.428951688085517257e-04 7.940367484153557564e-04 5.437464561389610505e-03
-3.216017031023988837e-01 1.433886780852726417e-01 2.024306850088881116e-01 -1.072119203551827451e-04 -3.215889466624418346e-04 -5.302999254388358202e-02
-2.996787113611058539e-01 1.214613876182078223e-01 2.025605554777155648e-01 -3.883716605538338929e-04 -2.268041367599189198e-04 -9.834448604413083272e-02
-3.495548337292584962e-01 1.545665752370377344e-01 2.026956247928239363e-01 -5.370406806214227417e-04 -2.128715291355840649e-04 -1.400304358454992903e-01
-3.395947717635633967e-01 2.339334536791808916e-01 2.028388567356617100e-01 -8.191976688801829278e-04 -4.186502998362190702e-04 -1.441382135620667970e-01
-3.521205691050626196e-01 1.894347727818586347e-01 2.029224182560118162e-01 4.364748896826377918e-04 1.788035226811907844e-04 -1.909004499938966315e-01
-3.642447433454146233e-01 2.003446595531592489e-01 2.029986156886154913e-01 -2.721048591020134959e-04 -1.257040979099251503e-04 -3.198111045617180181e-01
-3.536475296166572968e-01 2.381017719734865312e-01 2.030929671759134081e-01 -5.858901345642226555e-04 -1.162046254160506952e-04 -2.724571831035312863e-01
-2.969103268303528997e-01 2.230169168622547771e-01 2.030356825996099679e-01 3.685464523874885045e-04 7.298039558698124528e-04 -3.357884938924904361e-01
-2.542049963591506145e-01 2.137491586132181653e-01 2.032253335577214881e-01 2.435664381071401033e-04 2.890940907546505129e-05 -2.365257810435287267e-01
-3.123778192880856674e-01 2.415114564845701473e-01 2.033717488370377913e-01 -3.395652115001531173e-04 -6.566280196184503398e-04 -1.983040432881486292e-01
-3.853814315415947656e-01 2.874192314924969294e-01 2.033657825366274041e-01 -1.131254967582381534e-04 -2.867718309385299609e-04 -1.496595162007134938e-01
-3.671505823463440121e-01 2.388846744097512798e-01 2.034167627108161569e-01 6.931445373762053588e-05 1.366514239209125640e-04 -1.660671631257609193e-01
-3.343764193665673679e-01 2.063191856659812029e-01 2.034398175001914666e-01 4.168524248594157144e-04 3.901438710780483644e-04 -2.856991885801902220e-01
-3.312128256913243196e-01 1.476218602472997299e-01 2.035451788516712823e-01 5.530747552323289021e-04 1.385006922322866614e-04 -2.458941443265339755e-01
-3.240498914240564354e-01 1.616960642472637932e-01 2.037286053594144497e-01 1.135846793597519142e-04 -3.778452367625569595e-04 -1.251010947990266187e-01
-3.196189918494879989e-01 1.187237616460769946e-01 2.038289976834398165e-01 -4.831433720840287547e-05 -2.722851711041640262e-04 -4.247036215556109634e-02
-3.763089193889951334e-01 1.505554548580357588e-01 2.039774536416235073e-01 -3.306688635528643068e-04 -5.652274882301688190e-04 -5.615435087015625826e-02
-3.240800792414895160e-01 1.119902595634215542e-01 2.039539953755252766e-01 8.580682900124106502e-05 7.913201951816505248e-05 7.433325594103233624e-02
-3.398418656025075646e-01 1.091069290721426999e-01 2.041451160384613051e-01 2.904954849688457246e-04 -7.286319902324066083e-05 -2.274501312726855129e-02
-3.625354928015206424e-01 5.371938579467423758e-02 2.042555845864404973e-01 9.033957739274344335e-05 -7.266347545331226505e-05 6.479537907501023430e-02
-3.641476179608958419e-01 3.774700335437704973e-02 2.042836545545456128e-01 -8.599982724500990770e-05 6.645410718516414367e-05 -2.630532767953594475e-01
-3.470055223046193404e-01 8.964259488452396007e-02 2.043798593561885202e-01 1.836150710243529939e-04 1.355711028953901997e-04 -3.230710770735035764e-01
-3.555590054769919295e-01 9.829682456670546520e-02 2.046332067045893988e-01 1.726165239109647166e-04 -4.422288563895696327e-04 -2.382302700149178942e-01
-3.779960005614452223e-01 3.043375705603092868e-02 2.046649556460802266e-01 1.235156022956277453e-04 -1.110158687381832449e-04 -3.504601151263043168e-01
-3.328391030942352558e-01 -5.374120682849781172e-02 2.047233175473833211e-01 5.991853666570630182e-04 2.910942009162851502e-05 -3.085308412928436939e-01
-3.347045822897435352e-01 -1.845905550856083432e-02 2.047973876816035488e-01 4.430569639252543619e-05 -6.168214142125496582e-05 -1.816786041414599484e-01
-3.395227953563365597e-01 1.832024743910200953e-02 2.049644306271905525e-01 -3.650050778829942765e-04 -5.646682114502647905e-04 -2.784929569677946359e-01
-3.860847707225486536e-01 3.551370917008373623e-02 2.049828573518209796e-01 -4.202908094819228740e-04 -4.470077752092291908e-04 -4.812181963251712102e-01
-3.493813742437675840e-01 1.853151476125953004e-02 2.049809164164172470e-01 3.529039112836661004e-04 -1.187314740750977874e-05 -4.197382886717392902e-01
