-4.107696476469130942e-01 2.593088720202179065e-01 2.016700253461278236e-01 -4.325732409108241742e-04 1.517822421984416211e-03 -6.556319557665356568e-01
-1.785436552661665011e-01 3.208301702487937335e-01 2.048495277296269457e-01 -4.284390498769349615e-04 1.045978479054916104e-03 -3.533254186772865624e-01
-1.112979494598469454e-01 4.739357424575745825e-01 2.082759318924063963e-01 -2.948204615671444766e-04 4.349428603028318596e-04 -7.621195641427707113e-01
5.180444828958959136e-02 4.194761723240711393e-01 2.116607051486285029e-01 5.256255289499783373e-05 5.225312590005766434e-04 -6.115123818877861162e-01
1.153143834016566449e-02 4.446921111595710241e-01 2.153429987377016852e-01 3.763284659511902217e-04 -8.729629215955448003e-04 -5.105874190614497765e-01
3.726029089614793510e-02 5.728791009817498781e-01 2.181268873334138436e-01 -2.298678625529655217e-04 8.954390668775494408e-04 -6.539306547919673251e-01
-4.809103204738056081e-01 5.072481798406501818e-01 2.010456279107675215e-01 1.037310198534643207e-03 -9.840623934613927648e-04 -4.250033007987292222e-01
-3.751910194925253128e-01 4.533085392392076640e-01 2.042746880843230306e-01 1.324063428332360626e-04 4.751654578816550583e-04 -2.657259450326312500e-01
-2.600478968032749472e-01 4.855634143786192736e-01 2.075568244645735194e-01 -6.112329907470098961e-05 2.060603537822809932e-04 -2.700249891995874507e-01
-2.284181100402887521e-01 4.995710984723851777e-01 2.108424310673804314e-01 -1.070127856774797791e-04 -1.176069549970580488e-04 -1.126918620646515518e-01
-2.756442589899648632e-01 4.917479204388750524e-01 2.142284452023197616e-01 8.936664841976490082e-05 -9.962519454621168269e-05 -9.299950500565112854e-02
-2.299014800253299240e-01 5.574912148530992706e-01 2.173879502606151370e-01 5.235147719099508644e-05 -1.136701442465834559e-04 -1.926733392905727871e-01
-5.893259228155095508e-01 4.438987834645707897e-01 1.998661857541616516e-01 7.211349438566090110e-05 -2.058261658030103366e-04 -2.060343777825311140e-01
-4.368459366504110486e-01 5.155161001482322369e-01 2.029296850436292377e-01 -5.123094045807250049e-04 4.217852758828171214e-04 -1.866908832857228917e-01
-3.918266884588577637e-01 4.431113597571634810e-01 2.063154751766122508e-01 -5.864473015631623042e-05 -4.059088060583092013e-05 6.257660648110552337e-02
-4.241641414207874550e-01 4.665398526785491384e-01 2.093694437760243998e-01 -3.142612610716951651e-04 4.915417178103734935e-04 -1.820745850744631689e-01
-2.223688101586301924e-01 4.746023620438773460e-01 2.124854177723390913e-01 -3.864669661224781031e-04 7.599372528784678659e-04 -2.815049427348791378e-01
-2.780916526807402159e-02 5.160052574626393662e-01 2.157331939818998290e-01 -3.070807155688394193e-04 9.684657125637925355e-04 -2.067251995264496600e-01
-2.166454079296312868e-02 4.503607809433877729e-01 2.190677877474762059e-01 1.588727823397111951e-04 -6.260920348671946843e-05 -2.929749276723032092e-01
-2.639583650132167336e-01 4.547258127764385871e-01 2.009172027798903915e-01 -3.967490758772592883e-04 1.151573444147467639e-03 -1.647711596815704116e-01
-1.500439913036710760e-01 5.828030108457220582e-01 2.040273582594872015e-01 -9.430962431851591958e-05 1.135422865835157991e-03 -1.632075923988340893e-01
-3.443015575883595636e-02 6.252991836964300054e-01 2.072357004217295073e-01 1.588517792755883952e-04 5.427864931823597142e-04 -1.236236307041821691e-01
6.733391366165232539e-02 5.479805309546965653e-01 2.102938472883705834e-01 9.792313731854414012e-05 2.810553289451188635e-04 -3.825437445894944721e-01
1.270206077003631639e-01 5.839864575928912505e-01 2.132700968744472569e-01 -2.971499501486738479e-04 -1.412294196745912070e-04 -3.901353244405378895e-01
2.711942269801109751e-01 6.193997223358805870e-01 2.163474585721750776e-01 3.855204755211812813e-06 -7.208250800555381782e-04 -3.140858527750836626e-01
2.626428668208709571e-01 5.988504081111091226e-01 2.195309653172424214e-01 1.074677231030274349e-03 -2.468740119808153282e-04 1.244822202207707396e-01
-1.842528358581423387e-01 4.983386331848533302e-01 2.013627545285555098e-01 7.130872640575129412e-05 -1.075232606600684147e-03 -1.063022842346156294e-01
-1.374198497112056293e-02 4.313394002935065918e-01 2.040504799918864132e-01 8.190417179691234244e-05 1.271272660705557425e-04 -3.865080240939997025e-02
-2.176073845168925019e-03 3.577985812867964799e-01 2.070691346447953163e-01 -1.822656720670624874e-04 -1.620401860978874396e-04 2.120501569715874945e-01
1.729416789460382076e-01 2.715810949764464466e-01 2.097632978228179956e-01 -5.854296808231972387e-04 -4.416769600880473168e-04 -2.092917502803731122e-01
2.326365799931658929e-01 3.150290061472972303e-01 2.127316228195874626e-01 3.913378554048029234e-05 2.365785900235728976e-04 -1.033170063550855056e-01
2.948351580493568935e-01 2.734310327486056957e-01 2.154351134027899239e-01 -6.254800787197959625e-04 -4.545808875426914151e-04 -1.778847437132649312e-01
3.465606498150275994e-01 2.618988964616645321e-01 2.183465336066211515e-01 -4.861557992584516824e-04 -3.012412240432832183e-04 -2.434645646861194335e-01
-1.406047853941251036e-01 3.639028614993264910e-01 2.004705271750338857e-01 -4.733549425798674513e-04 2.767201409863556238e-03 -2.658366338073106516e-01
-1.633029425567136261e-01 4.231881962883984882e-01 2.029918309834490842e-01 -1.801776215884111202e-04 8.740362472154211129e-04 -4.818975445687017078e-01
-3.566867870849997624e-02 3.243897802184800838e-01 2.057080984246277833e-01 2.701000404307600370e-04 8.680837686317993381e-04 -5.035971431001449172e-01
4.148258606575269680e-02 3.218810963700063366e-01 2.082171748205614570e-01 -6.840321765562911794e-04 6.723583442085806538e-04 -4.849854836577571771e-01
9.499053050756205152e-02 3.501795541606716466e-01 2.109329489689075188e-01 -2.788857612705644196e-04 -1.591967302255407456e-04 -3.948778783028823458e-01
1.188601375837315122e-01 4.226844888643448983e-01 2.134503135537955121e-01 -1.873526012531744501e-04 -6.234615385459002165e-04 -5.705075884867518710e-01
2.734374757045630044e-01 3.990251723890654856e-01 2.160548464532940360e-01 2.995530739119490809e-04 -1.033476762988746371e-03 -5.638806780444761690e-01
3.382428602518297023e-01 3.838930362281632314e-01 2.185252611753081831e-01 -4.030203890504392987e-04 -1.711274153957583703e-03 -4.104512272723788158e-01
-2.656704587345197766e-01 4.198103390471362162e-01 2.004519260709606843e-01 -1.054276960067647195e-04 5.212199471603322191e-04 -6.174661294674081979e-01
-2.191896475323509008e-01 3.173416594146704628e-01 2.030587992845385714e-01 3.402824738202147453e-04 9.793522246193968241e-04 -8.216456470693429548e-01
-6.593791865396853025e-02 2.768603448235031905e-01 2.053586919829821222e-01 1.854665717267997422e-05 4.613428863533590375e-04 -7.225360339736400794e-01
-5.089893283759583387e-02 3.260173664858735387e-01 2.080161587937074952e-01 -2.407821006185766754e-05 -4.813425579515820179e-04 -7.263961015599430526e-01
5.137409995566686455e-02 2.847775263190786554e-01 2.106641928950778730e-01 6.306746039809505528e-04 -7.441851835807805323e-04 -4.532156892882760468e-01
1.055279919130091976e-01 3.072448817962664669e-01 2.131278139109424874e-01 1.960310466997010391e-04 -1.092621581322931199e-03 -7.910138592016061621e-01
2.487212741942124161e-01 3.994778928835724385e-01 2.155015132970168890e-01 -1.633702256521738969e-04 -1.367651670988791115e-03 -8.495483003176254044e-01
3.458330933104254434e-01 4.825179942573705194e-01 2.179020899305844639e-01 -1.755948584256767329e-04 -1.176210001796024716e-03 -6.959348694025909721e-01
-2.315411711197939149e-01 4.059388834795909506e-01 2.001257977011451916e-01 3.829302185885439884e-04 4.999739721775358671e-04 -7.648321688358051818e-01
-1.603837621404402003e-01 4.707728595691226814e-01 2.026551522925963966e-01 -2.051714234643564399e-04 3.671266288686473233e-04 -4.941297345267586794e-01
-1.189951150896540327e-01 3.726721852988795214e-01 2.052827128291447312e-01 -1.890585970454163866e-05 1.832435460825934041e-04 -6.600965761810279053e-01
-5.849643873603639632e-02 3.139398655894992674e-01 2.078721400295979183e-01 1.379779025034865326e-04 -1.044355408100609443e-04 -6.363955813870101341e-01
1.033441453691778811e-02 2.637215292171074532e-01 2.104475861002501058e-01 5.098103118873453495e-04 2.711641878168334844e-05 -5.630662383895282952e-01
1.268665908163331968e-01 3.392847802219926545e-01 2.130478937160468766e-01 3.535039936058124478e-04 2.689605489778262512e-04 -3.953750515977840774e-01
3.213168663586882245e-01 3.321852757576871928e-01 2.156899790921119053e-01 8.713062752618089474e-05 -4.643542717632976225e-05 -6.247921883683691391e-01
2.990942054362915603e-01 3.199365774916636540e-01 2.182950893156423433e-01 -1.548917478141402743e-04 -1.614141564821570897e-04 -4.453629500177801459e-01
-2.790898341857346310e-01 3.412919344097203322e-01 2.006319223991460121e-01 4.158354926874393274e-04 -1.123676210082071199e-03 -6.203631337186006345e-01
-1.721260274630261045e-01 3.152742493737687446e-01 2.032016881484730586e-01 9.907889372539488440e-07 -7.352535666251051828e-05 -4.886705770628197443e-01
-1.673526590633702404e-01 3.283460390659596606e-01 2.059332811989418310e-01 1.399260013710480928e-04 -1.620053741608520458e-04 -3.877647662146402330e-01
-9.051736449823472030e-02 2.557435581508766820e-01 2.084806571786274598e-01 5.875002417705595825e-05 3.423390657660445232e-05 -2.943639572749173761e-01
-5.916549031370222506e-02 3.396362898401082409e-01 2.110514436689579498e-01 -3.956625358168760240e-04 2.284463118523438491e-04 7.911786524415541366e-02
4.863498995495788013e-02 5.402658419269829038e-01 2.138155625979643593e-01 -1.416986155707706239e-04 -2.141497669982314871e-04 -1.553847766929766228e-01
1.898404905287685851e-01 4.798729508177119740e-01 2.165652068392088236e-01 2.130093827306101843e-05 -4.637488270049615205e-04 2.130937074447322027e-02
1.980698806899233999e-01 5.102429553951650654e-01 2.192395587001591539e-01 -1.629943907519757778e-05 -6.825047975243279464e-04 1.665736437427570160e-02
-1.597103209039075211e-01 5.822943096062007662e-01 2.016250338108713236e-01 3.764125600800716362e-04 -1.729088773623886459e-03 -8.008586873898755620e-02
-1.405163353815688243e-01 4.803726473663847973e-01 2.044181017761974029e-01 3.462621102826745527e-04 -4.395732640129790822e-04 -6.817223089596190222e-02
2.160567267749064282e-02 5.589744644712967281e-01 2.071020862140435237e-01 9.388904351343053825e-05 -3.079630384933367384e-04 -1.236556893996204332e-01
-3.533140232149283022e-02 4.706272409047541072e-01 2.096396922675353713e-01 -1.151547333433136216e-04 2.856326880898858158e-04 -1.173223779472245404e-01
-7.000733125964643533e-02 4.854292077788083248e-01 2.121704471735447184e-01 -8.540256815318696864e-04 1.236247205537351079e-04 -1.405120363461244970e-01
7.894218313421962063e-02 4.922911018200118449e-01 2.150672329621383105e-01 9.318342402373870680e-05 3.352678718284385849e-04 -2.442048811752549065e-01
9.964538153950791566e-02 3.813904582742545513e-01 2.179392200718716643e-01 5.669961147784453783e-04 1.348878985045318354e-05 -4.222769031593300859e-01
-3.713900209945236730e-01 3.567741397752264287e-01 1.993218107164847486e-01 -1.873112136773617308e-06 3.290936223184175082e-03 -4.219075615127890200e-01
-3.524463882965264139e-01 3.875902487504066518e-01 2.019608605513809607e-01 -4.582704408509742579e-04 3.101826589883298260e-03 -3.067455990555258416e-01
-2.677614846138876570e-01 3.233548980424368890e-01 2.044438292390120537e-01 1.482867859628241979e-04 3.241310068209953595e-03 -2.945006243581775318e-01
-1.742607458246602514e-01 3.623289184178052902e-01 2.071208401106247599e-01 5.023805979132588460e-05 2.730835145318198046e-03 -1.891173709682007764e-01
-1.173921383051529377e-01 3.372694463750994798e-01 2.095685724796179095e-01 -5.819608143853614119e-05 2.273032117300134367e-03 -2.169772737500853532e-01
8.666148796236276819e-03 3.544439231808922952e-01 2.121401054024127375e-01 -7.010309944492058994e-05 1.243837128440927406e-03 -3.359114429901012833e-01
-4.668824887287537084e-03 4.176327890135462795e-01 2.150104606213840697e-01 -3.470624293877296691e-04 -5.552889343873080056e-04 -2.431709839692671737e-01
7.290123749007842990e-02 4.300258941642672861e-01 2.171396753573753835e-01 2.181872364753772336e-04 -7.400884022962098737e-04 -3.196828858216144709e-01
1.974776826117283224e-01 3.831455917257068911e-01 2.195708676404912740e-01 1.949029095442160648e-04 -1.764281990173184687e-03 -4.746945258076731289e-01
-2.672715489470718353e-01 3.444966078530837250e-01 2.019903541456288809e-01 7.845342720296251513e-05 3.557195387869483468e-03 -3.237099425097331173e-01
-1.355691975076690481e-01 3.888358908962891713e-01 2.043588056965837119e-01 3.143698162558725433e-05 2.382400671521077255e-03 -2.752264723502801380e-01
-1.041346401824363305e-01 3.665616858003898915e-01 2.069593049269248253e-01 -3.360469160804866834e-05 6.266483572322899135e-04 -2.818269606669721039e-01
2.716869112420675081e-02 3.538800343054649411e-01 2.093644779098487452e-01 1.910553053616950833e-05 -6.925992678621262656e-04 -3.064686406743544200e-01
1.972445579689213052e-02 3.296622633974609085e-01 2.118365420184447068e-01 1.232023146175487192e-04 -1.725765296932435869e-03 -2.959050512049231085e-01
1.192091960454799288e-01 4.155991708581532884e-01 2.143266900744893455e-01 -6.268418820254454359e-05 -3.502057024392462269e-03 -5.787887126655884007e-01
2.246893819247212931e-01 3.210881512954016914e-01 2.166555553086687569e-01 1.123772998237135165e-05 -4.182211542948208877e-03 -4.244551638487413237e-01
2.713744811874015395e-01 4.105829773554259821e-01 2.192571948882482413e-01 -1.816300040343554311e-04 -4.961715498826009367e-03 -4.560843706926719920e-01
-3.004971615912233052e-01 4.630719335974149420e-01 2.015633817957654395e-01 -1.280585252317589773e-04 1.087971742117954839e-03 -6.860486692789514729e-01
-2.820111211109523341e-01 4.471099049187011731e-01 2.042204587003433325e-01 -2.675384506297104120e-04 4.172208323145500108e-04 -7.961593799030775020e-01
-2.572703849898436701e-01 4.285778310765057664e-01 2.068085828517151059e-01 -5.739033954255955985e-05 -4.636662592403298887e-04 -8.548312303863692119e-01
-9.900673866780718146e-02 3.320775784902853522e-01 2.092024423257238253e-01 3.340558615272563674e-04 -4.174195085893909075e-04 -6.581534257848535852e-01
-6.961091264639351905e-02 3.161122329743524806e-01 2.118721634262921150e-01 -7.320400090947419591e-05 -1.683842076874698295e-03 -7.143201126271172541e-01
-1.204962525669431017e-01 2.366789929838273299e-01 2.142754673286425549e-01 3.673910643291635847e-04 -1.409921860805007096e-03 -4.823878664862731869e-01
1.569158602514501288e-01 2.715157851027450442e-01 2.165961149938455677e-01 3.703462830419073704e-04 -1.230496240519357012e-03 -4.643383620719439553e-01
2.552430943527603802e-01 3.388107839091029638e-01 2.190781820680331449e-01 2.584650992382523131e-04 -1.370091068382565599e-03 -3.267552772572252517e-01
-4.147567966579571719e-01 3.055589321415932424e-01 2.014477764887688260e-01 -1.749968302365379283e-04 3.168695837725642563e-04 -5.573430916153997439e-01
-2.966467809524048205e-01 2.041962908400619670e-01 2.034471847991357607e-01 -1.262283694728006734e-04 1.560927507075036296e-04 -4.954290475819018158e-01
-2.927127196757745020e-01 2.414569631279163686e-01 2.053206702433692521e-01 2.007673576323985734e-04 1.928418807003201454e-04 -5.922562914945770363e-01
-2.138620995004131831e-01 2.335330483861721151e-01 2.069399456030679985e-01 2.130065004963145451e-04 8.326488484142129760e-04 -5.198441222286219743e-01
-1.416020903136410714e-01 1.289016751401879934e-01 2.086176841555570372e-01 2.764018368716192700e-04 1.411484816569170496e-05 -6.923893332569137637e-01
-1.221815527413619845e-01 1.385978222604878352e-01 2.098771297179992112e-01 1.772159207511053952e-04 7.566455162220381151e-04 -3.459061625702350984e-01
-4.805471580553716260e-02 1.988747320394072815e-01 2.110052313140886038e-01 -4.763351730017537840e-06 1.210239183309206245e-03 -7.149374796607986526e-02
-5.103507553305172695e-02 1.614294688845804848e-01 2.123271469123763633e-01 3.718271409317137031e-04 5.636741316803901272e-04 -1.603806705261628662e-01
6.430260157102730273e-03 1.668006301279867931e-01 2.133344102879561888e-01 1.698832577493594124e-04 8.773502013179083556e-04 1.008683678846332074e-02
2.615451306094099607e-02 8.789620530718382507e-02 2.144217639404376596e-01 7.584343495870165034e-05 3.997975456283479716e-04 8.567219658518055239e-03
1.841446460901629556e-01 1.939271650304732753e-01 2.153715102894458999e-01 -1.272101772216519553e-04 1.192450880560593906e-03 -5.134544183844679671e-02
1.133809726621922004e-01 1.958944101311085317e-01 2.165110470443631363e-01 -4.268921957366806665e-04 1.761058428281974403e-05 -1.879297331494347578e-01
1.625862204723219906e-01 1.796451021873228249e-01 2.175271343920630596e-01 3.381066386578634157e-05 6.133028164671277703e-04 -2.393668879365954127e-01
1.652790174690031422e-01 2.943589434938507776e-01 2.186179981561074959e-01 2.615139566198606928e-04 6.071890639691527322e-04 -2.932695941878898926e-01
9.017860426413815134e-02 3.170569807640513105e-01 2.196749955405526422e-01 2.139913012990812976e-04 8.220837773009482532e-04 -1.923063347432290016e-01
-3.226854377812546915e-01 3.053586149667047445e-01 2.000398665154381472e-01 6.859171057985857930e-05 6.207253400537751003e-04 -2.029557055169176338e-01
-2.238984330906506892e-01 3.509500762869923185e-01 2.011553536102046458e-01 1.547645587350378890e-04 4.924312074418597937e-04 -2.227422785114357151e-01
-2.664608578351461698e-01 3.365221031878886104e-01 2.022375089610282117e-01 -4.720645865564065664e-05 5.418023854373433656e-04 -3.651729610396396986e-01
-2.767617342635805278e-01 3.616143970807524921e-01 2.034379209278642242e-01 1.477187117894320802e-04 6.147073817843114489e-04 -5.800291087792210920e-01
-2.260009957109030410e-01 3.753696039114207128e-01 2.046663721394904600e-01 1.624441623705748629e-04 5.700573947724571358e-04 -4.601700512774529739e-01
-1.717100151814488773e-01 3.105871609017596957e-01 2.059885294758704855e-01 5.288475568933795963e-05 3.919185128758524077e-04 -4.186708259618128758e-01
-1.681547934127747002e-01 4.032520352456016588e-01 2.072935767181605660e-01 2.647905918956354072e-05 2.420364692427451087e-04 -4.273010358232360306e-01
-1.270112331028629138e-01 3.640499114392401481e-01 2.088877754784531082e-01 4.717346637598871894e-04 2.903638319946560292e-04 -3.573189937167544628e-01
-6.792723129724101416e-02 3.561279084962205022e-01 2.103146600435644165e-01 1.805947113220435300e-05 -2.568384472152917321e-05 -4.606635165805467169e-01
-4.539505246855274345e-02 3.957067767257742008e-01 2.119060439514597882e-01 -2.886099304287374271e-05 -2.523396826226860490e-04 -6.638200677345658107e-01
1.911939835856178369e-02 4.885049239236035623e-01 2.135813619099707905e-01 -3.089163447806478606e-05 -1.218339930565552517e-04 -5.870953839778378924e-01
2.308748392596214893e-01 4.087395884982927829e-01 2.153329984201821645e-01 6.414895620747891342e-04 1.677273621366790987e-04 -8.592874478679383143e-01
2.205219586222686434e-01 3.196597701624322441e-01 2.171964809155613185e-01 5.315740435637810986e-04 4.150005573912691039e-04 -4.279781014758969881e-01
2.849466870168841925e-01 3.320564403932035891e-01 2.188995790883224157e-01 1.827472029687646563e-04 3.436396636715547998e-04 -5.044917400301067723e-01
-2.320095412647587285e-01 2.964205399143932662e-01 2.006798952675202252e-01 4.943436882206075174e-04 -1.126442009962414642e-03 -5.646733626011797291e-01
-3.760484049040374588e-01 1.746179754155980646e-01 2.027533528421040510e-01 5.437113745146583254e-04 -2.985072861138848561e-04 -5.897986710307989711e-01
-3.347732203123946482e-01 1.672139907070472886e-01 2.047031407533699832e-01 2.243445721681449679e-04 4.085897156521595499e-05 -4.839753588469280499e-01
-2.744736109044429995e-01 1.940253014911602625e-01 2.065301706221868705e-01 8.076943665152402181e-04 5.665584974735119210e-04 -4.345205204268939303e-01
-2.250569592424340459e-01 1.414623204469704632e-01 2.084610773732097355e-01 -5.654202578695462499e-05 1.065099095989193497e-03 -1.509490879413214193e-01
-1.166244033107085160e-01 2.444336782227938543e-01 2.105414302273069804e-01 2.726455966047737042e-05 1.098913714215599396e-03 -2.494581002961956950e-01
-9.195515578687618596e-02 1.874037515467006088e-01 2.127948091418709331e-01 4.685796311010975430e-04 1.058370117194286494e-03 -1.565845313247344328e-01
-8.685040763986434653e-03 1.620237322126794333e-01 2.146756722741135492e-01 1.494313396832307075e-04 1.477712635547305054e-03 -3.169604148372168750e-01
1.012877577557195347e-02 2.104301013770285556e-01 2.166148150830348729e-01 -2.460715413499816565e-04 1.617013325351473888e-03 -2.903844405148960917e-01
2.754359228947622293e-02 2.107997048418646102e-01 2.187730011025388333e-01 4.407299143581201446e-04 1.463690887742729501e-03 -2.218069261885115273e-01
-3.417198821435882272e-01 2.475921033417858852e-01 2.007320226923312023e-01 1.720766130738328405e-05 9.792092557641598333e-04 -2.130342707270489744e-01
-2.964973854063839287e-01 3.171206131781673654e-01 2.027777041812138248e-01 -7.296432273284211498e-04 2.277328094651125275e-04 -3.962747252704424406e-01
-2.482160250049129102e-01 3.418382307866019709e-01 2.049311340152061289e-01 -4.876716265253720696e-04 9.504255043185492373e-05 -3.982011761403508321e-01
-1.602539728258472462e-01 4.330518710179149799e-01 2.069641411194022562e-01 3.549454784939970399e-04 4.166603583708717272e-04 -4.266638055902863269e-01
-3.241694954359564118e-02 4.137672210287500207e-01 2.091599183400926765e-01 5.575775666955056983e-04 1.885783759630872236e-04 -4.194921512793928775e-01
1.515781977899505195e-04 3.467441620987853912e-01 2.114464762603593395e-01 -1.437437874720094677e-05 -2.669329678547440474e-04 -3.965449076946995222e-01
4.204007910320625707e-02 4.207913994297631799e-01 2.134720801624666597e-01 -4.003501495146414993e-04 -2.753993672274940839e-04 -5.791102843885097551e-01
2.612818634941818652e-01 4.113614624010522025e-01 2.157863599944584432e-01 -2.715951936525895873e-04 -4.586459647622713031e-04 -7.297472541363166920e-01
2.439691693617948853e-01 3.491244870408087286e-01 2.177909692067217517e-01 5.375587476309953532e-04 2.914173645056379993e-04 -5.824487981853360141e-01
-4.212749230018967839e-01 3.328710996205986872e-01 1.995839587469257492e-01 1.843333421779571506e-04 -4.780480688086830498e-04 -9.697491701760245775e-01
-3.311582889771165772e-01 3.310945839633235854e-01 2.017851894268286039e-01 1.267252983146767301e-04 -3.450667596738448865e-05 -8.233678910561765818e-01
-2.602106519284649866e-01 2.258819092996405820e-01 2.039875595486028703e-01 1.501071217931287147e-04 -1.782427970343179182e-04 -6.576613905158479323e-01
-1.835304144117542446e-01 2.206415945935045198e-01 2.060992563604401306e-01 1.332168869390772971e-04 -2.297151638755367761e-04 -5.439511941248058591e-01
-1.631508002333622864e-01 1.389348089884760440e-01 2.079954794523364847e-01 6.973980887326093744e-05 -3.903790098302144528e-05 -7.432161181777110492e-01
-1.298957956107611444e-01 1.305546876458673344e-01 2.101282148978343978e-01 1.810064147441995667e-06 2.170399825751819102e-05 -8.191906327517131103e-01
-7.041553278259565785e-02 1.321531257426885597e-01 2.121255073216057330e-01 1.238510812496285704e-04 -1.495547965952491400e-04 -7.871881453621694114e-01
-1.966737603416691266e-03 1.637877863445033610e-01 2.141509367285746590e-01 9.268949705671321901e-05 -1.332178710208363850e-04 -3.297370090310138835e-01
1.375079719839938097e-01 2.396558037835865018e-01 2.158636843537936612e-01 3.104309132215066832e-05 9.494085785867866097e-05 -3.838411589292209380e-01
6.892570943995429689e-02 1.968501731393091370e-01 2.178365191877512652e-01 3.142741833312926857e-05 9.123770469055157223e-06 -1.320488563237289803e-01
1.698227376412671519e-01 1.764667498360054931e-01 2.198169003661237797e-01 1.922996104552645951e-05 -3.888772688184902377e-04 -4.407567625987941079e-02
-2.157436215493033771e-01 9.644953371723660740e-02 2.012105174043352096e-01 -3.003761028422083129e-04 -1.788779016872848711e-03 -3.057076364241121946e-01
-2.043692103969708129e-01 1.941505516618291238e-01 2.029770335723022345e-01 1.058652337036377716e-04 -7.486592083848597583e-04 -3.513189833137903006e-01
-1.314547186434056325e-01 2.360108673244331601e-01 2.049249384273692520e-01 -5.100880188327694496e-04 -3.329285890104463413e-04 -2.447211243478353004e-01
-1.412830269925654525e-01 3.557311492380632600e-01 2.067872237008525071e-01 -6.629632359219779459e-04 -4.512410607898410006e-04 -2.036705868440027156e-01
-1.251622866059008132e-01 3.871867028930444099e-01 2.086712233698606589e-01 1.028923826036204472e-04 -1.668309382802573502e-05 -3.814859494963825370e-01
-9.048006259051941114e-02 3.879262126881877770e-01 2.103891981375187736e-01 -6.340848184820438958e-05 5.919677816824247000e-05 -3.341326292761842010e-01
-3.918919029734097698e-02 3.867282873498769091e-01 2.122349285786363504e-01 2.507989374916454916e-05 2.868281567052643100e-04 -1.634101596626489628e-01
5.958555638747456418e-02 3.637207010559990739e-01 2.137640814852047044e-01 4.057435924690649866e-04 2.637598738666417750e-04 -1.556310536772189113e-01
1.253173419991210347e-02 2.479177679118673705e-01 2.154129217244347694e-01 1.144258897351766916e-04 4.515704572438648833e-04 -1.855257930980478143e-01
1.337957817152291007e-01 1.980041420101707750e-01 2.168800499515700642e-01 2.553507703641359804e-04 6.565068992684152185e-04 -2.226767683058347436e-01
2.116092370507224041e-01 2.058019414546643500e-01 2.182805894790694201e-01 -2.331713844204277354e-04 5.501484746687904711e-04 1.382044238900227880e-02
2.123881493203368109e-01 2.872842632088584147e-01 2.197123659506985960e-01 -1.356202762281052011e-04 3.903349305013591717e-04 1.223161830349408542e-02
-1.433204380921127008e-01 2.899735647084690782e-01 2.009076968900664339e-01 -7.707285335394235088e-04 3.791288201186741608e-03 -1.061864546152524597e-01
-2.064550720917244508e-01 2.235250563224961406e-01 2.020039666124816002e-01 1.652362734835328593e-04 1.365089153463894906e-03 -3.266791064593735361e-01
-2.645074460798639282e-01 2.825752576769312574e-01 2.029429796906959682e-01 -1.937555269460082216e-04 1.622860371588668747e-03 -4.451992569869135385e-01
-1.040546513276229545e-01 2.239341196597611494e-01 2.038280581258989366e-01 1.031719673046524796e-04 1.555848775202950960e-03 -1.110955944360300651e-01
-1.947403726497649035e-01 2.592512273283967272e-01 2.049478503369172588e-01 1.274414240439734392e-04 9.469049870259102627e-04 -2.314014040645969439e-01
-1.136298576638642421e-01 1.901760330202105498e-01 2.057149948557382979e-01 2.942076129200380763e-06 1.225841074210352140e-03 -9.868680134108773205e-02
1.409064167430966810e-02 2.765497769762363389e-01 2.064898415474359372e-01 -1.053255094107537177e-04 1.149163598421977040e-03 7.974988055601922587e-02
-5.811474877855317411e-02 2.701519220885901240e-01 2.073598013823850783e-01 1.471508569596003942e-04 4.603447479349472753e-04 -1.027335954533600548e-01
-4.808476595186035596e-02 2.516193510949922274e-01 2.080665275542227244e-01 -2.299843388007794226e-05 4.858388312161971562e-04 -8.810959027012875422e-02
-2.790871825234934184e-02 2.761609051117291935e-01 2.089465358618654012e-01 -9.934856998871804707e-05 8.289985717856290510e-05 -2.004940484530934597e-01
-1.065839606050824478e-01 1.917503389023090254e-01 2.096761635084843922e-01 -5.739725310510723245e-05 -2.070545591904914917e-04 -1.251089668179571346e-01
-8.562996024046271026e-02 7.722240045486958304e-02 2.103877695818983096e-01 2.345763904348743573e-04 1.270732355103034329e-04 -2.849009912252334908e-01
-3.074128833010774872e-02 1.883415379837775558e-02 2.110813028781987066e-01 -3.100997771436129580e-05 -8.580435536659242624e-04 -6.604043401930974333e-02
3.819678732949193661e-02 3.471386948192617394e-02 2.117336540153930691e-01 4.928086108318230585e-05 -3.931081197267427118e-04 -2.774279539729736510e-01
-8.101367641022159949e-02 6.760016140352334557e-02 2.121447612795996363e-01 2.062804782008415181e-05 -6.266283904180408376e-04 -2.894062101202886719e-02
-3.584411043998123048e-02 1.419598711522669088e-01 2.129010073729422081e-01 -5.568349721937259700e-06 -1.017877644186234234e-03 -1.015006755922219089e-01
-6.738560796411915965e-02 1.842546672820863929e-01 2.133994093108627088e-01 -9.100940031947911293e-05 -1.138336073306132424e-03 -7.367138403672138236e-02
-1.279810107571907607e-02 1.448178935906339615e-01 2.139094918504124698e-01 3.635279891962422971e-05 -1.119594021344411713e-03 -8.892450260596498901e-02
2.785594324860913087e-02 1.541856936676873902e-01 2.140796815237788198e-01 -3.006583049653301228e-05 -1.164007620873073112e-03 -3.921945184537685147e-01
5.185758175923875501e-02 1.496751240185041909e-01 2.143138635297266448e-01 5.816403966849859606e-05 -1.243335704977801973e-03 -2.390384477934851537e-01
3.865853617761523531e-02 7.741259504963711457e-02 2.146128072530595343e-01 5.461499995784608881e-05 -1.457933055966280887e-03 -1.738889510156475804e-01
-2.331010330064234304e-04 5.285729671125082019e-02 2.145969005195325630e-01 2.454479364215854048e-05 -1.173331651032462212e-03 -3.478776757204248837e-01
3.370507990034092571e-02 8.366804202286862169e-02 2.146047224433078049e-01 5.227259717352381167e-06 -1.246801980657506878e-03 -2.543847879951808277e-01
1.181791591083128715e-02 4.957858104585435854e-02 2.146591518700408652e-01 -3.602242091061377182e-05 -1.436468231696535862e-03 -2.331060800752279838e-01
2.410690862667655074e-02 6.302811985621781243e-02 2.146762219063049204e-01 -3.041584248039085590e-05 -1.313115495369990152e-03 -1.994261862873296376e-01
4.278984680233682836e-02 4.214313946127583310e-02 2.146212057361240322e-01 2.031616702631134052e-05 -1.316788070052715741e-03 -1.438576412896577228e-01
1.175126104023632365e-02 1.948726052944381448e-02 2.146480852550335383e-01 -8.368343275841691933e-06 -1.435534409268927371e-03 -1.863164527691585914e-01
3.332541444928011076e-02 7.242191278071019589e-02 2.146094177589351615e-01 2.379066407460443322e-05 -1.253033601917825663e-03 -8.554634277891344507e-02
2.192081712605761096e-03 9.286099302272288192e-02 2.146121640736292080e-01 -2.108273818444546211e-04 -1.515838743509033242e-03 -2.278826370860535799e-01
2.709517079186533894e-02 6.509393621774689498e-02 2.145633467934738303e-01 8.990081273660057045e-06 -1.320617140979894917e-03 -1.539463007702927821e-01
-1.756709125320965459e-02 5.964161748717033973e-02 2.145885474492961187e-01 2.211273996252994037e-04 -1.135523176479353094e-03 -2.553047020804820599e-01
1.118138672186859764e-02 -1.012556094588604877e-02 2.146965498055690702e-01 -1.202088525193523112e-04 -1.464328158552443727e-03 -2.463591842033565349e-01
-4.770506592098992110e-03 9.253278291918330678e-02 2.145848895729035588e-01 -1.994432774741222594e-04 -1.369157086927891721e-03 -1.347047028807131230e-01
-4.315928249773924585e-02 5.529227595314668842e-02 2.147006572317529116e-01 1.689766015606277978e-04 -1.289102024908380783e-03 -1.816879685740498129e-01
8.525870589374574815e-04 -2.044743647247097840e-02 2.146057209665477861e-01 -1.218628566812717078e-05 -1.183580753174942385e-03 -4.652452431827027585e-02
-3.835858547734619095e-02 -3.362519953619889923e-02 2.146313823950847244e-01 2.779668585015727909e-05 -1.321524044679594362e-03 -2.923912031133120148e-01
6.581974854659009000e-02 -6.694958303423546864e-02 2.145659562902034745e-01 8.968246768003819641e-05 -1.040521167891626146e-03 -1.160228001042722668e-01
1.864092655366822726e-01 -2.096138002891978838e-02 2.144567474604217594e-01 1.543254982412899925e-04 -8.613343900654153555e-04 1.512661615196639331e-01
6.102198050452032480e-02 -1.983633432768024119e-02 2.147522364487870483e-01 -1.332918407357140201e-04 -1.765178442373787618e-03 -1.233520360053827480e-01
-2.363397112007367684e-02 -2.056276423553895019e-02 2.146108679370853367e-01 -9.483361681155399981e-05 -1.488682796240671773e-03 -2.589558727779907032e-01
2.983415806543565293e-02 -9.072638233484949313e-03 2.146424253152300898e-01 -2.152147547617826580e-05 -1.279443600310457277e-03 -1.772096876074782390e-01
4.331532829805136153e-02 2.713614463589320708e-02 2.145350198971003319e-01 9.097585293477138417e-05 -9.791773953212203323e-04 -2.321000846388467376e-01
1.751751957975919427e-02 -1.569013299451200300e-02 2.147071521257482574e-01 -6.072830294396202095e-07 -1.530015274204259580e-03 -9.874429187187851176e-02
-3.121523804332989108e-02 5.050303032528756508e-02 2.145713991555806555e-01 -4.265209271829466871e-05 -1.250105462290490230e-03 -1.158790290684179325e-01
-8.046170379225826147e-03 -6.406940915118253255e-02 2.147061301692703150e-01 1.245493399915213761e-04 -1.117291317821790010e-03 -2.226337296639094854e-01
5.898166608720369075e-02 -8.957749265737253996e-02 2.146190413547610087e-01 -1.114179726181282119e-05 -1.332523029911591821e-03 -1.807798486675467053e-01
4.713430912090096903e-02 5.819881001174342233e-02 2.144490919636380388e-01 -4.456709692479658708e-05 -1.405591409848591352e-03 5.521931642811422902e-03
-3.382754370105153785e-02 9.057723518281572683e-02 2.145478616137884154e-01 1.128887045835582903e-05 -1.351415299758791915e-03 -2.192868579355243264e-01
7.922112997504372756e-03 1.284588558069263697e-01 2.146069536130970068e-01 -2.428852804455123020e-04 -1.507053414980652874e-03 -3.383716082697024730e-01
-3.257626901328676550e-02 1.513269974275257002e-01 2.145401546640091639e-01 5.395643725597934536e-05 -1.047168150123645733e-03 -6.817886612055114315e-02
-1.915791289391437918e-03 1.291376804185191685e-01 2.147006278877638952e-01 4.733511895658260780e-06 -1.402509691297935046e-03 -2.387027734163379988e-01
1.111470350866393744e-02 8.970909597671371249e-02 2.146359580009012391e-01 -2.323546382159396542e-06 -1.332832832252551320e-03 -4.042183127865215386e-01
-4.308197359965813822e-03 6.755244677366627204e-02 2.146345783076648583e-01 -1.099984318301790094e-04 -1.582954876139126008e-03 -4.524829398390630697e-01
-3.655745516841556186e-02 8.678509051193819546e-02 2.145915850113409573e-01 -4.832037514945560657e-05 -1.451956193719452061e-03 -4.013541158890318039e-01
-8.444977439122464125e-02 1.468467998468885594e-01 2.144883501315539287e-01 -1.131584555535344600e-04 -1.412590512368108687e-03 -3.137518217207144189e-01
-2.668236052699726399e-02 1.615093391315536864e-01 2.145721904404557234e-01 1.553954563601363790e-04 -1.062272582256080329e-03 -2.347042779772841054e-03
-8.226896825333560037e-02 1.329677024132681074e-01 2.147353322550781818e-01 -1.023502896813939923e-04 -1.603542851945332541e-03 -1.436979301676443166e-01
-1.328711073918750762e-01 4.033064783178688661e-02 2.146282240432751398e-01 6.897114930744425738e-05 -1.261892148977622474e-03 -4.006831965305214793e-01
-6.889966975714062469e-02 1.135768132919538764e-01 2.145528394617749468e-01 -8.447515857830953465e-05 -1.276155658830147076e-03 -3.838714225392749757e-01
-1.260711885471385296e-01 9.467055737059830445e-02 2.145323456987721089e-01 1.455130501132123274e-04 -1.016036074891204025e-03 -5.603264701346144516e-01
-5.839505551601775063e-02 1.547935057287389560e-01 2.145853002209656135e-01 1.613763664415475646e-04 -1.210463734075653726e-03 -3.691399321278985290e-01
-2.149183226144729120e-01 1.781819982802388957e-01 2.144846390961411275e-01 9.036923088966832094e-05 -1.183175651855452280e-03 -2.288027724803680940e-01
-1.243942487741689501e-01 1.574205111881153141e-01 2.146219240089487501e-01 1.471106228383349632e-04 -1.136198043354035361e-03 -3.182979398873498900e-01
-5.466653085423039959e-02 1.219736811724175529e-01 2.146418619183103060e-01 1.025817246679298835e-04 -1.221072630331374682e-03 -2.919560145848433819e-01
-2.480221627133689238e-02 1.410469482770114746e-01 2.145243091121393220e-01 1.122957260610656078e-04 -9.307593208041044968e-04 -2.246094870846431224e-01
2.049622066538355630e-03 1.150478920946802902e-01 2.146238348920418981e-01 2.059204034492923192e-04 -1.161047775071742151e-03 -8.930826011157493027e-02
4.839069036913326571e-02 1.284836291392622287e-01 2.146257798058550104e-01 1.106317081965060010e-04 -1.343181711621003810e-03 1.615675487113634456e-01
1.068021061958844900e-02 8.162603998473882960e-02 2.146227137533223694e-01 9.253407703199606244e-05 -1.426091164729037693e-03 1.888272502105508566e-01
-1.066078440665666344e-01 1.450929616695267876e-01 2.145566333694064465e-01 -8.508534808317452357e-05 -1.470920857215316652e-03 9.393813043700038889e-02
-8.517439018889466640e-02 1.547096319049943158e-01 2.146235564729409018e-01 -8.828779508035416841e-06 -1.090287436930939676e-03 1.329259290543666552e-02
-6.999852121890499934e-02 1.292404416092912400e-01 2.146569388444141691e-01 8.529833264515524513e-05 -1.205048916980332174e-03 -4.000139983797768722e-02
-1.881873662465568045e-02 1.367480316433508369e-01 2.146179839981251503e-01 1.289967543747241017e-04 -1.174554113312086673e-03 8.446191400862299026e-02
4.213589137818435360e-02 1.330925986587186693e-01 2.145340328713258304e-01 8.625602008289308051e-05 -9.498257522711399739e-04 7.747251484039513469e-02
3.642533912304123794e-02 1.299541975618648815e-01 2.145423911038705778e-01 1.360727155225803888e-04 -9.272962469937540966e-04 1.983297482402321121e-01
5.186003224453554494e-02 1.325382547103545194e-01 2.145654997652430840e-01 -1.429597620747193943e-04 -1.248711456076605957e-03 6.038169578619437955e-02
1.793518459567422160e-02 2.944478749138499385e-01 2.145981650027968257e-01 1.860147927656124317e-04 -9.739440615410476735e-04 7.726713806299982668e-02
9.084844309163217502e-02 3.365839949306126400e-01 2.145655359494019199e-01 -3.525041850193519019e-05 -1.285232646835531402e-03 3.649020993802200019e-01
1.028063705390910298e-01 2.727746421887976558e-01 2.145527818677514520e-01 1.001905229513901736e-04 -9.886070243025682752e-04 2.070068669433156594e-01
8.128298130934205612e-02 1.901343529818876610e-01 2.146333023139860297e-01 -7.133859137609566310e-05 -1.497432581486945764e-03 3.404611545233197645e-01
1.261297817457722736e-01 1.220228586831103579e-01 2.147226604793100457e-01 -7.407703997827114358e-05 -1.599853123575681194e-03 2.842497337636233357e-01
8.803614697523025334e-02 1.625789960830561487e-01 2.146501524746921574e-01 -1.895296145435015032e-04 -1.532452783401753961e-03 2.326637095024877144e-01
6.195745711086869667e-02 1.410976225300752396e-01 2.146709914215325643e-01 -1.448914480746517288e-04 -1.478876269581601245e-03 6.343363001289929748e-02
1.621604018158462335e-01 1.344444262985301231e-01 2.145279410384495766e-01 1.484558627676917629e-04 -8.412017767353073376e-04 2.022243582069487566e-01
1.194920858514273987e-01 1.119913156881688632e-01 2.147449254885523406e-01 -1.786654648103279473e-04 -1.672744594165518316e-03 2.126669351100705097e-01
1.015707172586869933e-01 9.580429029222901904e-02 2.146266826617096446e-01 -2.653223492884839514e-04 -1.527116025854437535e-03 1.089687180435384567e-01
3.744658999138487238e-02 1.113051655627662340e-01 2.146842981152128349e-01 -2.193152175142509244e-04 -1.705076898732207392e-03 -1.436820096316287765e-01
-4.659722873162085166e-02 4.267223539120882508e-02 2.147443887474789759e-01 9.159740941314545933e-05 -1.381081336060732342e-03 -1.716561899968323812e-01
7.994846064595896584e-02 2.289627990444320985e-02 2.145996971752768823e-01 3.094038813579317107e-05 -1.054990407765960762e-03 1.118623649815295995e-01
6.601771065300075791e-02 -3.275606218690611110e-03 2.147582248602058486e-01 3.782046806853463750e-06 -1.326440643392683008e-03 1.115082801589203920e-01
2.578977609588348902e-02 -2.441470025150719106e-02 2.146761002267618124e-01 -1.544295865980914459e-05 -1.468499935038217272e-03 -7.449585626105710567e-02
1.319199877874493443e-01 -8.254248890490088753e-02 2.145874071107833347e-01 7.592993491728849509e-05 -1.035894213567420570e-03 2.184670470248270546e-01
1.556044832907583220e-01 -7.221889638505732401e-02 2.146598721338238702e-01 -1.078727492719188963e-04 -1.352159238317600810e-03 1.874702451872999887e-01
1.380991687238095345e-01 -7.110681521292550045e-02 2.146479678374124678e-01 3.606376046269295610e-05 -1.377799215052560693e-03 1.465920873718837836e-01
8.047391395357324229e-02 -4.060622791403707688e-02 2.146589657682589358e-01 -2.312677464061345519e-04 -1.517532460789083361e-03 4.133403519080383615e-02
4.633397037352669084e-02 -3.091342210647247263e-02 2.146343282448754941e-01 -3.741520726208148029e-05 -1.470712136724355466e-03 -1.078704160279670560e-01
4.909721198923289176e-02 -2.853580376586734371e-02 2.146218176934804323e-01 2.063499415902557562e-05 -1.256598350803465533e-03 -8.049584837242812485e-02
3.447121273431968946e-02 -2.526990911757966488e-02 2.145835888481096299e-01 -1.072754212477854249e-04 -1.292813970163544414e-03 1.293927783876793434e-02
-7.362293731635962540e-03 2.906396654233260948e-02 2.146237183276140659e-01 4.512482206465821144e-05 -1.489127996248061289e-03 -2.797595483066356858e-01
-1.466117170617825885e-02 2.780311905940669945e-02 2.146761701207571260e-01 -3.365632143308914777e-05 -1.366855399476275129e-03 8.191214676313242002e-03
3.241300403475290415e-02 -2.625290746750887777e-02 2.146890376555702917e-01 -4.494641898661578080e-05 -1.254619077934344528e-03 -4.583808023976903429e-02
3.165459421448433425e-02 2.787871309020044722e-03 2.145570880833448935e-01 2.475829097435155622e-05 -1.206365581646863527e-03 -6.113459509219394683e-02
7.142191191127268690e-02 -3.814563874269889104e-03 2.145925329051469044e-01 -1.536262898262633129e-05 -1.236632429827750094e-03 1.184869996221907772e-02
4.079964773156997959e-02 6.606274664959214948e-02 2.146397639644901378e-01 -2.154249729489245006e-04 -1.635293654279581805e-03 3.882709175443715272e-02
2.685531644423845912e-02 3.401216848779075111e-03 2.146624429611317941e-01 -4.781724640052942857e-05 -1.288003098484496838e-03 1.541629507156699538e-03
-2.028006050666367882e-02 6.341845957669936529e-02 2.146518379405305543e-01 3.654074285635594977e-05 -1.393312245663167392e-03 -1.712777815554198113e-01
5.359643344703172996e-02 3.706248769064274251e-02 2.146286532125165625e-01 2.482850377048222547e-05 -1.241946308860840615e-03 -1.461806828300768468e-01
-2.444377092253781358e-02 6.073876949593954438e-02 2.146265198269540209e-01 -8.352948699039270655e-05 -1.408737657866921495e-03 -2.318560158718109554e-01
-7.975350033411446327e-03 1.574827128124820647e-02 2.146286941687240435e-01 3.541126214084873419e-06 -1.189937347341069821e-03 -2.785052283622015401e-01
-1.977876099357774031e-02 5.598136718661211181e-02 2.146799022305627691e-01 -8.475923247984495142e-05 -1.573695196535439787e-03 -3.526761356237417266e-01
9.416859057763852375e-03 -3.120493927998613248e-02 2.146505909274041835e-01 1.196991204620718365e-05 -1.308387955426163147e-03 -1.779479370472958066e-01
6.675629579607478270e-02 -5.649985397268249970e-02 2.145537171224700113e-01 7.767305341993397641e-05 -1.163044938512205681e-03 -2.978064409168919568e-01
7.120223053044091865e-03 4.035648845382168448e-02 2.145733569945041941e-01 -8.312473795122454062e-05 -1.414794866336204849e-03 -3.006297837505011450e-01
-1.089532312344564102e-02 -9.152482572802185870e-03 2.146434122340263873e-01 9.793558507737396294e-05 -1.480420813588684791e-03 -2.166424105424420710e-01
2.918200585064310501e-02 4.068025896106106098e-02 2.145889668522538152e-01 -3.281889086504445689e-05 -1.169359974959944615e-03 -9.787625435918126393e-02
1.000858084890596106e-01 1.241760475738586458e-02 2.146631292177215156e-01 -1.035005882187952580e-05 -1.442070710134388733e-03 -1.465246600778229713e-01
-7.262327697560577722e-04 6.097077850697815715e-02 2.144806399200723246e-01 1.103401286146362249e-04 -1.095644634952962172e-03 -1.741889319207038933e-01
7.708442088178052432e-02 8.229885877868989286e-02 2.145927343869831194e-01 1.630734618585004891e-04 -1.103466363319067318e-03 1.155890799925116674e-01
1.624510329497534933e-01 8.881891759263269015e-02 2.145130849252220862e-01 -6.346816843595433496e-05 -1.110020278299103788e-03 2.025171889378059864e-01
3.213244437499248457e-02 6.292377823761204081e-02 2.146537711517390590e-01 -1.620294140357013705e-04 -1.723317049829605537e-03 2.054983223085658506e-01
1.943387953664470549e-02 7.182918247495030661e-02 2.146926331055847292e-01 1.121498493891550665e-04 -1.323862975462628076e-03 7.778915585051993098e-02
-2.065804690026041071e-02 9.855465208273457567e-02 2.146032325522094775e-01 -1.267551977242681804e-04 -1.342616891376990050e-03 3.445209701828658849e-02
-3.647808713807883241e-03 6.613032547944948381e-02 2.146667926446494401e-01 -8.177846575524390415e-05 -1.362455863607975760e-03 7.092494203210128467e-02
6.623803396433088075e-02 -9.653831430356014584e-03 2.146264173925840901e-01 2.273737774090815603e-04 -1.114413315416832922e-03 6.586838052554878919e-02
2.269659659913446717e-02 4.880812791541634665e-02 2.145616227785109298e-01 -1.625845552284145015e-04 -1.237566495094872925e-03 -1.857981521691997595e-01
8.579883796322035350e-02 1.066456200952395073e-01 2.146060607817428800e-01 9.966279505484113490e-06 -1.436740095962769350e-03 -1.586953237633959568e-01
-9.485850771047814670e-03 3.631943776326763962e-02 2.146854635468298800e-01 1.065188598239284452e-04 -1.356980339438844689e-03 -1.937275822875890730e-01
6.484164883568219184e-02 -2.914083459349383134e-02 2.146529708304426021e-01 3.070615517118258488e-05 -1.311982056730780612e-03 -1.236393308203633523e-01
-8.657584572633367226e-03 2.763427869610012022e-02 2.145458833623918316e-01 6.197674285414551234e-06 -1.244919757174103728e-03 -1.090373645169111505e-01
3.769751163954580819e-03 9.144041639848551895e-02 2.145777323423598837e-01 9.929886662771363959e-05 -1.264227487567268606e-03 -5.453788715689712047e-02
-4.788925122022326397e-02 8.329655016343934237e-02 2.145673219979049584e-01 1.658847374603501711e-05 -1.244223657592173019e-03 8.125326712829092357e-02
3.142130966317832619e-02 8.827387296579224107e-02 2.146639789471144200e-01 7.384552963468408689e-05 -1.185363117863204915e-03 -3.131220063182207913e-02
4.118886090257983801e-03 5.851598765039819211e-02 2.146352869935057028e-01 -4.526475281311534524e-05 -1.345406409078877272e-03 -2.835784318263007836e-02
5.734460795859448040e-03 7.225144815995217240e-02 2.146014363393329849e-01 -1.057014347258485639e-04 -1.405702890219386264e-03 -1.510971149620737031e-01
8.513168676505381005e-02 2.048544269025071030e-02 2.146704511165430929e-01 1.435867363383708012e-04 -1.105123105493030500e-03 -4.684571345646415530e-02
-1.898401894064330464e-03 -1.062407123384473406e-02 2.146482718665961298e-01 -2.090310520252064745e-04 -1.540400060143642383e-03 -1.320893038948873222e-01
4.165148204086176198e-02 1.580551480906107475e-02 2.146189176214358674e-01 1.553581081358978587e-04 -1.061469868608221154e-03 -5.983888985506805730e-02
8.921804425998505761e-03 -2.026156426852630810e-02 2.146603950046645504e-01 -2.308178702466087662e-04 -1.572929145666675591e-03 -3.051326696828067786e-01
-1.251578960411494496e-02 -2.219107010026270116e-02 2.145834217572041291e-01 1.391011905181351580e-04 -1.256132237390445057e-03 2.647548809345204660e-02
2.561499255599282085e-02 9.959541349703580904e-03 2.145776882204707969e-01 2.988217211582920092e-05 -1.186630088580636466e-03 -5.247367121444376781e-02
8.791522126201090775e-03 -2.854192637237496638e-02 2.147856446294065247e-01 -4.599228028732086227e-05 -1.428430872943675309e-03 -1.493533602714584678e-02
5.540435975340964048e-03 3.933568117187873081e-02 2.146805576498233004e-01 -1.646303827260177355e-04 -1.393270614409814531e-03 -1.323848789421937511e-01
4.716567293839004499e-02 -1.489125989086740806e-02 2.148054669646302650e-01 -9.452335217704528405e-06 -1.349219217072511901e-03 -5.615434536787659858e-02
-2.067681499587182420e-03 6.891502312784801576e-02 2.148359752016080204e-01 -4.294941038389280073e-05 -1.499769784489710794e-03 -2.134854906471884417e-01
-3.589950625791833716e-02 7.869074064543241098e-02 2.148933432520373499e-01 6.886991744669204306e-05 -1.377838107908639859e-03 -1.909887752632215829e-01
1.935081042062310186e-02 4.652370098697479472e-02 2.149993096751545707e-01 4.379821539166926596e-05 -1.312853092401044175e-03 -3.105910437277704592e-02
8.222879097495536249e-02 7.799549059772620252e-02 2.151566654496094855e-01 3.999161020502391741e-05 -1.376822484511295002e-03 -1.504334844371979507e-01
