-7.768518778810665215e-02 -3.584492587214366255e-02 3.648896232636991144e-01 4.532721177243988664e-04 1.077931331890796601e-03 -5.864456715797240760e-02
-5.506854249133388141e-02 -6.452029550961299598e-02 3.648409909132721562e-01 3.034626560619692391e-04 -6.121577434367798031e-04 -1.204046209131636874e-01
-9.504155987454972199e-02 -5.136391619173860668e-02 3.647740655710384750e-01 5.772597551422206153e-05 1.636384369403217818e-04 -1.075701254175549931e-01
-7.763355187249060263e-02 -1.899428171705358492e-02 3.653769108703383006e-01 -8.844486547738821675e-04 -1.064227285916215563e-04 -1.059911163545956825e-01
-9.651667750908873855e-02 -3.329960359250740826e-02 3.652436640235001142e-01 -1.397313439388252903e-04 -5.786878363532878245e-05 -3.317820611907314476e-01
-7.112919108053193662e-02 -3.791314947999278873e-02 3.652551484031083540e-01 -4.339763083898626444e-05 2.082829450213645299e-04 -2.430931597547316136e-01
-6.957890621796636310e-02 -2.171356213007361730e-02 3.645996796951392893e-01 6.625720243586155731e-05 9.980235326983288570e-06 -1.795635448894676023e-01
-7.671611817262330435e-02 -1.077854115779583108e-02 3.647340050092312547e-01 -6.037228098411409968e-05 -1.952750177956159633e-04 -3.277002362262427387e-02
-9.207325023159862454e-02 1.498198480508134561e-02 3.646766770856155748e-01 -1.091254622373511476e-04 -4.433423742589814431e-04 -8.809981909682637613e-02
-6.511745470350491227e-02 -1.823120534223347453e-02 3.649190068004337095e-01 6.770247271529149496e-04 9.510934875399251753e-04 -8.967845341434282913e-02
-5.575134428014002358e-02 -3.383698972650314978e-03 3.649543491051667754e-01 1.188413698956659593e-04 3.102969547036895834e-04 -1.385139058508056409e-01
-6.029900369822804168e-02 -1.115269851077362127e-03 3.652576549948611806e-01 -1.890631206666843291e-04 3.884380946033869834e-04 -2.065622928064854424e-01
-5.238624421318613389e-02 -2.467888070307455370e-02 3.650295568353709719e-01 6.343710176490029206e-04 -9.372364445812442517e-04 -2.288695851946049298e-01
-3.663265111010092362e-02 -1.177401629589734829e-02 3.651932675918879712e-01 -1.208193366597666975e-04 -4.054955617255566057e-04 -2.024630801418925985e-01
-4.509603617889986621e-02 -2.574778217738653632e-02 3.649606579305389453e-01 1.993851955284567639e-04 -6.264634442382052042e-04 -1.036745997437267253e-01
-1.861239010526591700e-02 9.145371204223666853e-03 3.652466569242401873e-01 -6.697449351043270095e-05 -3.659466335818886912e-04 -1.819607059589638531e-01
-2.126495820753485783e-02 9.511199158797245881e-03 3.650708233015767523e-01 -1.584903130457345529e-04 2.332781075984540571e-04 -5.681753192982641476e-02
-4.887920189743641397e-02 2.132833797362911586e-03 3.643761534754276776e-01 -7.417128027796578561e-05 5.359552139174503639e-05 -1.763909770980160441e-01
-3.043946260742254675e-02 2.231034042325162961e-02 3.654743198170676832e-01 -3.781747381732141790e-04 -1.801010485217755756e-04 -3.820262354341533856e-02
-2.728314571926447607e-02 6.026988792890279091e-03 3.647996782560997686e-01 3.598427304883772271e-04 -1.190113352793533151e-04 -1.284636273986103916e-01
-3.538429903543929139e-02 2.270696348330336969e-02 3.647053983069524774e-01 1.577767288492719534e-05 -2.712672722992340540e-04 -1.161776166864145476e-01
-4.954110546448123320e-02 6.833893596797332992e-02 3.653034691736622430e-01 -9.253928882440502855e-06 5.363492330226938979e-04 -8.031094217482326325e-02
-1.294171827960691190e-02 6.934452572724236763e-02 3.646040148404262604e-01 4.139280957188994797e-04 -9.698113052161331854e-05 -8.100780625197365192e-02
-6.623871479330713068e-03 2.913528630949841977e-02 3.647146372123141744e-01 4.063233674244562090e-05 8.539991482277003304e-04 6.913600209724076427e-03
-2.887396414708327461e-02 7.234753848793908093e-02 3.653639880687212238e-01 -2.464845819046870812e-04 1.230965408408759112e-04 -1.487345712491272842e-01
-2.485131499227635071e-02 6.708450577015494243e-02 3.654906620951186014e-01 -3.520624868450745673e-05 4.778392299350162618e-04 -1.845044077187098508e-01
-1.593037526700824547e-02 7.890218832759890444e-02 3.640795519135023861e-01 -5.470728608617367501e-05 2.764666758803489268e-04 -1.610789683579321174e-01
-2.254621739667450608e-03 5.555701276195181004e-02 3.651105655752244217e-01 9.880404332514262510e-05 1.950660869588232587e-05 -2.761145968457289768e-01
-2.492486188852807705e-02 6.304484879810463849e-02 3.652857414038705453e-01 -6.210131868587505984e-04 -2.654878346464337961e-04 -3.081859234298227612e-01
-1.711609880587583801e-02 6.747529501097664084e-02 3.653619424524180426e-01 1.962247062469280154e-04 3.050090843595261664e-04 -1.527773706385306962e-01
-2.758543073791740532e-02 3.027085245713090345e-02 3.653732225777827636e-01 -1.153118313035262276e-04 2.505497291674176107e-04 -1.731478077061621712e-01
-1.694726464963208779e-02 3.630701518602384714e-02 3.646434946740959582e-01 -5.758719384046007052e-05 1.741665113245116614e-04 -2.170942745954524966e-01
3.432604376933095971e-03 3.800556298778526298e-02 3.649737039268227123e-01 2.320663185842961073e-04 -1.110304997116766867e-04 -1.990832679526405580e-01
-2.906538544330919058e-02 6.170593959340392454e-02 3.652568518221971927e-01 -9.772128738284089451e-05 -6.342688867107920106e-05 -1.259581130517441749e-01
5.540097936110523202e-03 1.342937054346155477e-02 3.647466131222226737e-01 6.050848262718127799e-04 1.757576061889457107e-04 -2.376067986116586483e-01
-6.567826053468989178e-02 1.274530203906431777e-02 3.648828470494615006e-01 6.409330477306449006e-05 -5.567375315118268262e-05 -3.290805319706432974e-01
-3.835169395455002156e-02 2.604026866093303583e-02 3.649410844254571407e-01 -5.655255513987658298e-04 -1.802985663071464818e-04 -2.774535950488344893e-01
-5.939795547108989160e-02 3.375945512982857222e-02 3.653478912306912241e-01 6.192949066321104751e-04 6.136970900598999294e-04 -2.466335256726553959e-01
-6.614111972911181081e-02 1.619470535342761724e-02 3.651744676341046048e-01 -4.563412491259799639e-05 -2.290802149323442974e-04 -1.872116556820974942e-01
-5.073703656506028253e-02 3.738395272785174916e-02 3.643446794243463405e-01 -3.690112935330759191e-04 1.399551996076328370e-03 -1.804985558148679003e-01
-1.858618914941069771e-03 9.294712804597483891e-02 3.735084980365828700e-01 -1.833381362991391749e-03 1.309561710715746122e-03 -2.089063294111455082e-01
-6.524718394433410944e-03 1.028182795435822194e-01 3.647757893279652830e-01 5.311880796394315482e-05 1.148598202567440276e-03 -2.181762411792143308e-01
-4.809677663019340521e-02 9.073302457872955973e-02 3.651644463377687888e-01 9.020041608724519485e-04 5.529529006225352089e-04 -1.194319213940854968e-01
-5.905359025818917446e-02 9.983651193002077151e-02 3.649835939763270698e-01 2.959058347535372421e-04 -6.406956077207134241e-04 6.859967382723396179e-03
-7.778693376708983864e-02 8.149223835373411995e-02 3.648254050931657999e-01 6.479868157514357199e-04 -9.583991710810381946e-04 -5.938802844471863934e-02
-5.924010665788510821e-02 6.262551138006680618e-02 3.649400579973151038e-01 -2.442847343929169159e-04 6.580017102953605781e-04 -4.625940557421068244e-02
-7.684236786642356654e-02 5.239322829167069456e-02 3.651429079321024118e-01 7.473004320232423800e-04 1.038149963999041736e-04 -1.875613610757838889e-01
-5.541671563310850840e-02 8.188494245352950784e-02 3.652333341067076633e-01 -2.756277886281183979e-04 2.247419148527933074e-03 -2.437941957679177762e-01
-5.846573033499887634e-02 6.807978022886386482e-02 3.654343073926702989e-01 -3.469522161561821813e-04 3.075872953462823644e-05 -1.543278017413496628e-01
-4.028220062666808959e-02 7.456386809722374831e-02 3.650677050773622478e-01 -1.527777431813870813e-04 9.131305758207312190e-04 -1.187603696831987382e-01
-3.980737513376040454e-02 6.182854722319820751e-02 3.655804806375246852e-01 -2.598963271138884598e-04 -3.082468608139186163e-05 -9.512761737351473068e-02
-4.650125178735264181e-02 2.940615764074902896e-02 3.648959882356360707e-01 1.120173310356445835e-04 4.150370541143323769e-05 1.048026563733591224e-02
-3.047203245143952771e-02 6.238644955820515925e-02 3.650500930786686471e-01 6.900068345205064707e-05 -9.619017229659643621e-04 6.700067101569481820e-02
-1.777027115040836353e-02 5.112665209800867916e-02 3.651519334013991758e-01 1.863120833996114638e-04 -8.196351243151403032e-04 -6.041969326933853413e-02
-3.126073751975184944e-02 5.988371556219441311e-02 3.652919158566188540e-01 1.447092962710151535e-04 -2.482103297598321897e-04 -1.369869145781000552e-01
-3.560793764055973643e-02 4.368126020055766029e-02 3.655557133297042127e-01 1.301613993718782358e-04 1.371054461385101100e-04 -5.284552712412952241e-02
-9.156150596174521261e-03 5.236599443001085930e-02 3.650345985561886941e-01 -1.142527164358107155e-03 -3.243102465838706049e-06 -3.271492417292007349e-02
-4.522786861493908322e-02 6.503984497993621494e-02 3.653841074305332892e-01 3.906423143221595729e-04 -5.449013110157383162e-04 -1.975996457099511161e-01
-6.819007983387984084e-02 2.832304873627849301e-02 3.653241711791672675e-01 -2.901420896687336619e-04 4.099123667593128221e-04 -1.496715371327033417e-01
-6.699255983683378990e-02 1.685972196004449988e-02 3.652928561986261702e-01 -4.280044747603185189e-04 -8.329835827125801233e-05 3.207021647020936398e-03
-3.362641256468045653e-02 2.341234945553127486e-02 3.649431037071438899e-01 1.033033333866296738e-04 1.691145328157432615e-04 6.716175370071156281e-02
-3.623930768355367038e-02 1.092246424886577846e-02 3.644695589414446157e-01 2.909818146647560628e-04 -2.414589056973623002e-04 8.166298784389035281e-02
-6.812759993215419807e-02 3.098195777556577227e-02 3.653022113630913781e-01 -4.756388948422243692e-04 5.254068986865498368e-04 5.567422404031544154e-03
-1.843476023819414639e-02 4.970095767721272734e-02 3.655473845855383708e-01 6.554264457266610611e-04 2.383859262734557526e-04 1.310113245557298634e-01
-2.698142250355828331e-02 1.951510517058856892e-02 3.650677681672636621e-01 2.741689732473145892e-04 -1.132439279520815352e-04 1.093421426848625172e-01
-1.778383551255497894e-02 -9.956582639077430144e-03 3.644568478710432657e-01 7.885184108033919969e-05 1.272884996090921665e-04 1.580870399105956392e-01
-5.413452404707963517e-02 1.524330487512909685e-02 3.650793549363327006e-01 -1.009090010254207344e-04 -5.804202005051642323e-04 -7.190637964996348178e-03
-7.946296261846336195e-02 2.626882241198437093e-02 3.649606447156549249e-01 2.733914274618150683e-05 -6.878811921674767244e-05 -7.331452972893721942e-02
-6.534177774960006624e-02 4.183221682801622349e-02 3.653774229863108181e-01 -5.498787976656889493e-05 5.846820387594790216e-04 -1.213958452141631339e-01
-6.148667185155805986e-02 3.357612347046710216e-02 3.652863522482318048e-01 1.392264497060565441e-04 -2.761601125310180990e-04 -6.794923095055975526e-02
-4.487234260724495133e-02 1.512577176533456795e-02 3.650366763626816669e-01 3.112898748410309105e-04 -2.660194042000170664e-05 7.092503746504462414e-02
-4.845345779300212763e-02 4.367105055557148757e-02 3.648209472182236679e-01 1.050493837331518114e-04 5.103337250154186535e-04 -5.712619343881246425e-02
7.809307998302013679e-03 5.407680562929758489e-02 3.650869205423289965e-01 -1.293428734119855777e-05 1.356922835454506130e-03 -7.276366563852683378e-02
1.544688288225686511e-02 1.291868555529929533e-02 3.650795379210680092e-01 2.618854695007899751e-04 7.235362136874469614e-05 -1.373279476794321274e-01
3.123687351423750508e-02 3.812599272923736932e-02 3.651668750459873269e-01 -2.314517507131509894e-04 -4.485673922971307914e-04 -1.646734328737229081e-01
-2.664108045995186927e-03 8.242763950334099088e-02 3.646540503032448810e-01 -3.016172596220905453e-04 -1.635145831569066819e-03 -2.677646867655050222e-01
-2.942467696036348349e-02 7.020682099942517074e-02 3.652565732413905475e-01 2.377239827940651041e-05 8.889400006081971508e-04 -9.602398662199326806e-02
-5.158310075340722528e-02 7.780831150052140710e-02 3.649190258239402018e-01 2.311164043828974621e-04 -7.024914972106270747e-05 -1.201605103093894983e-01
-4.354665255326559993e-03 4.572894600056762876e-02 3.651331406821155534e-01 1.371013334719074100e-04 8.462178525585181601e-04 4.371804838775803989e-03
-2.999857686911975088e-04 6.879952283985633910e-02 3.649381994937062057e-01 1.296345929016783549e-04 -1.163180634991977009e-04 1.151772639652558633e-01
2.351343137706566819e-02 2.465970657593053936e-02 3.652679801399756898e-01 -3.681695387613874502e-04 1.491407336718104286e-03 4.603637817345992977e-02
-2.602119432658419468e-02 4.139419032241663243e-02 3.646227338483978286e-01 -7.993351439449604195e-04 -1.165655545321158705e-03 6.224159863809054175e-04
-1.935983909076085391e-02 3.558499386157833178e-02 3.649055177539117234e-01 5.964121241535999931e-04 1.054605706544003117e-03 1.155960163113827106e-02
5.941728237479248359e-03 5.563738112921131143e-03 3.644011320250104546e-01 8.294054253921543274e-05 1.184995742122440290e-04 2.686605875705404267e-02
1.823595826687590335e-02 1.460745877922593923e-02 3.651073665134522694e-01 1.343712465431737583e-03 1.665763902247135520e-03 1.380346972091940072e-01
1.449698799954609631e-02 -6.053292882394950558e-03 3.648931633167115107e-01 6.266481071250926994e-04 -1.609372908652508243e-04 1.384139140606571727e-01
3.387262170260051802e-02 2.355536726651908871e-03 3.644611316629758901e-01 -3.852070155762719753e-04 -1.605869706367632791e-03 1.392232232681044901e-01
5.367801407214140008e-02 -4.287353658543353180e-02 3.655134764708111161e-01 6.476382217662366358e-04 1.286876876637813071e-03 9.734242289756855904e-02
3.250953128596971442e-02 -2.910860138142017800e-02 3.646718328165664547e-01 1.671233185269062186e-04 -9.965060572504097925e-04 8.023129489760146005e-02
8.357814742293809621e-03 -4.294589365252901580e-02 3.655092435076220947e-01 -8.015562935690450849e-04 1.473464246814358948e-03 -2.583537046183161101e-02
6.427423054366039612e-02 -4.475643346376768916e-02 3.649982616963364235e-01 -2.202000555153696578e-04 1.246302991591425853e-03 -1.552369716732080775e-02
5.779765292739708765e-02 -5.671358564666640484e-02 3.652470875621566249e-01 -7.440667435647282772e-04 -1.665380221167006959e-03 -6.718308764784718112e-02
4.482783193047133047e-02 -5.175438806744723369e-02 3.649320387547343447e-01 2.467678557059547204e-04 -3.668719405120701390e-04 -8.787269478159234759e-02
6.533699804937299904e-02 -3.819621418840413868e-02 3.649303043976434013e-01 -6.467179801414436695e-05 2.222262661444097162e-04 -1.201274270265393213e-01
4.665141138484826117e-02 1.558799361275574683e-02 3.651939241275958814e-01 8.354855943742602465e-05 -3.914536106706399178e-04 -6.658457293799931176e-02
3.567715890256308031e-02 -1.280092997869766193e-02 3.648880288289829132e-01 2.596227594465438352e-04 -4.935667337294619237e-04 5.147079884243716680e-02
2.579762524192725712e-02 -1.045941287665751521e-02 3.651308117844270784e-01 3.215207427545128407e-04 -6.859428487501100565e-04 -8.109767418326671584e-02
3.889490306481289961e-02 -9.253562876015052063e-03 3.646663117675821297e-01 -6.966867353026644227e-04 -5.835075999317801800e-04 -7.852665609345575726e-02
1.138247540007132803e-02 -7.307608147334789493e-03 3.651223344169567397e-01 -3.679755751189012192e-04 -8.811303796497848510e-04 -1.142188000060131020e-01
-1.809680180271561190e-02 -4.794336675566693989e-02 3.650222857355908124e-01 8.564243940135373985e-05 7.187621116968475861e-04 -1.286406863602340689e-01
-2.169953683707974423e-02 -2.536586669130377197e-02 3.651348213435854917e-01 -3.357844375841629106e-04 1.636885092041042247e-04 -2.039202438227095959e-01
-3.243317999732314716e-02 -7.537273431000325423e-03 3.655825863831958511e-01 -7.654399474352713241e-04 1.184133109088904116e-03 -1.637344046321417834e-01
-2.356214966242884887e-02 -1.081333299469995624e-02 3.648044534942206374e-01 4.478314684117917647e-04 5.742415267183413261e-04 -2.417581721435929989e-02
3.232398153694109131e-03 -6.148857079296298628e-02 3.652624330736451430e-01 5.658074383612259929e-04 1.030547735804776630e-03 -1.405442428302512703e-01
1.994820746906498382e-02 -8.014459378390161037e-02 3.652468578549564193e-01 7.114741456845542896e-04 1.355990946837048333e-04 -1.697928700880350916e-01
8.081488062791446908e-03 -5.689632807440592882e-02 3.642115404624799435e-01 -2.920983586929204391e-04 2.310565962252189814e-04 -9.443011812084922685e-02
-1.345240087031567694e-02 -2.027080972356941346e-02 3.645483509134012090e-01 -6.851107297483219425e-04 1.950071497454180548e-03 -5.807297835077614807e-04
-6.742548763342558552e-03 -5.116127275691590565e-02 3.651200894959060195e-01 4.591958941357150909e-04 8.119364826161777886e-04 -2.052624128628487143e-02
-2.181614805016395334e-02 -5.186255652331710903e-02 3.647637399752249321e-01 -1.216170958766476699e-04 -3.070796996910861356e-04 9.430106661738306417e-02
2.017801562631066012e-02 -8.434274668558327040e-03 3.643275922975675041e-01 -4.117535626028482059e-04 2.990364963285057211e-04 -3.200028099326432396e-02
1.609698827812915817e-02 -4.000751812256785750e-02 3.643487741261604018e-01 2.657483504448159115e-04 -8.550851101389943905e-04 -1.460176337612893206e-02
1.076406771651156752e-02 -2.636067561751118116e-02 3.653196266823964811e-01 1.462305951050411066e-04 -3.506975037154691364e-05 -1.411795311301960731e-01
7.794498465726052740e-03 -9.875843310035298250e-03 3.640282040117381879e-01 2.985444875915116338e-04 -3.089545175377025909e-04 -1.824527944942246627e-01
2.229036541073705843e-02 -2.409008290487644338e-02 3.645590918360980814e-01 1.759856438442861570e-04 7.579045565845575223e-04 -2.613352813062855273e-01
2.727243628367828979e-02 -3.393445040880628538e-02 3.652744107132520623e-01 -3.112888964290504612e-04 -1.655530416929327218e-04 -1.676531305973638919e-01
2.089451758443800974e-02 -2.378082496431504350e-02 3.649421377285385626e-01 7.285735982917226070e-05 -2.505055170114049213e-04 -1.185211476962022698e-01
3.580376333745054207e-02 -3.064047017423924754e-02 3.651205908621697471e-01 5.494431678588300168e-05 -2.663490827840365506e-04 -3.648085315219972563e-02
1.936648820175582153e-02 -3.619449868618566241e-02 3.646370202035519870e-01 -3.041573009291106389e-05 -8.991339376918904827e-04 1.475298434901043190e-02
-1.474318253075950977e-02 -1.815890614686131374e-02 3.656426291925208849e-01 -1.577747345909250194e-04 2.382178362300999152e-05 -2.449324076169632700e-02
1.450210316058284273e-02 -3.476912213696065762e-02 3.649506122335697267e-01 -1.876983498820678485e-04 9.589721991372444476e-05 2.187244006725938203e-02
4.649891603071645320e-03 -3.103382566309239102e-02 3.646938277940009465e-01 4.164728793531213179e-05 -7.170740206598070349e-04 1.265947166465622720e-01
1.426451485365766610e-02 -1.046377795766052229e-05 3.647381100032702217e-01 -2.847633073988031327e-04 3.251077599082874349e-04 7.526603969486449219e-02
1.952271005116184774e-02 -1.044062178590577164e-02 3.646478841764554391e-01 3.423826106055457424e-04 1.072683960197792210e-03 -2.171876452793856244e-02
3.736338773571169780e-02 -1.935734918686561959e-02 3.651021601802142413e-01 3.038481867175506093e-04 3.107458231076518280e-04 -1.877752318797140385e-01
2.959391340502756304e-02 -8.707566131080179614e-03 3.646552869636207062e-01 -3.495374887733497808e-04 2.695872568460139796e-05 -1.642994674247038600e-01
9.898151656858504219e-03 -6.295519388856373605e-03 3.647217738143378463e-01 -3.326589914611778452e-05 -9.855455193730983457e-04 -1.668283801113552012e-01
2.252521874438200011e-02 -1.326129767550749718e-02 3.640940402323253888e-01 -2.213604941012776284e-05 5.014242358278405342e-04 -1.560135687842460761e-01
1.309069114562952559e-02 -2.596344233087922657e-02 3.649157918304025694e-01 2.215779671919079535e-04 -8.194797247731338890e-04 -5.314135850889264295e-02
2.251417262014389353e-02 -2.917773704131629287e-02 3.654722471294372665e-01 -7.762086240478828058e-05 -1.870347040992234903e-04 4.814372647584789361e-02
-9.382598988651536312e-04 -3.162665443534990600e-02 3.658061887913932053e-01 7.929003085110883950e-05 -7.498367647848223124e-04 1.097809642666360413e-01
2.660281528166054746e-02 -1.986567473222932909e-02 3.654962993659102155e-01 1.068653451015700971e-04 2.850364122811576860e-04 -9.501202947729084358e-02
-1.153778680195217433e-02 1.495637974347800757e-03 3.643496155180080409e-01 -2.527327261221121234e-04 -6.426380583346829592e-04 6.665452873285822311e-02
6.214820434188057276e-03 9.478957787290938700e-03 3.651836149313385516e-01 -2.139754308645638457e-04 5.898791899927344033e-04 4.052558850645898714e-02
6.574413352004837043e-03 3.391763921517883251e-02 3.650501031649362460e-01 -2.606350939708671128e-04 3.551381605290049792e-04 5.123203229552886900e-02
1.549463414598590758e-02 -2.686974208932841040e-03 3.648906957562663145e-01 6.312267022142687518e-04 -3.884773246686108175e-04 -8.990294639105794738e-02
2.106472710503679707e-02 5.258718655251616537e-04 3.647696670003955366e-01 -1.834636748918303231e-05 3.906965962958249472e-04 7.406605222968479230e-02
3.819949728570960767e-02 9.441733956167177449e-03 3.651367074554661696e-01 8.122557313637708499e-05 7.753641661692651545e-04 -2.770805102806135622e-02
4.119324056288597297e-02 -8.078899078678508650e-03 3.652344057160278323e-01 1.727584299049543970e-04 7.449864625473597880e-04 -6.590007492376176446e-02
2.530324953506607466e-02 -5.883259914685820199e-03 3.649205605633135119e-01 -5.532315952502171751e-06 2.990447835922468533e-05 -1.911466260780436133e-01
4.762119453558971705e-02 -1.034633861221682591e-03 3.649456460452681350e-01 -9.049830804024788086e-06 6.763541196149829536e-04 -3.550953805793433116e-01
4.301000025497472151e-02 -3.251179369382968531e-02 3.651153386064484030e-01 2.395772403875643550e-06 -5.978275752822164975e-04 -1.913336096986336110e-01
4.889903759124481636e-02 -1.895230785449596514e-02 3.644270639289346470e-01 -9.971485969396189390e-05 2.101688910967259194e-04 -1.495608098435944888e-01
5.160790346302502468e-02 -6.780502988599775710e-03 3.652586193429711026e-01 -4.008461484245515161e-04 -2.231320428645043629e-04 -1.975501901827668438e-01
5.591139593354410575e-02 -9.500337408503513326e-03 3.646889352478308588e-01 1.039841863894245373e-04 5.625768279768989183e-04 -1.652765042260243844e-01
3.433842573565523693e-02 -1.916762278584491566e-02 3.649369744679387129e-01 -1.048064706024598864e-04 -1.420827043758536232e-03 -1.583097134417319474e-01
2.008713790164998181e-02 -2.078022498315716324e-02 3.653481220414808162e-01 1.723737219756239024e-05 -4.454671316302402997e-04 -1.244604610335804384e-01
3.933931511508201306e-02 -7.940622237896337657e-03 3.650872665967037634e-01 -3.598105094467954579e-05 2.643662713006579741e-04 -1.128110194787764892e-01
4.830276925601256072e-02 -5.146362668098318884e-04 3.646069224506007789e-01 -5.377264685117585583e-04 1.445640528258103482e-03 -1.953473147723800915e-02
7.367325166242673362e-02 2.977123263502324049e-02 3.652774835808717535e-01 -2.363352555618437206e-04 1.414258506694638989e-03 -1.271137270679177367e-01
3.484822698911075461e-02 2.356255746395908429e-03 3.652473307337219532e-01 1.136812579177380817e-04 2.325646856983617703e-04 -5.001428041067920022e-02
6.255480570834077991e-02 -3.260110730065289130e-03 3.647059175937218400e-01 1.476480955375090358e-04 1.741139493068143552e-04 -2.228477037727694815e-02
3.359532215418421786e-02 2.198804726302677238e-03 3.654076088190040261e-01 1.341486669287044152e-05 -1.893137615305000776e-03 5.159310262300206840e-02
1.508374749725784579e-02 -4.450755505341636581e-02 3.650534635116629012e-01 6.402066353076071295e-04 -7.244903846598087227e-04 1.573293741161945480e-01
1.336979655901073330e-02 -2.700000545648318512e-02 3.645876042990476851e-01 2.780074655864874780e-04 -6.808597798765018321e-04 8.698723836278784982e-02
3.120904989001309013e-02 -3.286730607068722582e-02 3.644929288328707662e-01 3.476077679343253903e-04 1.767688850189558518e-04 1.574831162646933742e-03
3.887451255784674792e-02 -4.482639783776767861e-02 3.650675766143394174e-01 5.372259130439388156e-05 9.584776746112998516e-05 -1.105338362996139967e-01
4.762404360852660890e-02 -3.033143543528191502e-02 3.651729164510381098e-01 -3.085670746247809525e-04 5.560277762912017386e-04 -1.373470787530539118e-02
5.297987319781995164e-02 -1.829736726366096647e-02 3.654482607762401525e-01 -1.792266977372202635e-04 2.178344976263674149e-04 -2.091606224391724389e-01
4.341291271913864935e-02 -2.093456301430274627e-02 3.644902302954727280e-01 2.150311521606850884e-04 -6.320553147233453316e-04 -3.191541470712783157e-01
4.709902255043237757e-02 -3.039163436201991128e-02 3.650883995394857973e-01 -5.114471898579412963e-05 3.122912914609785300e-04 -1.489121357073525942e-01
5.420415400180297882e-02 -3.324727889456529500e-02 3.650116777869555351e-01 -7.570878984261190199e-05 -4.484832293175210899e-04 -4.497127969343924642e-03
4.195349200425039365e-02 -4.520624593559414983e-02 3.650700906449118044e-01 6.460305424462272792e-04 -7.165296230995631946e-04 -1.266347380925028285e-02
1.425032367151939441e-02 -4.233515605717338287e-02 3.643421687286515498e-01 2.612157769290035254e-04 -1.347480431175105678e-03 -1.877011891060267543e-02
2.492575296798109005e-02 -2.937416407405936750e-02 3.654221264094468236e-01 4.817689788273837561e-05 -6.223996711395773321e-04 -9.089748025990582875e-03
1.647066729787592318e-02 -2.987070566667593061e-02 3.651814532588161799e-01 2.172667689314601133e-05 -9.010379315758272611e-04 4.413136063621875965e-02
4.330979797498021172e-02 -1.825299053934318141e-02 3.645680398780649645e-01 -1.873101613550115941e-04 4.248665505221056933e-04 7.518189805462440443e-03
3.078897416227487083e-02 -1.305882348130138829e-02 3.652594200731592577e-01 7.063984676286291060e-05 7.314344373956721893e-04 -5.583894326068150615e-02
4.506280465705096716e-02 -2.632109823779659602e-02 3.649083734503922316e-01 -2.770164193332362037e-05 -5.101262930432902371e-05 -6.669662389081475184e-02
4.046610620341403730e-02 -2.587620432371549525e-02 3.646112943408565954e-01 2.235052985546498902e-06 -8.365935590656382436e-04 -3.813382645979076363e-02
2.358546018656767010e-02 -1.684081043497331551e-02 3.656936351515042705e-01 4.479368101910204217e-05 -8.045626235752160798e-04 7.576141700777206875e-03
-7.460603766886191382e-03 -6.486951267678955912e-02 3.642916651145100548e-01 8.799000274378503605e-04 -1.371578031787067803e-03 9.167314529301540116e-02
-4.290427098871386208e-03 -3.404113345288630604e-02 3.647527962491909914e-01 -3.678609907928063788e-04 3.954355083866101781e-04 1.031710118609043686e-01
-8.754291425099737511e-03 -1.340531658549120805e-02 3.653032260577522283e-01 -2.583951379572796284e-04 5.446917452295683016e-04 1.077557323312691717e-02
2.357848121279995310e-02 -9.689054882574975672e-03 3.650019656393687084e-01 -1.625218444819541712e-04 1.441381647581756490e-03 -3.512506435442810243e-02
3.797834495572397634e-02 2.039968902742264611e-02 3.646500111198707206e-01 -6.224779875985223540e-04 -4.729062775559075127e-05 -6.860066095735734004e-02
3.194719822467363690e-02 6.396830378474886898e-03 3.656610815946621518e-01 8.452802756833982403e-05 2.221658418824208779e-05 -1.761269456839243686e-01
4.094589778096115879e-02 7.612123569847212105e-03 3.648539732084543630e-01 6.705854481418796616e-05 9.530392979836760446e-05 -1.910984540971421008e-01
2.816522667949390366e-02 -9.833064930614974705e-03 3.650668044388352129e-01 1.568515605599212685e-04 -1.580872918695701854e-04 -1.192799737904201157e-01
1.794463418141304181e-02 -1.702048637959249072e-02 3.651622764796227383e-01 7.824320966275067832e-05 -3.008809013109037318e-05 -2.147993325091797912e-01
4.753544198538339760e-02 1.286938934336842328e-03 3.651906246170978365e-01 -6.089212140359096621e-04 1.638292807320712629e-03 -1.913891533526861366e-01
3.849356791521651999e-02 1.009678771279524587e-02 3.658125429675532225e-01 -3.523848407898846750e-04 3.609742221668702585e-04 -1.727360730313199921e-01
3.698814348655145995e-02 -1.340019889441427864e-03 3.647145640911375053e-01 2.947153053101718651e-04 -4.674039631577014053e-04 -1.772143306154559672e-01
3.141417355209968204e-02 2.188962231879144926e-05 3.651123258606405741e-01 -1.520200357526300212e-04 2.758211681885412605e-04 -3.886925215681941159e-02
2.365040610280303920e-02 -2.034365108137837705e-02 3.651589179163922672e-01 2.760962399236354639e-04 -7.389821006585333817e-04 -6.835074350773054364e-02
3.948681619851097425e-03 -4.347933149072550491e-02 3.650242299637719845e-01 5.158020892202981340e-04 -9.070265549479357078e-04 2.186257801037626985e-02
2.615686614528529939e-03 -4.777626768238615179e-02 3.651236283127123894e-01 2.345113100650150773e-04 -1.703528386319738133e-04 2.878389645676904945e-02
2.462316762579631890e-02 -2.210995845499236570e-02 3.649919603294327075e-01 7.792607533541717052e-05 -2.983573822009992190e-04 -8.381348366430982355e-02
3.641254871172661806e-02 -3.480329683547747632e-02 3.644774662564270185e-01 1.445730315530882127e-04 -3.392025745965250192e-04 -2.330177316227614523e-02
2.999668946857914770e-02 2.318943044890233417e-03 3.645404602213685452e-01 -3.338034234255918189e-04 -2.908344904698622214e-04 -2.177747359420098908e-02
2.816804471390220790e-02 9.247870486616955113e-03 3.656925734962985786e-01 2.228717553608038277e-04 -7.524933520189897159e-04 -5.709942638411374255e-02
3.904446866841252556e-02 -2.600065334961064803e-02 3.651784937262128050e-01 5.525065977259361553e-04 2.393746064160976914e-04 -6.832507860213977990e-02
4.694816396424932731e-02 -3.980510644944187937e-02 3.651740919865142931e-01 3.379464405882341834e-04 6.503615732123066298e-04 -7.321678860201534522e-02
7.390110118666136374e-02 -1.170522144478894355e-03 3.652250943658680304e-01 -7.005413245915972529e-04 1.432857103152637419e-04 -2.003555924716612369e-01
5.383233313569489586e-02 -1.783719831089442334e-02 3.650042273467962728e-01 -7.128382356748625001e-05 4.802363855141989477e-04 -1.076492146572398112e-01
2.692133359409171894e-02 -5.313213325539603744e-03 3.648439735776213277e-01 -1.066320638070459691e-04 -1.576483665341224495e-04 -6.689598139669138133e-02
3.711153377913674334e-02 4.072305363267202799e-02 3.651308281150247304e-01 -4.847259816121473382e-04 -3.401920750406957827e-04 -2.375811687927464055e-01
8.935170574464221943e-03 2.023438334190456184e-02 3.651707761923865814e-01 1.425612895501240094e-04 6.253547683875253498e-05 -1.099213033001829598e-01
9.914309372419272126e-03 2.381945845706067572e-03 3.643835346585844182e-01 3.230854134630069155e-04 -2.201489878933550449e-04 -1.536010525297298313e-01
9.381701599026402369e-03 -9.054427990928745618e-03 3.650896373048967414e-01 6.518049029459219395e-05 -4.697953988197915470e-04 -1.426368962605876756e-01
1.779732837246006741e-02 -9.985525855603081744e-03 3.652445104922532604e-01 -7.382185278855094056e-05 3.233332226751736314e-04 -1.825754312438279126e-01
1.749154151515805444e-02 -7.313402961850281811e-03 3.653285527501324292e-01 -3.021482908200643004e-05 2.292489437483311769e-04 -2.153147654681896173e-01
3.990191859678191705e-02 -1.634234043065821082e-02 3.657078607465858999e-01 -1.196513231057201883e-05 4.806971818550602894e-04 -1.608634667273137475e-01
2.764347223836826489e-02 -1.818394725650459079e-02 3.649742737572675422e-01 3.667404332416365515e-05 -5.971082720686545550e-04 7.814164818170101293e-03
2.328355937432803613e-02 -2.010909544079649003e-02 3.648388352827600656e-01 1.467236146550182597e-04 -1.040721606819114365e-03 4.311990533953969501e-02
2.621174718699159287e-02 1.024847358572168569e-02 3.655795177376441885e-01 -3.927333390954799758e-04 8.449742355414073059e-04 -2.377817018343132954e-03
4.407618115925985430e-02 -3.884477041891480631e-03 3.645917594753952384e-01 3.166613804263279002e-06 7.128283166838906854e-04 -1.134021352985593450e-01
2.517018635179927438e-02 -9.241527296048334967e-04 3.650468288067706402e-01 -1.230493877594153365e-04 -4.007164904003746768e-04 -2.283376955013192711e-01
2.148593625358453246e-02 -2.526478151902723096e-02 3.642015154823785572e-01 4.927402732037617803e-04 -1.009712620263147686e-04 -9.778347180593691124e-02
2.081637916499561383e-02 -2.824458558181942164e-02 3.649124511690541306e-01 8.211398627977202318e-05 1.409217548338482194e-04 -2.034146352634168611e-02
2.846762044452389936e-02 -9.919971860416357604e-03 3.649903415594611955e-01 3.126944265129686452e-05 3.742671436343292159e-04 -1.453949545638007906e-02
4.581762999256514847e-03 -2.159185840836231121e-02 3.647886650731140823e-01 5.060282425971451999e-05 -7.625040656431970442e-04 2.347497500563491477e-02
5.035453224741329170e-02 -1.432343820073154160e-02 3.655914873764111728e-01 4.644444228642016629e-05 1.195277740140216058e-03 -8.189674491121476385e-02
3.765372128563931192e-02 -1.361642372991982673e-02 3.652263452283137646e-01 -2.552148007750480773e-04 1.436274916475887013e-04 -1.284105669369116909e-01
4.996314348657129867e-02 -1.499009991287096437e-02 3.652900886789408608e-01 -6.624935196162940582e-05 5.532504342696826366e-04 -2.718026062958933675e-01
4.776860901808191451e-02 -1.255672106316959441e-02 3.653921098252703725e-01 -5.659086115787107868e-05 4.893974868065277400e-07 -1.392331547954452908e-01
2.862551286720024443e-02 -1.807283407109982337e-02 3.655701145820301479e-01 4.478160220767576547e-05 -4.783477202911046535e-04 -2.187608904032379512e-03
2.355477340437374043e-02 -1.561422102294639236e-02 3.645260261267276314e-01 5.305607901933099372e-06 -9.342333082856858501e-04 7.847052163322872087e-02
5.209768444449960206e-02 1.910270704048427221e-02 3.654151169383574871e-01 -3.941810787348619589e-04 9.338567684844455109e-04 -9.996994908494825915e-02
2.938247199220070036e-02 1.030214061961876818e-03 3.659278212209980952e-01 1.414230788054554112e-04 -1.281184523752664872e-04 -2.650583452719761923e-01
4.873933149851941704e-02 -1.110647431628136901e-02 3.646322277041115223e-01 -7.412696705534316765e-05 8.513971832878508463e-05 -8.284802857344744642e-02
3.028259356226046736e-02 -1.067965012130970420e-02 3.648320377421331306e-01 -5.294447672327405640e-05 4.087665913263752041e-04 -2.972349417638635027e-01
3.439584279192718641e-02 -1.239123740914844021e-02 3.653338483868278641e-01 -1.224449490467258183e-04 6.466569346951291401e-04 -9.951079680428440155e-02
2.082641180729510877e-02 -3.951275880259327855e-03 3.651992944534020458e-01 -1.791648363970442016e-04 -3.658794641987578268e-04 2.037576688031909194e-02
9.973907808251126356e-03 -4.056726810186739828e-03 3.644300850437773298e-01 9.112928605859754630e-05 -1.278156913934249371e-03 7.769254239451252320e-02
1.217220624030569340e-02 -2.624012893361855198e-03 3.654885004694485851e-01 2.531289584420645168e-04 8.197730009113705744e-04 1.293717268823586786e-01
1.758710434390193048e-02 -1.560634221278286299e-02 3.651014734448247978e-01 4.525380283376306866e-04 -1.937594276084568892e-04 7.446461031296618648e-03
-2.870979534896962726e-03 -3.063532944884684792e-02 3.646358814231266954e-01 9.622096127331372618e-05 -6.721490612488873959e-04 -5.992921642433005069e-02
-7.610150540278169846e-03 -4.311628894217789192e-04 3.654822748746558991e-01 -3.150760672815673246e-04 -2.517243770327591658e-06 -1.611794395625862908e-01
1.008462069026706777e-03 -3.048996397048105156e-02 3.651336582131233799e-01 2.741628901340550627e-05 1.199762832377173694e-04 -1.603207677788000829e-01
-1.388705682890213275e-02 -1.331218151233025046e-02 3.660788000226148364e-01 1.587936833054049432e-04 -4.672242015084144716e-04 -1.047032406773372171e-01
2.776676034103962333e-03 -2.515697971659518195e-02 3.644138181216306505e-01 3.628110788532518561e-05 -3.360676016269027624e-04 -2.268283541611995913e-01
1.259118750456497335e-02 -3.536860290448409078e-02 3.649453993985882216e-01 -6.812453050411789758e-04 -9.834515256669370490e-04 -2.445247096022315769e-01
1.939598465691581841e-02 -9.439429565219372223e-03 3.657679466138764601e-01 2.250258321182210428e-04 2.013591961681613588e-03 -2.232578034734528094e-01
1.394613722833056707e-02 -3.672672373781894761e-02 3.649627113640063758e-01 4.800984685766171065e-04 -5.546339981426043906e-04 -3.523810830788626780e-01
7.560382806186029432e-03 -5.042182588263535714e-02 3.645533001728059608e-01 1.510757669762124663e-04 5.680861984286169437e-04 -1.257963607916645077e-01
1.076236796132881571e-03 -3.047444462791028610e-02 3.650180661521842951e-01 2.110852506227119173e-04 1.480506686006989960e-04 -7.489530869118676826e-02
3.838497345056099408e-02 -2.269152687966346019e-02 3.646268761565311101e-01 3.295591511511805410e-05 3.606315549856930190e-04 -7.611809551241351807e-03
-2.309729689819458448e-02 -4.597632870680314066e-02 3.646657184805088825e-01 1.060311177381296452e-04 -5.492292374366369032e-04 5.713408703190280685e-02
2.504752607392521022e-02 -2.055044882947775625e-02 3.648517870123095808e-01 -2.014168843630766094e-04 1.229268852595448609e-03 -1.102230757292140678e-02
5.092610429583772913e-02 -3.002897115944939271e-02 3.654094160394090185e-01 9.419977467378277958e-04 -8.125710337421776681e-04 -1.257746388874574767e-02
5.658230092184282634e-02 -1.746624863811305217e-02 3.653744674159890016e-01 -5.477880127119032607e-04 -4.528085957631869038e-04 -3.667164404910409209e-02
5.592605839262982520e-02 3.639222011380213034e-02 3.655451838124785802e-01 -1.224646216630596082e-03 -7.675696091957346658e-05 6.887165857409884018e-02
4.268098414102688976e-02 -1.645777146487699405e-02 3.650491784414565677e-01 1.530476574001670429e-03 -1.144334752076895875e-03 8.725467961236468839e-02
3.375284091500157374e-02 -1.574866947192877370e-02 3.651614808490070141e-01 -4.575052934557700241e-05 -2.915635064858311185e-03 -1.899909562771800453e-01
1.085569702085956850e-02 1.998495841466317938e-02 3.652130128030655065e-01 -5.995503181802541888e-04 4.400947326520954911e-04 -1.215400454566952781e-01
-2.245080791782536056e-02 3.601920545030757453e-02 3.655948883144666262e-01 1.585112860020718661e-04 2.205331801353103385e-04 -1.076406506316988365e-01
-3.667490424385567299e-02 1.395475629701237175e-02 3.660637047828592117e-01 -9.126154236500070866e-05 4.669062671070095300e-04 -6.733679595345835878e-02
-4.823141571309716436e-02 2.007914403729980576e-02 3.649827934382788297e-01 1.444576215693620233e-04 5.309388447230703597e-04 -9.012361860380882495e-02
-2.047567469261109621e-02 1.416138735828133960e-02 3.646768652592374815e-01 4.497455923290733068e-04 6.392498487442243617e-04 2.396579431643135888e-02
-3.966660187881351080e-02 6.840612732953818553e-02 3.651838911606608562e-01 -1.061305517341920622e-03 -1.270538046405612952e-03 -1.839923967406202898e-01
-3.731343754061006851e-02 7.619424989021157668e-02 3.654953925242197532e-01 -1.658228270159419447e-03 -2.546937763337802567e-04 -1.134984556201147216e-01
-2.703403789511055894e-02 6.358244996923426151e-02 3.647208446519911718e-01 -1.023716349939477171e-03 6.270822228266540848e-06 -1.072898744382741291e-02
-1.166110470540663614e-02 3.120325175990153882e-02 3.643162363812300075e-01 1.361233777182182213e-03 8.631864514819678584e-04 -6.255115249195332405e-02
-5.679654076246218319e-02 -2.525667783649537725e-03 3.639543911132065990e-01 -1.956295000408873712e-03 -2.472738943611810149e-03 4.044824678213709140e-02
-5.057396644159749960e-02 4.594137274464254322e-02 3.643634037895894240e-01 -3.112972343168121940e-04 1.881541043823932577e-03 -5.557306188186120210e-02
-3.797395763764826321e-02 2.912142949440978471e-02 3.653592844872263212e-01 -1.471006336339164653e-04 6.030756149346306363e-05 -1.277804742822307715e-01
-7.052377230893140669e-02 3.919433531250605257e-02 3.653271158872170021e-01 2.701408120285598300e-04 -2.469013700885044926e-04 -1.834811958525042752e-01
-3.882096538786684869e-02 3.327013846364185179e-02 3.638237403292037264e-01 5.163427868935195663e-04 3.098537554468801442e-04 -6.199751110073813826e-02
-4.759689452277852430e-03 1.455985075531399976e-02 3.658156142628288809e-01 8.290227573546861048e-05 5.714755135178017399e-04 -7.823178392234014789e-02
-6.082448951637794282e-02 2.377257891770133413e-02 3.653483482786279990e-01 -3.462863190704783289e-04 -2.154591959268587712e-03 -9.118517170286162543e-02
-5.011989774730211261e-02 3.639081643722744813e-02 3.646550985253057542e-01 -3.787310961721001667e-04 7.010502139239035936e-04 -6.417138483999638987e-02
-2.486734900685478797e-02 6.524861577537888202e-02 3.664151275860095813e-01 -1.224895421963187415e-03 1.167720188725569807e-03 -5.699249741456724472e-02
-6.290917328829324050e-03 4.409520731678774619e-02 3.651808215495343513e-01 5.697662663992524360e-05 1.181638458577109410e-04 -1.500449456844206997e-01
-7.414559892535961191e-03 5.446793821034104366e-02 3.648562154130086110e-01 1.054070914535818077e-05 -7.171254396920118471e-04 -1.073399144099332903e-01
2.686032067349641578e-03 5.573858091199431625e-02 3.649176093220027894e-01 3.939307546289424144e-05 -2.015276611167416028e-04 -2.150807581257621268e-02
9.727672249076006056e-03 2.556342833592959579e-02 3.646567855268287306e-01 6.749883534694376753e-05 1.142165082642766869e-04 -1.218336740028782075e-02
1.103240199094098449e-02 5.771863007012202618e-02 3.649085154004216847e-01 2.253666417976120276e-04 2.754156447911333466e-04 -2.158439520589374161e-01
1.071696975208163288e-02 8.525983735334449753e-02 3.644623204378183989e-01 -1.018227886356512946e-03 3.671937287421339044e-05 -2.198181431367224881e-01
2.203588766993947248e-02 7.599933794650372276e-02 3.643345560345114809e-01 1.098809710917978202e-03 1.300658438720706466e-04 -3.585323610653395887e-01
1.938727846343966943e-02 3.872880828694867661e-02 3.642174357641160265e-01 1.387628545531557553e-03 -4.149093387270060061e-04 -1.868785020934644880e-01
1.184532599024555599e-02 1.559073953319851935e-02 3.646059547011990531e-01 2.650736080710855641e-04 2.202133994546972662e-04 -2.315235487736498621e-01
-9.743781397384765688e-03 4.486888696182902850e-04 3.639583242705737298e-01 4.161013452810765636e-04 -1.959242033227193548e-04 -2.347795616645420858e-01
8.013344175960529503e-03 2.729922977314233265e-02 3.639691934118171046e-01 4.591769197959402553e-04 -1.152616323124458367e-03 -1.126782485913241927e-01
5.883224190527461261e-03 1.301246755078916059e-02 3.652129504765673218e-01 5.912145956431892396e-05 1.020494110966593164e-04 -9.729445502002251334e-02
-1.441731666862104341e-02 4.518650208157158621e-02 3.643652375765918938e-01 -3.612073586439015229e-04 1.370431236702409814e-04 -1.275167719120859078e-01
-1.382563815158513454e-03 2.999953496746041171e-02 3.639957911414823943e-01 2.784496132079382065e-04 -3.026788743437648882e-04 -5.050539736170661653e-02
-2.508602529603989884e-02 7.998821741216562142e-02 3.649081909434290782e-01 -7.590125978984597899e-04 9.669555771091165454e-05 -2.466396455191304793e-01
6.862099007496908886e-04 1.248875409995617025e-01 3.647601836233087536e-01 -1.028350585903608106e-03 5.871562465338493525e-04 -2.588986989305318009e-01
-1.884748924288853419e-02 1.014594465959693798e-01 3.640493271348623772e-01 1.425167393671707074e-04 -1.022092645398608741e-03 -3.865282562576217995e-02
-5.031979614309214227e-02 8.683173387600695570e-02 3.651058605881968844e-01 2.514254939094543503e-04 4.917546959423885243e-04 6.971112945694871166e-02
-3.161469483245635953e-02 1.041475537665884354e-01 3.644518243791491363e-01 1.918038637752255738e-04 -1.995208370166795054e-04 4.553915177020216587e-03
-9.809261767338605525e-03 1.139638945076168891e-01 3.647610988529476073e-01 -1.352321425494521368e-04 -2.947379704415157279e-05 -3.964094515763084969e-02
-4.270155738381571642e-02 1.159154323788267743e-01 3.659845632207860966e-01 5.533809405826048758e-04 3.204170363845936669e-04 -4.794443636422287408e-02
-7.144134404541013783e-02 9.576162452344588738e-02 3.648423215904338934e-01 -3.252568815075556073e-05 -5.396771031286795497e-04 -1.211006544157724879e-01
-4.363887504310628995e-02 1.283270567977461973e-01 3.649179089721370506e-01 -4.867726813130397387e-04 -3.148844738222693731e-04 -1.141565235417929952e-01
-1.015303841740733543e-01 1.393428345047244832e-01 3.644962375981261049e-01 -6.274600269948980022e-04 -2.615399169528172013e-04 -1.334390757445419740e-01
-8.186773485644767423e-02 1.666638335007251392e-01 3.648654175783316855e-01 -1.684212668504999819e-04 -1.769017582397002810e-04 -2.466775750436339676e-01
-8.126211981391273653e-02 1.571296760870084241e-01 3.646219730564907446e-01 4.449107796227626770e-06 2.787093026333824154e-04 5.971037200753658708e-03
-6.415955540740642116e-02 1.024727309609450160e-01 3.654790424258078652e-01 9.194743146205139805e-04 3.151115547780538716e-04 -2.633104886068034570e-02
-4.362805917053735189e-02 9.134670758343746422e-02 3.655443356662488874e-01 -4.478534348589945807e-04 1.311093693201515495e-04 -6.320299046460370329e-02
-6.437305841150942065e-02 9.177085838954111841e-02 3.650291731978362320e-01 2.674073723087828867e-05 7.412262698701705841e-04 -1.579101670133014890e-01
-2.620289632062873172e-02 1.107820167627140001e-01 3.656904365875589535e-01 5.276783378179932498e-05 -3.303012873464067811e-05 -3.715176336746540270e-02
-3.771891120722301038e-02 1.280675576120682002e-01 3.653697257127310749e-01 3.816653908282540363e-05 4.128777511562476874e-04 3.416346470231451660e-02
-3.246497511883161130e-02 1.431371902055967871e-01 3.664768112355731855e-01 -5.755482523656046772e-05 1.227549833348860926e-03 -2.878839142056403974e-04
-4.909286295143240608e-02 8.725359029104376440e-02 3.651837983269016763e-01 -1.167949858296772571e-04 -1.017267569141971700e-03 9.499270319630011283e-02
-6.952800510948761725e-02 6.394234589700049931e-02 3.640097394448612578e-01 4.978969234133237293e-04 -1.062320028900711312e-03 1.005016098005008934e-01
-5.179395372973308320e-02 9.550127196845090150e-02 3.645855188978792683e-01 -1.376830523222904567e-03 -5.561472559060934078e-04 2.200540629229214267e-03
1.444058238102206848e-02 6.984218861698471281e-02 3.657620625491376787e-01 1.412510609057742242e-03 1.654823779031094986e-03 1.955614044721849451e-02
4.059663719789614227e-04 4.326395827910876207e-02 3.658524487135910164e-01 -2.452368527805417879e-04 7.173339717885176148e-04 -4.514990099935720785e-02
-2.183192700289286227e-03 4.326485807863415106e-02 3.643899768955294882e-01 1.291990995317267429e-03 -1.925990011391865786e-03 -6.997595875580267522e-02
1.574474141228267635e-02 4.920888251399312130e-02 3.649476076500425270e-01 -9.719204434977167734e-04 -7.205900661369449983e-04 -1.532380480574271620e-01
-9.750864581370361286e-03 4.625580976748390472e-02 3.653881472547107490e-01 -2.736560890916516419e-04 -7.787062952414799131e-04 -1.729341733576313100e-01
-2.374489984445852034e-02 5.690350106113799267e-02 3.653067060698335089e-01 6.452331986941633839e-04 1.492049851465901324e-03 -2.128105370646516392e-01
-3.838620278562707849e-02 3.888974316609496162e-02 3.653508896978316933e-01 7.084677750831319047e-05 -1.513485820192899236e-03 -9.735678212673612442e-02
-1.020041915191025744e-02 2.194487349866193135e-02 3.643561524360691140e-01 5.433331593722512192e-05 -7.935839965840053910e-05 -1.900725153423283853e-01
2.745238168627649883e-02 8.414207509042201383e-02 3.650453412353823479e-01 -5.623376688440090334e-04 -6.831514694078888667e-04 3.834505163088557794e-02
-9.651595696715279879e-03 6.255080243844167442e-02 3.643284590862208017e-01 -3.386517068243596559e-04 -3.895199334709264638e-06 6.347816981496906541e-02
-3.363295375257032566e-02 5.988733393838877733e-02 3.644979098337853829e-01 1.875631053131186109e-05 -1.022527376042876163e-03 -9.128983939134188708e-02
-7.781563276419578568e-02 7.073518427913240425e-02 3.650481956114469129e-01 -9.650142348442752524e-04 -9.989332132459404628e-04 -6.671917321631218312e-02
-5.984582040224788874e-02 7.596928689002367674e-02 3.649013130540663119e-01 4.992133573795391353e-04 -1.620749078714472978e-04 -2.536761604307127133e-02
-2.905232603684009332e-02 1.216548880163230567e-01 3.647883188732362614e-01 -5.825550943319880845e-04 4.993672829336621944e-04 -1.152223852567417495e-01
-2.656756938141287619e-02 1.154042313958484056e-01 3.649934655266944272e-01 1.308375455379332660e-05 -2.971580112156446273e-04 -2.006939231113848143e-01
-5.991128844591440961e-02 1.105179377093715720e-01 3.642359622746363379e-01 -2.902354993012092803e-04 -1.294070705320229117e-03 -1.465107733705757753e-01
-5.935482130908013854e-02 9.384714756036247052e-02 3.657505014108803354e-01 4.761832800790170308e-04 -1.136349211275711131e-04 -2.337269003009635471e-01
