-2.060956732950498249e-01 6.449595862460779649e-01 2.091059705594637830e-01 -2.147120771844829128e-04 5.877447574594411601e-04 -4.482744837406449356e-01
-1.169683558548511582e-01 6.523387736236774259e-01 2.088297452516449937e-01 7.615607902814358794e-04 1.105339521663511104e-03 -3.792207475756279034e-01
-1.275492359452677915e-01 5.158679111568901243e-01 2.089722711413078970e-01 1.342046511607050728e-03 3.983083081202409598e-04 -3.633009140105601942e-01
-2.367910394581345668e-01 3.386102554418273236e-01 2.092133445371217593e-01 3.325928256570516699e-04 -8.661942156174008136e-04 -3.538780784717648342e-01
-7.896860961345214536e-02 2.484710801842800187e-01 2.098634936318604649e-01 -4.014408353935086876e-04 -1.152978903943727113e-04 -4.160374589468939788e-01
4.807479082926568309e-03 2.525539914373124417e-01 2.089774587990292920e-01 7.756049869071739806e-04 4.944201015906081855e-04 -4.927844815386412392e-01
-1.935125453446479016e-02 1.925903718393822128e-01 2.103914068172541563e-01 1.506413519245132973e-05 -2.494743944376685797e-04 -4.702114812079012385e-01
7.714514801572422420e-02 3.918158032858665707e-01 2.091628317525276448e-01 2.837671161319641074e-04 3.284341221474106282e-04 -3.586110085668547942e-01
3.518809014126815515e-02 3.522879854129791766e-01 2.105288983435639749e-01 1.225497436356430894e-04 -3.899375803212555992e-04 -2.039881302710989108e-01
-9.059360619141768045e-02 3.475393962948949422e-01 2.105446346728732099e-01 -1.685361604706656297e-03 -2.854973490558828601e-03 -3.232530578479245187e-01
-2.312523725352280402e-01 4.292311081584647692e-01 2.095409505745876033e-01 5.386883610849773783e-05 -2.076963546407304632e-03 -3.864017951005443985e-01
-2.517606072171308940e-01 4.092361521293599314e-01 2.099513786637865476e-01 -6.353169770009103736e-06 -1.787848743524914248e-03 -2.183438509964186758e-01
-2.877896454144278082e-01 3.712303568971525580e-01 2.092804054712115169e-01 2.207908635452199286e-04 -1.937722966277367160e-03 -4.133663151266571689e-01
-2.097621759098639294e-01 4.061367068734959007e-01 2.091747814545113493e-01 3.762319325052545290e-04 -3.752492938349810572e-04 -4.037053071113470004e-01
-1.746921984946438189e-01 3.208920725071147118e-01 2.093217836500947393e-01 1.321069804114914105e-04 -2.337034791359346528e-03 -3.515435654368039287e-01
-4.936130086402308603e-02 2.903708197416330350e-01 2.095359128639720514e-01 -5.362614317609143552e-04 -1.442765549402416940e-03 -3.912902770569453570e-01
-9.433167546629511735e-02 4.135198146151002341e-01 2.092435585538635623e-01 1.691369266367652186e-03 -2.306711048448315156e-03 -4.712150962396090548e-01
-7.815776835621998653e-02 4.130455034485825405e-01 2.096509289644846730e-01 5.777791942396488323e-04 -1.882373377113341541e-03 -5.336310270043047588e-01
-3.612736154980859815e-02 4.000197575701506247e-01 2.100083831375334498e-01 -4.436654395457321972e-05 -8.551524633501777529e-04 -4.287889768745382080e-01
-6.677126637784884522e-02 3.862341443677038133e-01 2.092776341773813220e-01 -3.512969235253525654e-04 -4.064069584457276211e-05 -5.469089657282756312e-01
-6.485908051137027897e-02 6.557463489803437851e-01 2.099254989783276293e-01 -2.211842356406838880e-04 2.313545366634923940e-04 -4.597579533894561310e-01
-2.775166392807882146e-02 5.163022863902131387e-01 2.094313966508085656e-01 -7.344025569525549236e-04 5.770803200175751539e-04 -2.234790343662894085e-01
-7.972155379515274976e-02 5.953880793434074281e-01 2.101053437137583302e-01 -6.520103117513919135e-04 5.133002621817772193e-04 -1.177487634337052169e-01
-2.787846165808489651e-01 5.509275963543612820e-01 2.092782325657101539e-01 -3.202508562978708046e-05 4.164819748839339547e-04 -3.377785058640922489e-01
-3.474214043020942277e-01 4.728908647620699290e-01 2.099466867706714091e-01 -1.304974963032814116e-04 9.624414835811015640e-04 -4.625027039870904799e-01
-3.445125120740266111e-01 3.948202907364141145e-01 2.090288946371648970e-01 -8.442484386673493237e-04 2.904941529372967197e-03 -5.611143302349470563e-01
-3.367390165650978040e-01 4.617130169835232389e-01 2.097637565772936807e-01 1.163804705743295780e-04 2.089156918490678045e-03 -7.918981900606634206e-01
-2.920025241786921577e-01 4.769807506409232678e-01 2.091304015446573406e-01 6.605574013636984461e-04 2.137745248703565477e-03 -6.689593338145778390e-01
-3.313919576579865134e-01 6.157557387878690447e-01 2.086236439910154061e-01 2.746435618000050960e-04 -1.056140134120917831e-03 -1.840675460710630706e-01
-4.684103952874686949e-01 4.779899464401629050e-01 2.097241426726763058e-01 6.051412262393863546e-05 -1.806053147771983895e-04 -4.050762392022973502e-01
-3.952797122497632709e-01 4.416460578345954291e-01 2.087491777637071055e-01 7.988763219634955910e-04 7.508564872541180707e-04 -3.567287502290075185e-01
-4.007141415442578847e-01 2.674515960709878959e-01 2.093628054519677817e-01 1.839918762256050012e-03 2.310760426307322153e-03 -2.927933899330212308e-01
-2.487210704078757495e-01 5.155359337452842805e-01 2.093791553371179837e-01 -4.534502008568908971e-04 2.081075466604290734e-03 -5.867032406770145148e-01
-2.057015366511318055e-02 6.523912078165399198e-01 2.096173305767343176e-01 3.495814429783255834e-04 2.142127499579338148e-03 -5.871728215124268901e-01
6.660990741413248817e-02 5.633444448628350809e-01 2.086687552727304329e-01 3.343980937699156798e-04 3.504462679676956498e-03 -5.883696596853914551e-01
8.415083527898802040e-02 5.740140152682099428e-01 2.085309199608457731e-01 -2.205929830903674452e-04 1.509762087225486379e-03 -7.003652223197254223e-01
2.012757970805039709e-01 5.365042781067528299e-01 2.097991102683703923e-01 2.395061172220394824e-04 9.950238357960732374e-04 -4.065284001540676040e-01
1.929102192389283710e-01 5.171847093050616628e-01 2.091735636815097443e-01 -2.582708423944993768e-04 4.025886115831104370e-04 -4.661441833917139843e-01
1.537505982368471136e-01 4.813162853440715039e-01 2.103039814881467739e-01 -4.388512865450984977e-04 -1.628825120127530947e-04 -4.328930754967569849e-01
8.763074448555627227e-02 4.658365099085894911e-01 2.098146510797077036e-01 3.114917650605870969e-04 -3.449744383577366732e-04 -5.636205399185861831e-01
6.074554274631779188e-02 5.020329827290118674e-01 2.097199699526731131e-01 1.147339300570683184e-03 -1.910321841692315869e-03 -4.975326929456674874e-01
-1.807456889244555415e-02 4.984389775402702227e-01 2.100072988240029304e-01 -2.427803405023437448e-04 -6.693518021915612201e-04 -4.846988272622538840e-01
-6.369819145038058128e-02 5.927736996546435488e-01 2.092900302232702514e-01 -2.496262897106417866e-04 -3.496818611599043607e-04 -6.000593199377101117e-01
-5.835440757236147469e-02 6.190487970844164023e-01 2.087281520679423741e-01 -3.685018292776475021e-04 -3.287336863244441068e-04 -6.335319007109823097e-01
2.180465959706833282e-02 5.800696692374720520e-01 2.096339804504848692e-01 6.983631884672312096e-04 9.569369779975997079e-05 -5.327005649120383213e-01
-2.695149915189539586e-02 5.124442110674027884e-01 2.091254854843229705e-01 2.553139941474260157e-04 -9.219776585632617977e-04 -5.363581223460246461e-01
2.576026819853291516e-02 6.449565968060063659e-01 2.103492277095692087e-01 -1.841215701114356455e-03 -2.877666322791676279e-03 -7.230979861297228695e-01
5.386737227217898438e-02 5.534992426013600753e-01 2.089582134097341393e-01 1.680522431927353091e-03 2.610160812408225586e-03 -6.833349986129088061e-01
9.583161434542976365e-02 5.723895880143671233e-01 2.099399612744409227e-01 6.030796124855465103e-04 4.646629799265830380e-04 -7.278148892168619932e-01
1.456086875086532451e-01 5.337986070044005160e-01 2.095337082813453211e-01 4.347173975711560829e-05 7.337258533096541234e-04 -5.686507649353882421e-01
3.024863544001435423e-02 4.537297819317180347e-01 2.081049148264282889e-01 2.343903689561014671e-04 -2.884497053219632449e-03 -5.267212342463404307e-01
-3.278512781716783064e-02 5.231732364185726070e-01 2.097429152893278692e-01 -6.380522587361122430e-04 -5.142441224682757191e-04 -7.929860251202103250e-01
2.778356577128059807e-02 5.401009807054977241e-01 2.090053153875855996e-01 -1.055819199684207696e-03 1.472585568933405375e-03 -5.728180407205024638e-01
-3.164695548433469480e-02 6.097492849595126385e-01 2.088320050911520731e-01 -1.250450468168726181e-03 -5.855664584010065359e-04 -5.399506320390652370e-01
-1.250994257063041681e-01 5.602508095409610700e-01 2.098352903238416833e-01 9.238714551044104745e-04 -9.628902737367007244e-04 -5.204842175169633878e-01
-1.246466424470472623e-01 6.815101365647310283e-01 2.093339158966849300e-01 1.765507846191622125e-03 2.493682976364724091e-04 -1.752145875772819494e-01
-1.030720964980031407e-01 6.632971762738496535e-01 2.087576244031335571e-01 1.074374831653799602e-04 6.382593855381801188e-04 -6.380542388814045007e-02
-9.398528670668224172e-02 7.326390798321954501e-01 2.105456356514837091e-01 -2.214012759701056848e-03 -1.285706687178447567e-03 -2.693420747594089670e-01
-7.211280135836597993e-02 6.283538506092788412e-01 2.093852782811754798e-01 1.811717657814311067e-03 -1.348714800898430464e-03 -2.015733428420663220e-01
-1.580001050536247453e-01 6.808059843413083456e-01 2.094098502105680160e-01 -4.257837418713403786e-03 -2.185807881865700804e-03 -2.658786009569263920e-01
-9.970230516905999318e-02 6.200479993971994563e-01 2.102388914958398525e-01 1.059369354175723581e-03 -4.062253081258784576e-04 -3.205525340541823809e-01
-9.127945296384737395e-02 6.032579859823876678e-01 2.093143022771390971e-01 3.999877574047781955e-04 -5.303248291376848203e-04 -4.641024847587778002e-01
-6.521685922963896265e-02 6.696996240481583040e-01 2.091824388515425293e-01 -6.946476285614530276e-05 -4.820608038741577129e-05 -5.039836892058663365e-01
-1.322921328529310346e-02 6.598148884055025087e-01 2.096400634102775218e-01 -1.017199122823735221e-03 3.481420568398888764e-04 -5.441607137642564540e-01
-3.272576764274704592e-02 7.351991942930150570e-01 2.096320128067358235e-01 -6.324937490636188889e-03 -1.163664232787025568e-03 -4.875374526140385245e-01
4.436128826830956773e-02 8.451228917065770618e-01 2.095974595262959372e-01 -3.526232500323280006e-04 2.420840173043154950e-03 -4.952840795964041365e-01
3.337345339950531509e-02 9.884314177333360929e-01 2.089106387532079778e-01 -1.386975378825244755e-03 1.073825953793668001e-03 -6.189942783005999427e-01
-4.023841652171092353e-02 9.471582012027509601e-01 2.081363161795886652e-01 1.184412974518757496e-03 -2.807210440510015705e-03 -5.411191123619302212e-01
8.383374971267137932e-02 9.407687745934472101e-01 2.090610734142057114e-01 -1.135511283413142717e-04 7.390374497209635345e-03 -6.214250052942038582e-01
1.026908345862517641e-01 1.080272046416019149e+00 2.084879091857226863e-01 -2.265889727935332335e-03 2.131875896575329693e-03 -6.826171393204243376e-01
1.746980080224876386e-01 9.687445678393477033e-01 2.104994871214788121e-01 -3.046519185334933193e-04 7.390586984455208529e-03 -5.340648438120065844e-01
2.186539051800126532e-01 9.134437726516423384e-01 2.091385094084079466e-01 -1.949051934324982005e-03 4.423457876024645616e-03 -3.875536769803689663e-01
2.771876651288252003e-01 9.526992559048662601e-01 2.095113222929528285e-01 8.957191360932983135e-04 1.114144139350350937e-04 -5.665694991124282653e-01
2.461130900781481057e-01 9.041052636734694392e-01 2.096508808130339574e-01 -2.415762965652664719e-03 3.559573265143891555e-03 -6.971659747577397814e-01
2.926628820442939705e-01 8.639726460335723779e-01 2.100009626169137555e-01 -3.012917928596072045e-04 4.345094785012756054e-03 -8.430494063882213451e-01
2.529307333549851711e-01 8.350314960993955316e-01 2.085401333888849407e-01 -9.946114138694070429e-05 2.101675192722112905e-03 -7.089759304524620998e-01
2.769368142434759927e-01 7.743771552318980955e-01 2.095888858293228352e-01 2.021939631431110898e-04 -6.881689758067725642e-03 -7.965862475934930576e-01
1.601682074021767432e-01 7.692958987051099484e-01 2.085181942136716260e-01 -2.117203156643071137e-03 5.769365978359764771e-04 -7.980914494026687400e-01
1.719728604074114153e-01 8.309317971545212567e-01 2.092346731765344914e-01 5.140154869316819778e-04 1.947470749590767252e-03 -9.621075401401634197e-01
2.616971030304654500e-01 6.921998392605642758e-01 2.103207005482023995e-01 -2.438764606644503678e-03 -1.864504949149659485e-04 -1.032728199528742286e+00
3.247727015871096357e-01 7.581657674331362395e-01 2.087484869333546267e-01 -1.693798461154383608e-03 3.181794463137333547e-03 -1.046363799124291338e+00
3.647389189649480334e-01 1.072053311855797997e+00 2.105728091046161765e-01 -1.683583922174572596e-03 1.487388548263437766e-03 -9.597639376687876478e-01
1.812694508013515948e-01 9.735427242299776740e-01 2.098282171540947760e-01 -2.283985867180517160e-03 -2.361772032229122846e-03 -7.865991326837882269e-01
1.734526195754665934e-01 1.149925749048953838e+00 2.091291097487465445e-01 -2.867649308996959422e-03 -1.685235079581632288e-03 -1.105734030586586591e+00
1.148770224682928304e-01 1.153339451916449487e+00 2.085107431348058316e-01 -4.914039639986082179e-04 -1.186730923986469358e-03 -7.795340246235201720e-01
1.580916213035480355e-01 1.108551425766549192e+00 2.096254159623749946e-01 -1.349971046561197980e-03 1.800236594601252547e-03 -9.246262782184551110e-01
1.432225499954270787e-01 1.120698464975131259e+00 2.083857019351249562e-01 -1.172556541662194427e-03 3.409391035699459779e-03 -6.709650708752017412e-01
1.524447041685769166e-01 1.014177197501482164e+00 2.092101569964584518e-01 -2.137083351731562404e-03 2.215917223531961144e-03 -1.029430844701811898e+00
6.888606206397235310e-02 8.339218536078482069e-01 2.081700502128002728e-01 3.416063622652168973e-03 -9.332901345042193169e-04 -1.261865078968640308e+00
3.395059029272165518e-02 6.388819162649245209e-01 2.089792233997683768e-01 2.469783161618151722e-03 8.839426059387380701e-04 -8.755294526640492458e-01
5.114227295266964013e-02 5.757433151158010132e-01 2.095089369947094049e-01 9.764143958013851493e-04 1.258005342283611367e-03 -9.505253414847742999e-01
-5.533220754800904917e-02 4.657018346907573214e-01 2.101841680432154913e-01 8.656692778389612651e-04 7.749784202691151419e-04 -5.978404391892959691e-01
-1.320292899919350282e-01 4.433332694143000130e-01 2.085759674386994389e-01 2.507965334556489737e-04 1.505401897216022793e-03 -7.024042848695971619e-01
-1.288273054550369556e-01 2.882968482584838954e-01 2.093930247396535438e-01 4.728499718370343620e-04 1.590853915875360290e-03 -4.672161750657755075e-01
-1.909708465375822839e-01 1.922561834039525630e-01 2.099472411647826942e-01 -8.777365751045260677e-05 1.336140720454785658e-03 -2.051925324242502569e-01
-1.965708254503009400e-01 2.639785819118808385e-01 2.107273864630951343e-01 -2.211327015519824052e-03 4.770393416237131076e-04 -3.440811176412272854e-01
-1.083108537599747206e-01 2.676661062331749386e-01 2.092673895111230586e-01 4.205688109116378763e-04 1.700472613292921620e-03 -5.602429485322535374e-01
6.328515707236047338e-02 2.847703151151514400e-01 2.085396751422481931e-01 4.198837481488950675e-04 2.624278038077598654e-03 -5.649606681534935504e-01
1.774757956388259630e-02 2.901359486570515012e-01 2.094234806793761061e-01 -7.425842395364482028e-04 4.603796508896635829e-04 -3.244828006876919191e-01
1.125773168571894550e-01 3.362980164074770295e-01 2.093925403575404576e-01 -1.141678004982079827e-04 5.027802699407764178e-04 -2.652145640859551179e-01
1.100232617229374432e-01 4.054779234893735596e-01 2.100076057907517280e-01 -6.222628759696715271e-04 -5.334073370950343515e-04 -2.939712387310398078e-01
1.228485655175500513e-01 4.373635207248540158e-01 2.106788273548091395e-01 -1.582976873426108827e-03 -1.731140742447852699e-03 -3.319343794843766515e-01
2.494022328750076234e-01 4.821414232980144599e-01 2.102746174825573799e-01 -4.785542387496182328e-04 2.344482480435259881e-04 -4.187807051479005560e-01
1.529221359638750499e-01 5.630262905010209318e-01 2.092687813189764712e-01 5.040033572800626778e-04 -2.650206260285511897e-03 -2.283263450657514460e-01
1.287315526446580483e-01 5.498573620176763210e-01 2.097326325737463026e-01 -1.281810630185490794e-03 -2.478684366049148120e-03 -2.100570574404337088e-01
1.217891302746642868e-01 4.154130211309498000e-01 2.100862345240388507e-01 -1.741582012618042227e-03 -2.596679708175839759e-03 -2.432760523700850108e-01
1.933061714485738714e-01 4.225831937163499474e-01 2.098780064188506822e-01 -1.913329735785108260e-03 -1.892487835117422903e-03 -2.903387583390525939e-01
1.131592116766472755e-01 3.577991592842726387e-01 2.102412819156267987e-01 -4.762709776093822190e-04 -2.026401985134846252e-03 -3.593000775871330044e-01
6.076566271159744570e-02 1.125419298660911976e-01 2.098909659078561640e-01 3.444098160406319884e-04 -1.348038277934819661e-03 -3.189336072049475113e-01
1.086386270491524336e-01 2.052972552578548604e-01 2.105393040578260044e-01 -1.134186644835884694e-03 -1.014529425231428103e-03 -4.201904132960447291e-01
5.124469813342297231e-02 1.681946239503352702e-01 2.114493140711874442e-01 -8.758601082938361447e-04 -1.716021077300404658e-03 -6.148026317692361076e-01
-7.008631030155651476e-02 2.259422237415072976e-01 2.096914756271869851e-01 -5.320290525408117059e-04 -1.428511101269409021e-03 -4.709932355627244327e-01
1.406603111671447803e-02 2.607620236009197123e-01 2.086491099293533713e-01 -3.253513292877010382e-04 2.254342886549040668e-04 -3.035087119022205626e-01
1.227423318476246472e-01 2.769272113287382653e-01 2.090018188957766254e-01 -5.665953518959475268e-04 4.270787355096072727e-04 -3.461664812324279916e-01
1.400759287194574820e-01 3.151452653955986727e-01 2.096560124748516052e-01 1.473196854967992204e-04 -1.694254814941624238e-04 -3.541971857828066228e-01
9.504333847217624753e-02 2.482466501045087759e-01 2.100769680099949799e-01 -8.146105657118980162e-05 -3.680462189245269642e-04 -2.744641744107822467e-01
1.004476690683437645e-01 3.088753426204906560e-01 2.098899173169898602e-01 -1.450245226855566413e-03 2.237856595619247969e-04 -3.820933598975124745e-01
8.760853705434361316e-02 3.035039196862584499e-01 2.103059283652632394e-01 1.536484478810213228e-04 5.119150132974619480e-05 -3.140224839892107322e-01
9.684531377135555119e-02 2.388497763451863376e-01 2.087790831844003603e-01 -1.806455984150556022e-04 3.597421801376122640e-04 -3.719358587667790927e-01
6.579205660990557203e-02 2.698476557453853841e-01 2.094370130956059728e-01 -1.136710465823186127e-04 -4.251335901747027926e-04 -3.213962411616117509e-01
-6.150023872717801793e-02 2.238482182592785308e-01 2.096363938290134454e-01 -5.256681820569091218e-04 -3.972227883230704227e-04 -3.849558535865805209e-01
4.626908848909321026e-02 1.975782058282948839e-01 2.094818782761183606e-01 -6.125329201440393549e-04 -3.646223564728849083e-05 -2.965802792195449400e-01
-4.041939176782198551e-02 2.098048574107890252e-01 2.098755269697663017e-01 -7.136244100773847521e-04 -1.722129663334444805e-04 -2.916755230237315089e-01
7.969225562269628693e-02 3.533241124625127183e-01 2.096042740718218611e-01 -1.926036818630753465e-04 2.715064954183130617e-04 -2.664661013475405626e-01
6.584887877419108582e-02 2.443135476479124379e-01 2.102083980468134605e-01 -3.319261366300649209e-04 1.113414997685615129e-04 -3.029347521907182483e-01
7.152305249456493430e-02 3.254158508300916686e-01 2.093483564238422523e-01 5.911183990008616349e-05 5.162549959426663984e-04 -4.204898515224407274e-01
7.142163248995232749e-02 2.052550486566612487e-01 2.095864510520971113e-01 -7.846063648536582202e-04 6.942407394852051061e-04 -4.844196683229953782e-01
1.638910611781468629e-01 2.051528108292474395e-01 2.100631919916423618e-01 1.306173701503661141e-04 6.217084649852814031e-04 -5.104953415897716118e-01
1.527961909134224472e-01 3.771230273914495390e-01 2.089010802854928128e-01 -2.895330410641302533e-04 3.946943337955602154e-04 -5.167452919493829011e-01
2.826967982773912480e-01 3.392506455486681838e-01 2.093418265330392325e-01 -1.107685988889067899e-04 7.424288908840404218e-04 -3.116095028404836653e-01
2.814718162870041840e-01 2.976633423172737047e-01 2.101579074889912691e-01 -5.243231086981895697e-05 6.753359372275681213e-04 -3.161802587700480172e-01
2.372678750852645901e-01 3.141104657925537502e-01 2.096621827785455916e-01 -4.178628985672348524e-05 1.375698402435896958e-03 -3.436634973396045512e-01
2.908348593216377176e-01 3.425698825476800602e-01 2.100448768572530378e-01 -5.840614800084944634e-05 2.542912022942172504e-03 -2.314289879575084086e-01
3.228074306310826369e-01 3.197977814925830886e-01 2.095191283942766103e-01 -6.323354126495640782e-04 3.876179209546089244e-03 -3.071662681802323491e-01
2.801712084520459611e-01 3.134984211620936434e-01 2.089769176946725260e-01 -3.800846715700439754e-04 1.553771314581202465e-03 -4.149024636000471777e-01
2.360308419880403907e-01 3.862254076003828751e-01 2.092509320119907423e-01 -2.991753601769383988e-04 1.470295217080039643e-03 -5.380298930167398685e-01
1.521933010369989625e-01 2.916009939455451172e-01 2.098175828065977910e-01 -2.669574665483454270e-05 8.361580454767415533e-04 -5.320444860430951772e-01
2.203409218471840958e-01 3.588332907727594945e-01 2.100384062062081725e-01 -1.398529356991840846e-04 -2.709931611612170473e-04 -4.786320199356809968e-01
2.659490240266728645e-01 2.905917220833841852e-01 2.095646660404670292e-01 6.971196566256874486e-05 -3.001806255852059249e-03 -2.253176503997698366e-01
2.797328166673045402e-01 2.294359229942718459e-01 2.100975952508979949e-01 -1.463675615534317759e-05 -2.291492750965759204e-03 -4.535637016869918381e-01
3.190716804572019116e-01 2.136926599734199073e-01 2.104996209736118007e-01 -1.789121176645240498e-05 -1.461929356324636730e-03 -2.817903500783263682e-01
3.157203521752933173e-01 2.720486784840923655e-01 2.094126830007235207e-01 -2.597059822507323513e-04 -3.557518544163605634e-03 -4.127782378804537577e-01
2.518996498865979650e-01 1.979415770339590375e-01 2.099071766873671363e-01 -6.485763335645711657e-05 -2.431089437375754964e-03 -2.803113348666825821e-01
2.222892446452811588e-01 1.535147340178524000e-01 2.101167585695195572e-01 -3.079622205416667890e-06 -5.959430691418003950e-04 -4.480199453999216264e-01
3.082665966928169743e-01 2.087886937622752681e-01 2.104980377408071091e-01 -7.789344743425077704e-05 9.872976151797006276e-04 -4.547757517656914050e-01
2.422115590171204369e-01 1.728116392774016186e-01 2.093565245554018239e-01 -4.965175832613213648e-05 -1.554457618551277230e-03 -4.797078283773318352e-01
3.439049852361381610e-01 1.847574368251093946e-01 2.099282633263818698e-01 -5.628475023899572315e-05 -2.213339362799225326e-04 -4.977979080441403692e-01
2.999105991948515237e-01 1.626855926332969604e-01 2.102785569616907879e-01 -8.960476430463345932e-06 7.989584151919848541e-04 -5.069345661554932603e-01
2.561579327576155585e-01 1.397390741235863543e-01 2.093115738366322365e-01 -8.459884066730778544e-05 -1.451380822555797508e-03 -4.105702350589484073e-01
2.805894543410932807e-01 2.180444245746487597e-01 2.100565251739275885e-01 2.102353227518870878e-04 -1.353399737499201387e-03 -6.649269631479038933e-01
2.282965247603822301e-01 2.116588099267335543e-01 2.092812577972540389e-01 -4.375763757965283896e-05 -1.265925538056734577e-03 -7.037457832078920505e-01
2.525357054001223789e-01 1.050423297975662668e-01 2.099649211851547514e-01 -4.968731470843962690e-05 -7.212431696829907412e-04 -4.469007132299777640e-01
2.556356494627666787e-01 1.319801060019482608e-01 2.093360263251285991e-01 5.775004396065717770e-05 -1.281701339666866789e-03 -6.269844572644567293e-01
2.380925318095417076e-01 8.648570689021133073e-02 2.100233446057348519e-01 -1.748288069373034629e-04 -1.953854414781261515e-04 -6.477584985170374843e-01
1.007781097517520541e-01 1.024417432348766199e-01 2.092263014902465690e-01 6.774808572332690411e-05 -5.768477709459448211e-05 -4.804735714997680485e-01
1.657407756502742857e-01 3.489077221236853155e-01 2.096712831002878197e-01 -1.911546507232088441e-04 8.652776049606443129e-04 -7.614955496148970715e-01
-1.291303669795199061e-03 3.866316303962797352e-01 2.088338686615305861e-01 -2.412454461606283111e-04 6.759669304629876497e-04 -7.511218230565642751e-01
-8.369536429204697814e-02 3.737795389891113151e-01 2.095221882196006136e-01 -3.414822258113621298e-05 1.095537869607335520e-03 -5.755147267509976849e-01
5.441612555442176813e-03 4.936746276371019593e-01 2.100093056393008695e-01 -4.858367273343762276e-04 1.696295565325287892e-03 -6.508010509292678769e-01
-5.117374647031101842e-02 5.373045212509299784e-01 2.088021021904871155e-01 -4.496472321356872050e-04 3.110257488587457771e-04 -3.690918965891678005e-01
6.422716085394412217e-03 5.079635267504531981e-01 2.097944042177206092e-01 -4.181602321788204890e-04 1.369297050316496851e-03 -3.473257314490384440e-01
-9.080005179031436224e-02 4.643057973660977278e-01 2.096517650747179440e-01 1.182321551760040203e-04 1.055040566399982832e-03 -2.045380610664473409e-01
2.055540983365925639e-02 3.756953034590079232e-01 2.091626461743602561e-01 2.450222946315973988e-05 8.689469427473642217e-04 -2.635735804858220233e-01
3.047052996506660616e-02 3.729371183379835974e-01 2.097486637571750467e-01 7.469212735114423357e-05 1.240341858427471957e-03 -4.158959073094043446e-01
-2.143715622320451278e-02 3.888151773976927794e-01 2.090727728020730369e-01 2.243201697362329564e-04 1.577557518635085664e-03 -4.424351080100676348e-01
3.283448371428667606e-02 3.916802129156512491e-01 2.097991527292207836e-01 1.681334213645569321e-04 1.166933915734738245e-03 -4.476953322122828038e-01
1.116530852371625387e-01 2.855936393754248126e-01 2.101280826944783020e-01 2.575415721974658070e-04 1.682795158287129014e-03 -4.348300186163860381e-01
1.040584291058151978e-01 3.523963348836113840e-01 2.093501658247053920e-01 -5.446982184350482965e-04 8.756860127001388780e-04 -2.890009635037879554e-01
5.997978685593736980e-02 3.616860879151289065e-01 2.098524625773720564e-01 6.345187808447993680e-06 1.175993028394614094e-03 -2.910142940461919459e-01
-4.126387784384656643e-03 3.819966698472278543e-01 2.103579448748741920e-01 4.067178116239162570e-04 1.053547868808090088e-03 -4.314978674339424169e-01
-4.697885545095157461e-02 3.795715378494485814e-01 2.090940715092851065e-01 -5.119575093334633765e-04 1.463485705770512825e-03 -4.242860099246240635e-01
6.236419964916774250e-02 4.370701384582322824e-01 2.092254339209439484e-01 -3.070626929561033418e-04 1.122106409330347497e-03 -3.495022560193951633e-01
4.286118219667529178e-03 2.803644413476401587e-01 2.098247049947428722e-01 4.086485440531553996e-04 -1.903207542664447742e-04 -4.773530470536446191e-01
-4.062713183555480279e-02 4.033269685146831929e-01 2.097365155824977845e-01 -5.025951543053445655e-05 -1.553283501354838533e-04 -5.502761991372973061e-01
3.527649649276366761e-02 3.358399318042133430e-01 2.098731804216386609e-01 3.651277492786882779e-05 -4.130847951931753358e-04 -6.115501932960389908e-01
1.726620189701779176e-02 3.083343048564742284e-01 2.099272805539726949e-01 3.799942268528416002e-05 -5.428567891638001524e-04 -4.035164291600361053e-01
6.188413238799667787e-03 1.997203990399709916e-01 2.100717104959752279e-01 1.103816909072825430e-04 -1.458791474072496834e-03 -4.833097653809579897e-01
5.559287379856048955e-03 2.814357385803656353e-01 2.099068642525122041e-01 -1.432375614165314797e-04 -1.082183875266611375e-03 -7.021193171946439326e-01
3.851016201806346795e-02 2.235245815374988509e-01 2.099139472004716289e-01 4.745654795614724766e-05 -1.169433749555299010e-03 -4.954041475588079058e-01
-2.316817874929395088e-03 1.516333676367154215e-01 2.099175698040275373e-01 5.805707543477556807e-04 -2.090232346249624919e-03 -5.632681652633495517e-01
-5.004860200213644139e-03 2.183929557135043664e-01 2.098726711511372245e-01 -3.286697108777210212e-04 -1.299939615670838702e-03 -4.908936597842232796e-01
-5.998528016034699456e-02 2.425202172149537594e-01 2.097944270006736334e-01 4.658597128295052748e-05 -1.724357826416096076e-03 -4.063643475096883617e-01
-1.116224418890201797e-01 2.462343443175494806e-01 2.097774410520980015e-01 -1.364785463718631072e-04 -1.869531927198539315e-03 -4.766558030747816144e-01
-1.331760265243714103e-01 2.176264280551448160e-01 2.096706813814872561e-01 1.401535899842566105e-04 -1.310794251445009020e-03 -4.280851993755205309e-01
-1.444176145749098972e-01 1.913708631647938752e-01 2.096169194625316923e-01 -2.645297515366933387e-04 -1.227951147507743996e-03 -2.890336522253995621e-01
-7.444924872437705399e-02 2.221204533293018590e-01 2.096029007528763533e-01 -7.428955212946987679e-05 -1.080341286284028889e-03 -3.297765221562799498e-01
-7.341490361154946742e-02 2.823424128460436666e-01 2.094926280840742061e-01 -9.445380547195393129e-05 -9.041203337031849955e-04 -2.845181438259477003e-01
-1.268823938053685874e-01 1.850036306901669536e-01 2.095275357872282695e-01 2.109888423173768789e-04 -5.079693745367392299e-04 -2.392829859791894553e-01
-1.380496123023279287e-01 1.788204138156819778e-01 2.095087756778508115e-01 -2.162211563329344472e-05 -5.716393102910001219e-04 -4.078031931070386085e-01
-1.631374626563557584e-01 1.973103188226235372e-01 2.093653019596853904e-01 -2.850217758906071282e-04 -3.918741650367599293e-04 -3.130413524172880879e-01
-9.417956588942616447e-02 2.227393269136242193e-01 2.093329403104953745e-01 -5.676915412771452938e-05 -1.968563186134600243e-04 -3.222861887812639159e-01
-7.140833072538542436e-02 2.216483358026754280e-01 2.092618897483751184e-01 -1.122892726306433435e-04 1.444433960624707559e-04 -3.486652699686662027e-01
-9.287715022545456334e-02 1.875383519273431943e-01 2.092074286436043651e-01 9.651524790282656945e-05 3.115640344821127630e-04 -2.350733711241295987e-01
-8.128952767390767997e-02 1.186893935385726490e-01 2.090806074739110509e-01 2.072639727696327873e-04 5.562444371879328919e-04 -2.992986981267700686e-01
-8.313147113783808662e-02 1.414383353769362306e-01 2.105311875317531500e-01 -1.905066925938611773e-04 4.263074161674250753e-04 -3.274683715112569060e-01
-4.306504800361132812e-02 1.407644053947106066e-01 2.103355470938763627e-01 3.096572248909928114e-05 7.436642624293849724e-04 -2.179753932309630438e-01
-4.276168686331772995e-02 1.604264192376686493e-01 2.101766720523719489e-01 2.181929823992346347e-04 6.198557782099339874e-04 -2.645073673135691639e-01
-4.089049686083545687e-02 6.538483250139484615e-02 2.100177207305904403e-01 6.120529328857942492e-05 5.176612476703602297e-04 -2.200505979253494504e-01
-1.356493130584317808e-01 1.147241843776979076e-01 2.097793167371487799e-01 6.030744343099025419e-05 2.135197521661289823e-04 -4.845115053158433049e-01
-1.230508312871057969e-01 9.580656187772493282e-02 2.096429194634449877e-01 7.367941031720723057e-06 5.144069675976425471e-04 -4.198935064563341646e-01
-6.865502988228538994e-02 1.805167434462655873e-01 2.095570652254658550e-01 -8.734072195960170784e-05 2.223931316242063090e-04 -4.292034595583063550e-01
-8.284698239698153055e-02 1.618376538848668167e-01 2.096135359582132485e-01 1.592446789771095439e-04 6.868974546549837799e-05 -3.969298808773750187e-01
-1.261780712263587956e-01 8.944922109208298944e-02 2.096347895754724355e-01 -2.100060896669398835e-04 7.178844016055602358e-04 -5.379050262077477162e-01
-1.347510548344417469e-01 1.508833802363778731e-01 2.094088128727707443e-01 1.760441114941425423e-05 -4.351459251605922416e-04 -6.802398556245196071e-01
-1.331683706084705598e-01 7.064906067029946835e-02 2.105700276741627186e-01 8.380982036179989922e-04 -8.927237015651513143e-06 -4.598690533932024982e-01
-1.482771779305508963e-01 1.020448957852718164e-01 2.104223832763766344e-01 -2.670238571595905065e-04 -1.401037275696741962e-04 -3.058313504718008780e-01
-1.223854795156492647e-01 1.892879660330750446e-01 2.102994553997886151e-01 -2.050401232205691126e-04 -5.179494616559751369e-04 -7.233943748251634442e-01
-6.676479074352961729e-02 1.932527878020917633e-01 2.097328165838922009e-01 1.455692798285290160e-05 -3.905281317738152334e-04 -4.285982577286840955e-01
-1.904237283923713997e-02 2.378956014261022212e-01 2.098323401086958362e-01 2.125595932185940344e-04 2.557339132382706223e-05 -1.556065250151510981e-01
-3.508558313281687213e-02 2.071487076173237907e-01 2.098837796153472102e-01 9.630959074437087650e-05 -8.828875557656052546e-04 -2.260546571326703946e-01
-4.238660552017957384e-03 1.907640130164753589e-01 2.098294564311355970e-01 3.177834993270368339e-04 -1.456251207466458713e-03 -2.868781521341144947e-01
1.381837064436830173e-02 2.487907468537892408e-01 2.101230020379113439e-01 1.822585258150845365e-04 -1.033613099771777278e-03 -2.748237520284913527e-01
-1.114776876817778761e-01 1.450982560387820697e-01 2.092458808149498806e-01 -2.905765465718355522e-05 1.177293605440226943e-04 -7.848579351397641513e-02
-3.493278679318637114e-02 2.469286238340704376e-01 2.093252600998641855e-01 -6.302794572069113561e-05 -1.131180079912865030e-04 -5.053278665960374977e-03
2.423550983640172796e-03 2.829866123496876940e-01 2.095258741394821489e-01 1.369808467613208979e-04 2.549076575279871334e-05 -1.184064460991532952e-01
4.051932479778239116e-04 2.135087041925566587e-01 2.097060429113802860e-01 1.401684743655687477e-04 -3.392663781325952910e-04 -3.497869459767516398e-01
-4.411853465958955056e-02 1.695188665195930811e-01 2.099201717523671018e-01 1.859218527027080010e-04 -2.749641693285477572e-04 -3.844889654220174924e-01
1.323752926406960781e-02 1.097803173753535838e-01 2.101432677085152134e-01 1.176831287942174561e-04 -6.000243432146992148e-05 -4.255782187098636205e-01
4.407884915543352350e-02 1.962554205280310771e-01 2.103788477783264943e-01 2.237201841870444676e-05 -1.554373867498373652e-04 -5.566001802032704004e-01
7.868951997136837406e-03 2.150809609611111783e-01 2.090266907356075898e-01 3.634978289946919229e-05 -2.445871716623438936e-04 -4.947072047285519525e-01
-1.381803996793318223e-02 1.958621720685015388e-01 2.092141804334724520e-01 2.452269014914844618e-04 2.282275570034858242e-04 -3.886438750631177053e-01
7.203795048942088913e-03 2.248341863097264859e-01 2.094452158929938634e-01 3.334325285228380455e-05 -4.983748432352168908e-04 -4.665870353000887150e-01
3.842618968222058506e-02 2.339387127455245796e-01 2.096100301610925309e-01 9.340432311146213524e-05 -3.979582819077233076e-04 -3.392686039282287180e-01
-3.730544767823982394e-02 1.999743949400824283e-01 2.098921457261274104e-01 1.164369428363805505e-04 -6.398296256769365467e-04 -4.659538325015050719e-01
1.657299498004109750e-02 2.437003255289108272e-01 2.099770595997734191e-01 -6.890906163208222355e-05 -2.256821181823048697e-04 -2.604217507372639795e-01
4.306351630084169491e-02 3.052748903735627017e-01 2.102709858384248509e-01 1.704442892762137853e-05 -2.641106955890073840e-05 -3.403548451506723804e-01
-5.604344144117725385e-03 3.709467248592061006e-01 2.087675935892079893e-01 7.326981934039412156e-05 -9.020786997402432386e-05 -5.112029396386584823e-01
-1.700694993821880510e-02 2.960272567528623444e-01 2.088659845539810878e-01 2.634493426275715693e-04 5.245342579434823316e-04 -5.229450576288576791e-01
-5.192859347848979845e-03 3.865840401372555579e-01 2.090116051969512778e-01 -1.106031835145644909e-04 4.246383631220556135e-04 -5.144196942749785784e-01
3.657060214714648316e-02 3.128890706835067981e-01 2.094373168970437571e-01 2.578609271702838007e-04 7.826060491124316046e-04 -2.857456776056581105e-01
-3.753855291437221964e-03 2.689205843256844419e-01 2.095359545826324665e-01 -1.539473014068536128e-04 9.419195434152090362e-04 -2.516453312600582248e-01
-1.714637040925745884e-02 2.819949801497145248e-01 2.098376784784888871e-01 1.563292164428297781e-04 2.107407821277366370e-03 -2.121068488192541512e-01
-1.835055868436726370e-02 2.692831780835860944e-01 2.101074858207420681e-01 9.814687552723745244e-05 2.071760854519443668e-03 -1.501582115728173905e-01
-7.590005129051927146e-02 1.705150099076512549e-01 2.093213515780418810e-01 2.844685888923864451e-06 8.469682442169530019e-04 -2.926366800089773568e-01
-6.789290263631150846e-02 1.687114249143272793e-01 2.096363324813832474e-01 5.385618137243831590e-05 1.243329653585686706e-03 -3.598342814654188482e-01
-2.323783857721338497e-02 1.915849785478233591e-01 2.097587801424113385e-01 -1.241888420165886261e-04 7.998309353480019231e-04 -3.164454128455951865e-01
1.205296220966523002e-02 3.496137211270688439e-01 2.100243983550253990e-01 -3.197676230590119797e-04 8.369994707011024987e-04 -3.719421267578303936e-01
-1.183737668723264247e-02 3.872930922678918808e-01 2.092778186769657656e-01 -1.813625730132452135e-04 1.147750333484850364e-04 -2.076935172949242459e-01
1.014333521564890483e-01 4.524779857812213923e-01 2.097038415085574758e-01 1.473454340631672958e-05 -1.754276149026465613e-05 -4.126499656753499501e-01
-4.620778465025246473e-02 4.301454952260327369e-01 2.092444673402064081e-01 1.002792539250039143e-05 -9.897514673943546420e-04 -3.993849344431728010e-01
1.225327095979163519e-02 5.174786846651366901e-01 2.094275641949613354e-01 -1.178001602679863859e-04 -4.830017078970829584e-04 -4.585690439645979111e-01
-8.500927144667705382e-02 5.466933463551463257e-01 2.099047885787843626e-01 3.062449187014413144e-04 -3.655918967939453279e-04 -2.745157767269902349e-01
-8.079796417613903381e-02 5.670071501214395404e-01 2.090782104843232903e-01 -1.358623086400883619e-04 -3.005627381173714093e-04 -3.484565209757290449e-01
-6.945030651261790977e-02 6.198871703200530270e-01 2.094558457539484886e-01 1.428623261291616829e-04 -2.700915021000544316e-04 -2.613936190252022507e-01
-6.977721317875633378e-02 5.542664883707698609e-01 2.098618879166047613e-01 1.972542636099987442e-04 -2.175890359258957421e-04 -3.266284736803788391e-01
-5.308618541848870304e-02 5.289655845266494349e-01 2.092688770706897516e-01 8.194184707801026530e-04 -1.336559258447510756e-03 -2.524558576184814385e-01
-9.586923981596584543e-02 4.764844406557910417e-01 2.097199818903202062e-01 -6.422232609255951294e-05 -1.543144781226202418e-03 -3.581629217937343235e-01
-1.059832898229761539e-01 5.297852673769480880e-01 2.089850514804701964e-01 -7.977037329433134933e-05 -1.817495293930704347e-03 -3.650574380699369015e-01
-8.429730704822194221e-02 5.205032959139543891e-01 2.094612634168044329e-01 1.230585847395270892e-04 -1.869390094042099916e-03 -2.235332774578692172e-01
-7.829234016226301052e-02 4.907377133472717312e-01 2.098332358647698737e-01 1.918769909378965758e-04 -1.715217575778647851e-03 -3.611183039868726685e-01
-1.380305012971719258e-01 4.689521154246817369e-01 2.094223764215252248e-01 -8.494667568917724037e-05 -2.096392797336956750e-03 -3.670011931637793268e-01
-9.946903339634410868e-02 5.120810206130468334e-01 2.096426599579396255e-01 1.152207134569657015e-05 -1.248174895663794548e-03 -3.817114146083345760e-01
-1.617892567271985993e-01 5.589987169647774312e-01 2.088670949432277490e-01 6.702899289906331373e-04 -2.843826132049933090e-04 -6.575259076151165338e-01
-1.239947393973652723e-01 5.143178016663401131e-01 2.093705144264316198e-01 -2.239570028525217913e-04 -2.281569293172455281e-04 -3.811130419979968931e-01
-9.980850813777475405e-02 5.680830926720243923e-01 2.097439077906294025e-01 -7.299143960193030692e-06 1.264248646465004292e-04 -3.395597947235057812e-01
-1.248071952574672933e-01 5.976971401989265020e-01 2.090719620710859705e-01 -4.793863374412325431e-05 1.299136805358102145e-04 -1.889368817715263438e-01
-1.798944660967314313e-01 4.569866979774931393e-01 2.093886950850292750e-01 3.610685043040607841e-04 3.904671379359922999e-04 -2.937756968183878881e-01
-9.190504248560765754e-02 5.275817827813400474e-01 2.096908890768504619e-01 1.875650676747645255e-04 7.496936789352217972e-04 -5.644438266174468533e-01
-1.039250956156992090e-01 4.837000449821894366e-01 2.090249822424242732e-01 1.961021177557549359e-04 4.632672546334230248e-04 -2.735083273350565336e-01
-8.752990884648099990e-03 5.563396438912359132e-01 2.093728484195602202e-01 2.410236199292659562e-06 5.999125239201392318e-04 -3.630958476223926090e-01
-1.355775681514713449e-02 5.286240989065739138e-01 2.097109969992840828e-01 -8.721257389813276303e-06 4.562071559856172498e-04 -3.631691022666969637e-01
3.348438309222552534e-03 5.509193046374836200e-01 2.089149184551458149e-01 -3.419895356527043970e-05 6.259248754122447687e-06 -2.323368443837240116e-01
3.246160947689150089e-02 4.978616887546943315e-01 2.094535062966769723e-01 -2.649954104321269172e-05 -8.637683695725646097e-04 -1.177341564021713582e-01
3.680844927449894444e-02 5.506890382337177314e-01 2.095788071252349671e-01 -5.109439612842693791e-05 -3.867153646284770836e-04 -4.699646678907600239e-01
2.024544586859800682e-02 4.715024438908961835e-01 2.100813635690195191e-01 2.736234664713557363e-05 -8.528076468662462457e-04 -3.399122255444577134e-01
-5.605391303835252637e-02 4.908003852572231929e-01 2.090830517264463673e-01 2.687241137873081051e-04 -9.005746481224885264e-04 -3.335293977210543326e-01
-1.006099213632625500e-01 5.172117798353050855e-01 2.092956152558865801e-01 -5.597523168762119121e-06 -5.287618623242432495e-04 -3.697374699606077453e-01
-6.943069841349380766e-02 5.200687549878361127e-01 2.096697841206355273e-01 -1.694789136417237246e-04 -7.119143981542430969e-04 -4.307541329658589602e-01
-1.384241112511320204e-01 3.792997519328761280e-01 2.100364202056133056e-01 3.859404220095526638e-04 -4.916329456030198077e-04 -3.979513099974492651e-01
-1.335940899237572921e-01 4.566523758113657516e-01 2.090198222029050479e-01 1.253862941589841806e-04 1.217215869437339405e-04 -4.178864012421292240e-01
-1.500812160311156274e-01 4.232804500913641688e-01 2.094647968508109304e-01 5.043444984990676759e-05 2.662877010428245741e-04 -3.517823542266402814e-01
-2.041303948730110729e-01 5.431800151509815766e-01 2.096046509595160812e-01 -2.409487581884345048e-04 1.034908573543748484e-03 -6.336026057132813083e-01
-1.060986481688525919e-02 5.427311909225861486e-01 2.086897369550246850e-01 3.566414203525467594e-04 2.196736876224421493e-03 -1.023428076658391972e-01
-7.781671381872353604e-03 4.371561044454915779e-01 2.092119943458290998e-01 5.158959964929183393e-05 1.214479463888094250e-03 1.317631164114680398e-01
-6.971000746955417771e-02 3.570602602887441024e-01 2.096728716841306794e-01 8.468244420387493630e-05 1.162310081009843964e-03 -1.294180094391632341e-01
-7.423520574266984084e-02 4.112742653723680530e-01 2.098697797249466923e-01 -8.443858861589574258e-04 1.422187238031002348e-03 -9.765279097460283220e-02
-7.286801488634182811e-02 3.410192594155063150e-01 2.089298711047950508e-01 3.211191843023807296e-04 1.580311150946380654e-03 -1.867715778501206070e-01
-4.335157340000100890e-02 3.739064424640768936e-01 2.091566780726266672e-01 1.426656622069352460e-04 1.767530731356362420e-03 -2.296387070951845244e-01
-1.304655476429885386e-01 2.769633079921859919e-01 2.094895212643685389e-01 4.487626662137679333e-05 1.104235020876505454e-03 -3.141508748419973851e-01
-4.651723870636109703e-02 4.147042741152359713e-01 2.098023040187935173e-01 -1.358583356255273016e-04 1.952002795552741947e-03 -1.416337537018934334e-01
-1.016451770630909385e-01 4.903228154156359375e-01 2.099897851501951185e-01 -2.580179562229282381e-04 1.693955930488650783e-03 -2.868521899674347786e-01
-1.587018082145544295e-01 6.215021828401835480e-01 2.091619572464237797e-01 -8.486121528880974721e-04 2.167098693880774134e-03 -2.500221742788059642e-01
-1.253876621732500918e-01 6.672389689018559666e-01 2.092073821668544165e-01 -2.040300786045224507e-04 1.211307080838651320e-03 -3.591551976680468217e-01
-1.161231740717115907e-01 6.969270248535153200e-01 2.094066425688978494e-01 -8.580657592268157259e-05 1.189922915353753457e-03 -2.311423120886794691e-01
-9.108577512739726711e-02 7.190804243639342674e-01 2.096696234845837337e-01 -4.158273341594270593e-05 1.054385415838775654e-03 -3.159045987466205796e-01
-1.132302480592674021e-01 6.240309591381539844e-01 2.097739926959767964e-01 1.307104330860205782e-04 6.662573730521980341e-04 -3.822621288337804124e-01
-1.298943536436574786e-01 5.829413143524777574e-01 2.099832267817696163e-01 4.620366557764353440e-05 3.223439377541605652e-04 -3.058490791569070111e-01
-1.028524182869508669e-01 6.004358398757740911e-01 2.100039452400725981e-01 6.660677268281601761e-06 1.253118735763606296e-04 -2.515673365910071624e-01
-1.639617397949155453e-01 5.560648952627492703e-01 2.090033679964772850e-01 5.328459873682244506e-07 -1.774177972933383373e-04 -3.979480610835020027e-01
-1.013994812756429109e-01 5.883781900643535456e-01 2.091057650932655054e-01 7.110972402187016727e-05 -2.164777138999709528e-04 -2.821331690757755695e-01
-8.929687952417278418e-02 4.946062794545486585e-01 2.094134602588810790e-01 5.820965445492949164e-04 -9.005465584109153339e-05 -2.082669675823349276e-01
-4.678281605810296478e-02 4.807000264829367486e-01 2.095500893302788548e-01 -1.117866766027400115e-04 -4.897613562278013959e-04 -1.479014512294518358e-01
-2.263175878928920526e-02 5.730999974906084704e-01 2.097821244596924095e-01 -1.525723798479941930e-04 -3.290108706360543220e-04 -4.979468794628985617e-02
1.589867214042724880e-02 5.673131390099672711e-01 2.100263116617784309e-01 3.302215075677100925e-04 -9.879108247062887670e-04 -1.718732453341245414e-01
-5.001968696688348370e-03 4.955927286982730884e-01 2.088354280219604786e-01 3.137370718046215154e-04 -2.137317332579870884e-04 -1.893134714929571583e-01
1.043672971923237380e-02 4.635933640967185299e-01 2.090374781202067878e-01 8.887174677173613371e-05 -8.485482886858413667e-04 -2.849023879336903819e-01
4.202513920932898078e-02 4.313584687668789996e-01 2.091162841916459625e-01 -2.595996216071987171e-05 -5.406142752925498490e-04 -1.862223456969294422e-01
5.431066663289083746e-02 3.905203959152449000e-01 2.095193866994305987e-01 3.386760887751419087e-04 -1.372089261097110893e-03 -1.291248432731046947e-01
-8.029650795265157182e-02 5.241745478480970277e-01 2.094511028254313900e-01 -8.896079673644273272e-04 -1.013321341209903401e-03 -2.124777177917303028e-01
3.856833262489849090e-02 5.301132944773446765e-01 2.094575458993339634e-01 -3.394985169785361872e-04 -3.662938765417734208e-04 -1.919787861368200121e-01
-3.297289082549374750e-02 5.247885270260017609e-01 2.095974299161001975e-01 -1.222331209962079193e-04 -4.581421872383404791e-04 -2.413575006018624514e-01
3.214676408917750000e-03 5.222484330904688665e-01 2.097095905079003897e-01 -6.206437234842378920e-05 -2.847840074679288389e-04 -1.981044268269887554e-01
1.430530430049489488e-01 5.268790928805033857e-01 2.098036806921719788e-01 1.360253398823858936e-04 5.409813943381417469e-05 -4.327334305860414121e-02
7.469153411194408287e-02 4.440152169724260189e-01 2.099479783399069155e-01 -3.505646569823888742e-05 -2.753451559319400224e-04 -8.365016534965573347e-02
1.485310149387223388e-01 4.314232671255204266e-01 2.099981363939245060e-01 8.947970088634612802e-05 -6.518848177015896346e-05 -3.156055640928555339e-02
8.522347551883779904e-02 5.241801064888897965e-01 2.087406874428747172e-01 3.252775330095654220e-04 3.058621060805750492e-04 -2.312500968157582826e-01
1.397344160469999319e-01 4.744714570041569934e-01 2.088352689813447460e-01 2.896351931564553495e-04 3.238405512898094194e-04 -2.915859744130949727e-02
6.487967494694488191e-02 4.223415832504670564e-01 2.089525520379279522e-01 1.282008872706755774e-04 3.047781118081257070e-04 -4.221368300614358055e-02
1.688476717444040986e-01 3.450265280578562188e-01 2.090972222344815723e-01 2.905082461852818271e-04 8.119377654425703186e-04 -9.946284546503077195e-02
2.647397509191756759e-01 4.155878517735976940e-01 2.091895766308057292e-01 -4.033575167490082965e-04 3.881182120699769355e-04 -2.146022900442642323e-01
2.950516309984163588e-01 3.870606526741241504e-01 2.092559114389998531e-01 -2.485990302547814914e-04 4.338513320491474727e-04 -1.249216682908280279e-01
2.434603221071312273e-01 3.614707248184333421e-01 2.094087539168972834e-01 -3.121015845360376956e-04 8.957935021749907525e-05 -1.751469607190219713e-01
1.559285019117878646e-01 2.853556367675299521e-01 2.093862792912647985e-01 1.156945516452065863e-04 -2.132834748937614213e-06 -2.688377405137596377e-01
1.811818648862615899e-01 2.644308450398948906e-01 2.093357585121807807e-01 -4.049112968841187935e-06 3.366894406821246228e-04 -3.834173329531971319e-01
