1.589881715909494397e-01 -2.208344968489628010e-02 2.078645203092769900e-01 -2.240994519874494858e-04 5.202426998570128074e-04 -4.243558422251308970e-01
1.630850776126032686e-01 -1.067337231564102415e-02 2.081535374337540878e-01 -1.153062412647684279e-04 1.607731996348705410e-03 -5.697418634696908013e-01
1.260111386431422564e-01 4.937570070394905336e-02 2.084118157957555173e-01 -2.284855943614373241e-04 2.773386133652036567e-03 -5.856076229125203314e-01
9.907361924632410166e-02 5.455196067030353840e-02 2.087408638890985157e-01 -1.401981573714912335e-04 3.720597775701414960e-03 -5.159177669842746061e-01
1.028526373062387533e-01 4.276694099394578313e-02 2.091454421623381021e-01 -2.773865577507705535e-04 4.764532890640943083e-03 -5.073315577698436218e-01
8.726308491781989418e-02 7.189633484558513588e-02 2.096491413988652019e-01 -3.250181861334428576e-04 5.637648009538783270e-03 -5.398042857922894511e-01
9.763497522185016209e-02 -5.277073626345543320e-03 2.101948119510568813e-01 -2.332069738828415205e-04 6.153152800617007860e-03 -4.271154762464257071e-01
1.486438902482273283e-01 -4.570157318838818233e-02 2.107896640477289751e-01 -2.652999923292328186e-04 6.873634127780006188e-03 -4.846977495048284679e-01
1.456269568647711177e-01 2.427873338840574879e-02 2.113096342973172503e-01 -8.201150433197151694e-04 7.662723053691585656e-03 -6.949233364307669802e-01
1.619448033449076008e-01 6.795935438542508034e-02 2.119823218673654308e-01 -6.204443207245478832e-04 8.013689710027690344e-03 -7.391103953727802267e-01
2.202094457724611543e-01 3.306175498551267022e-02 2.128517906906851609e-01 -2.712978836306343083e-04 8.325819812101738215e-03 -5.969342839764817388e-01
2.331075075240850725e-01 1.747327895887403754e-02 2.135734292071876372e-01 -4.488223771441669503e-04 8.477190296422684040e-03 -5.417057486664951238e-01
2.373749138281439630e-01 2.127047158050331815e-02 2.143973772314705095e-01 -7.012691246083257437e-04 8.575625281276099549e-03 -7.065047134479037760e-01
2.699163686052951094e-01 -7.289211963724363808e-02 2.152658870863259355e-01 -6.923581824890387600e-04 8.811009062801777522e-03 -6.976197949795217568e-01
2.418774514138389842e-01 6.568817554921975443e-02 2.160291622018798985e-01 -1.115596893578505193e-03 9.183773051937025103e-03 -4.068994542071779352e-01
2.620442894676598966e-01 1.580468980933482370e-01 2.171299966537347248e-01 -7.172592794655171730e-04 9.007909792996754775e-03 -5.988706355933842707e-01
2.428000910132230017e-01 7.483969611335339334e-02 2.181295897524396787e-01 -7.492786471465826643e-04 9.026214789100130143e-03 -5.170590727174809720e-01
2.888429312253412706e-01 -1.330977398152619236e-02 2.192075626426004398e-01 -6.797618645554748176e-04 9.352968448587026598e-03 -4.348720720121254657e-01
-2.142202192369971336e-01 1.461580316129378332e-01 1.996126040561989057e-01 -5.316695870682103644e-04 -4.804171586853440284e-03 -4.186103274050646528e-01
-2.336960647045693562e-01 1.637687270290897612e-01 2.008159632678073181e-01 -8.429476419825185558e-05 -5.068052068912922217e-03 -4.124247043509043920e-01
-1.475375852288567380e-01 1.828255200523901669e-01 2.018767180546534035e-01 -1.799416589434710539e-04 -3.942649719765061248e-03 -4.712007623701284231e-01
-1.225700191597678679e-01 1.839264232563842805e-01 2.029858512647546576e-01 -1.621836496881591761e-05 -2.903271574706973654e-03 -4.089213847995409878e-01
-7.614243700150921668e-02 1.417371491150076213e-01 2.043315268695339859e-01 2.025979383392618940e-04 -2.945219416663866392e-03 -3.519043926440656445e-01
-4.320407110752592927e-02 1.511393661671385225e-01 2.056887331243668071e-01 -6.019572602345765061e-05 -2.593965978515639335e-03 -5.925150002960569151e-02
2.953979559222753848e-02 1.722734181745946558e-01 2.070419998454529065e-01 -1.547886396814378339e-04 -2.114426638223383410e-03 -6.887914254738852771e-02
3.360709946321181057e-02 1.334868616427902777e-01 2.083767695536295483e-01 4.191818938838085765e-04 -1.254109362487571856e-03 -2.106357002622541441e-01
7.845355976053744462e-02 2.203236550407583205e-01 2.098253915891319932e-01 -4.311596831695318740e-05 -6.058864054176768934e-04 -2.256289150121663367e-01
1.186391314588561008e-01 2.039333379637693622e-01 2.112951615337147482e-01 3.484840862480970765e-04 3.896895700054053726e-05 4.172671219213063692e-02
1.384253021363558711e-01 2.384617549067870046e-01 2.126766391746326978e-01 2.994460888850528340e-04 1.515509128092846613e-03 -1.620467193490427449e-01
2.103037035223951356e-01 2.009734848232989646e-01 2.142675914950200045e-01 2.543126564486244902e-04 2.387247804362507050e-03 1.703036954536864545e-01
2.601719334872186207e-01 2.062489801335803674e-01 2.158909224801093818e-01 1.841314972046780398e-04 2.976674744559489917e-03 -1.435880678576213765e-01
2.675483779008511198e-01 2.104668416379285312e-01 2.174434208492186382e-01 -3.571969580570968179e-05 4.149335582523932392e-03 -8.270643383122044945e-02
2.897786390552949953e-01 1.328635282821405417e-01 2.191298819895549643e-01 1.895622260476672368e-04 4.873178624676652131e-03 -1.888419218613487105e-01
-7.260929446640460028e-02 1.704642847708725539e-01 1.998952188855308010e-01 1.468330747838869400e-05 -4.237824097619365994e-03 -1.641129304548284984e-01
5.383158682413936164e-02 1.976741818753130209e-01 2.015419009685214813e-01 5.994803172222471004e-05 -3.977833696680659406e-03 -6.983543330272390381e-02
6.211062151939552439e-02 2.542348609638048762e-01 2.033404941039568814e-01 4.760231629779646261e-05 -3.833545243484116818e-03 -9.897209971954168406e-02
1.623046042512331644e-01 2.574767415323156450e-01 2.050617959898119458e-01 2.853093837497867240e-05 -3.073562826093230449e-03 -3.745089440040750423e-02
1.524010618411084095e-01 2.167818322304169154e-01 2.068805460626430559e-01 2.841891021248118209e-04 -2.719591665103858642e-03 7.265644294510122114e-02
1.933082175510548451e-01 2.788724639614034717e-01 2.087010908299041234e-01 -2.472282559942169254e-04 -2.381430354845587294e-03 -1.353319622323418958e-01
2.722797205170510160e-01 2.272735186251092776e-01 2.105019871632349826e-01 8.448846922142154556e-05 -1.815302550089235422e-03 -1.629369551246960257e-01
2.653583297628388515e-01 3.005402172331607669e-01 2.124216801902243379e-01 1.697041677453404182e-04 -1.704643890512521839e-03 -1.585640635520661201e-01
3.092517738725426013e-01 3.142859990641375112e-01 2.143531538006955839e-01 -1.625306196874396587e-04 -1.299718595474897744e-03 -1.492249064531404046e-01
3.646362501340570383e-01 2.755217705767908365e-01 2.162714325193896836e-01 2.355641270593799544e-04 -1.164726513019908715e-03 -1.316417313681957080e-01
3.109437526843888411e-01 2.954612954967419380e-01 2.181926200448714437e-01 1.276326309125832757e-05 -8.440390563500511315e-04 -5.904127883755280054e-02
-1.742269066802696817e-02 2.653543551811592405e-01 1.994438202033569918e-01 -9.601796234892351724e-05 2.031338392863061681e-03 -6.945246050779918523e-02
7.529369461783008699e-02 2.918734847374591657e-01 2.012449220836287078e-01 -2.256958756762111082e-04 3.629857086251006126e-03 -2.565697935970255306e-01
6.836103531287977819e-02 2.873005656992375645e-01 2.031706040560094517e-01 -2.635698675496158695e-04 3.409974086029699068e-03 -1.901043148838194030e-01
1.864410839101147688e-01 3.413972835121902305e-01 2.050862986777421404e-01 -6.809959496541384159e-04 4.257645464604096520e-03 -2.320407176671674399e-01
2.664935253567416451e-01 3.564476469501003941e-01 2.069945695080681602e-01 -3.464321418148973153e-04 4.684598561069086044e-03 -2.282328917909308419e-01
3.000738377966563064e-01 3.631257501704440172e-01 2.090360476855745997e-01 4.162845572410496639e-06 1.891982300931744319e-03 -3.148869545389585967e-01
3.535787635635222470e-01 3.297371691822285067e-01 2.109213874365781782e-01 1.568123199750850397e-07 1.977619687489450256e-03 -3.149472561291261075e-01
4.189620408477379709e-01 3.436739598240549087e-01 2.127857883586138366e-01 2.052543802937242495e-05 2.608018604473834410e-03 -2.875882601982054365e-01
4.426074776799278077e-01 3.196509226042659746e-01 2.145674290818592733e-01 -1.444327561228196590e-04 1.837350094755921389e-03 -3.326172049502018613e-01
4.574700878360341560e-01 2.541489649160914022e-01 2.166222970808110992e-01 4.527665958760253967e-04 -2.519081916709241774e-03 -2.345002481206816813e-01
5.494929016431637780e-01 8.296935229987002780e-02 2.182706427233703228e-01 3.143877480960276813e-04 -2.206446443644419957e-04 -7.041895366460704242e-02
5.875164412802241776e-01 1.035392191134519163e-01 2.199726071784496306e-01 -2.430243327446690810e-04 -3.022628034362048223e-03 3.940792044154336343e-02
1.989954877976359005e-02 4.349894803891072859e-01 2.013613940496288834e-01 -4.611916719528178984e-03 2.032591168117379651e-02 -3.740707729573044538e-01
-1.846098919950153738e-02 5.805144367796176708e-01 2.029645360110847174e-01 -3.657115997198263045e-03 1.836694989824045124e-02 -4.530459670965379382e-01
1.894252856498427826e-02 6.235914542083519363e-01 2.045555203725804572e-01 -2.827333129449651535e-03 1.601135038887249035e-02 -5.083476982083661166e-01
-2.355227064705416040e-03 6.661959476837491234e-01 2.060617611372628222e-01 -1.738822938690866250e-03 1.343402693411924892e-02 -4.588406656830961161e-01
2.913185993773317883e-02 7.495668405890540953e-01 2.074607269156534262e-01 -1.273254484031116325e-03 1.004893564296803661e-02 -5.051095091745048116e-01
7.250180577377905722e-02 7.316410060870769394e-01 2.089754108596348914e-01 -1.833910169386164502e-04 6.943555004633439158e-03 -5.584994809967950280e-01
5.592811387074728136e-02 7.128141123068811869e-01 2.103850052615173216e-01 2.372967830196246299e-04 3.290974406343798783e-03 -4.698280218980279699e-01
1.631835510710344106e-01 7.029268773293861905e-01 2.118044479672663849e-01 3.673894109994408903e-04 -7.190081152739667344e-04 -5.516413885228347302e-01
2.160439520445743000e-01 6.597136665857457061e-01 2.131750366513200379e-01 2.322922676596447309e-05 -5.126103185577911454e-03 -5.228753713516299806e-01
3.420992594459912328e-01 5.710588457308960475e-01 2.146197560885371169e-01 -5.118874323630731598e-05 -9.126891434542708931e-03 -6.727720359445668041e-01
-1.753230946400241297e-01 4.046673414242092925e-01 2.062996760246092465e-01 -1.746000920103541691e-03 1.640030662977729967e-02 -5.451507261131717241e-01
-8.358835795363361854e-02 3.526604041222720642e-01 2.074332429202179751e-01 6.879463789493025637e-05 1.262780443554966520e-02 -4.863308730605166441e-01
-1.521127002289124341e-02 2.644247091733649691e-01 2.085777524336023259e-01 5.943607371399092744e-04 8.322111001732716493e-03 -4.894892379527835402e-01
5.247912381344851940e-03 3.389748074524653876e-01 2.096317889797223444e-01 -3.978238172120415295e-04 3.648074789166432137e-03 -3.433942058012688370e-01
7.754744760359864875e-02 3.014158695680788647e-01 2.109799980754854531e-01 5.505317995838027514e-04 -3.911596545136529382e-04 -3.071683712813467193e-01
1.171697274872574024e-01 2.417205471198999311e-01 2.122978154978160670e-01 7.457831440662378601e-05 -4.909285004175713805e-03 -3.798291721089897544e-01
1.491012081538206080e-01 2.232227568672167095e-01 2.134771463679897563e-01 -1.969938453194496541e-04 -9.401692494295775873e-03 -3.052466160630596392e-01
1.944417405721623193e-01 1.699976860847382532e-01 2.148444453749444594e-01 -1.070002809573514582e-03 -1.301674031468092081e-02 -3.446308885722260129e-01
2.312293928929113895e-01 1.306573279558967682e-01 2.160942395879048017e-01 -2.123140476852907778e-03 -1.625962818206346319e-02 -1.762819810738324444e-01
3.146802262670110317e-01 1.228017113102138902e-01 2.175553039930436805e-01 -3.421802186208220114e-03 -1.896241975349194711e-02 -3.785856139933376219e-01
-2.592436388339059428e-01 2.454563558710078364e-01 2.006448975666260681e-01 -5.338081075598148781e-04 7.220231433954859591e-03 -4.187252405781693443e-01
-2.582579713278513878e-01 2.258869068239793276e-01 2.021729781228247536e-01 -5.746277096482033456e-04 4.139002969153565692e-03 -3.196309384608699844e-01
-2.879134789337539080e-01 2.932755011440719151e-01 2.035738542343695223e-01 -1.380577354231435220e-04 3.392771705297121208e-03 -4.795449710363249296e-01
-2.050601737469147090e-01 2.335632662879793819e-01 2.051988813792823829e-01 -6.842103052983341463e-06 1.444094327140969195e-03 -2.446304246935427362e-01
-1.172316049844266683e-01 2.577018123421689899e-01 2.067431710029220548e-01 3.193537190113021065e-05 9.932965585133673482e-04 -2.224948088079891917e-01
-8.397809164734390541e-02 3.252102942252775297e-01 2.083885797484910096e-01 8.484224464892835228e-05 6.981492984068700825e-04 -2.470567411353344067e-01
-1.877987353436489509e-03 2.258657916357169337e-01 2.100522879818574884e-01 2.663851156762559597e-04 -3.896890334804914121e-04 -2.425733319002306709e-01
2.260031910520091114e-02 2.823177598851308590e-01 2.117310006534731115e-01 6.764288212471100529e-05 -1.691711273239041241e-03 -5.316937253603792879e-01
1.016643105917807294e-01 2.943447583400636836e-01 2.134754227184482711e-01 -1.165279293290567066e-04 -3.746398417956161935e-04 -3.913442457192987112e-01
2.097144911370800724e-01 4.222283661053465309e-01 2.152761975175815357e-01 -2.605406499770677965e-04 -1.630925019990567878e-03 -6.422922774066506246e-01
3.530876883854141002e-01 3.522319513220594223e-01 2.170363699563678250e-01 6.819033252528024268e-05 -1.815974008956572176e-03 -6.983444410153991644e-01
2.330926941311587675e-01 2.916352247125589270e-01 2.188226252147967843e-01 4.904212141276861761e-04 -2.613902421594826737e-03 -2.869339876690839564e-01
-2.492652576069419590e-01 2.930417407194891299e-01 1.996634007156508073e-01 3.433011737149882611e-04 -1.038161976868569444e-03 -4.161808167177780682e-01
-1.802206742621995650e-01 3.591781585128712706e-01 2.016450304372111035e-01 -1.517111387129298260e-04 -1.259722035828132140e-03 -2.425296232132378438e-01
-1.061964359211475251e-01 4.085738421952034294e-01 2.035391759685152846e-01 9.143793301272408599e-05 -8.431479465833465739e-04 -2.828574946026937154e-01
-9.940316186265159282e-02 2.650197221687747851e-01 2.057446736911852647e-01 2.277766620453869459e-04 -1.554530810851668075e-03 -2.980701713224570559e-01
-2.744002932230457312e-02 3.050118325929196961e-01 2.076579055677882923e-01 -1.432179743133233881e-04 -9.577165658268927762e-04 -4.227892453096665504e-01
-5.366598578610527748e-03 1.908781388158030390e-01 2.097670155439279593e-01 9.476531264068461602e-04 -4.746844245039371127e-04 -3.908432813961649765e-01
1.283478279633698260e-01 2.283282165223567139e-01 2.119457428949069189e-01 -1.405378300869320385e-04 -7.603575324290272157e-04 -3.220022774189033044e-01
1.765215079354823247e-01 2.885757218190959095e-01 2.141255398896341755e-01 -4.038033569435280621e-04 -1.015123090247394997e-03 -7.052687817166497508e-01
2.820806445288728259e-01 3.166613421463332911e-01 2.162392035897056641e-01 3.943052264038385073e-04 1.956847034562152134e-04 -7.776137394139842618e-01
3.684945907965557210e-01 2.834206202976183864e-01 2.185465104921894830e-01 4.100660879174140177e-04 -1.337700548188736039e-04 -5.708978749525871477e-01
-1.495316648395522696e-01 3.297245652875631095e-01 2.002904200717739447e-01 -2.138595735697040748e-04 9.141717521863648767e-06 -6.332801635582542277e-01
-1.267841792055421912e-01 3.412465709059547270e-01 2.025645166508149853e-01 -6.535059479123200333e-05 -1.539485347709293862e-04 -6.639220373801655306e-01
-4.971684359838409589e-03 4.771948882039404038e-01 2.048745086444387908e-01 -2.419688946072241136e-04 5.799204398108376421e-04 -4.526347286627172561e-01
7.408383799435567379e-03 4.082272292626727417e-01 2.071033155668174364e-01 3.172019801670626139e-04 -3.796764509779547566e-04 -6.277427456049294863e-01
2.815743727348059625e-02 3.879137749205694985e-01 2.092884829557012383e-01 3.497086398927918096e-04 -4.768178437599165215e-04 -6.938602948152313710e-01
1.558519556722514632e-01 3.550125034923660161e-01 2.115431683435352039e-01 3.442648720720236261e-05 -1.940750632033445367e-04 -4.432995914784755853e-01
1.377628785762950447e-01 3.268336264475604769e-01 2.137137160060705865e-01 4.053985616679987966e-04 -1.418729136088370040e-03 -2.520666092305553496e-01
1.927806390857345065e-01 3.285467893991748656e-01 2.159750449750129087e-01 1.734645816271982452e-04 -8.226097326799736284e-04 -2.728572147406235215e-01
1.760382344120156595e-01 2.728295543815910107e-01 2.183697882046512495e-01 1.794738051867396649e-04 -4.493219897707494939e-04 -4.098396203656327619e-01
-2.174902680738500516e-01 2.964597411461530330e-01 1.995115000329795718e-01 4.496246097352876541e-05 1.757217439787097735e-03 -2.127744995636134950e-01
-1.673487233705810984e-01 2.597136499925182807e-01 2.017693723100867365e-01 -2.370590123643037759e-04 1.182766600031912637e-03 -2.719501781893626235e-01
-9.553184048163049225e-02 3.335369239158154087e-01 2.038733842893584725e-01 -2.379049527212667779e-04 8.586210452545907151e-04 -1.792291150432498148e-01
-1.039551996312709503e-01 3.653915391063701779e-01 2.060230397818565429e-01 -5.169797513407527276e-04 4.678821647873068236e-04 -2.726817492218915895e-01
-7.503049571962845665e-02 3.369849699450055414e-01 2.080202955404134024e-01 -7.046425856006576806e-05 2.357182263301949238e-04 -5.087756190209062890e-01
-1.160548683567578544e-02 4.036525137218762160e-01 2.099726050735042371e-01 2.340887177111195927e-04 3.091759888123120939e-05 -2.386467931338479009e-01
9.567895660476845310e-02 4.197808284817011737e-01 2.121716061554138055e-01 -3.136572579472833881e-04 -5.098650866580130931e-04 -4.283649420465424074e-01
1.638789652003569963e-01 3.689861924031193063e-01 2.140236985432436012e-01 3.255353249595379630e-05 -1.186193368731312727e-03 -3.639774942194357044e-01
3.069910954604392339e-01 3.438742342249706541e-01 2.159720540063232441e-01 3.331863048220861019e-04 -2.116425447868439287e-03 -5.961902661827473970e-01
3.688205112080212844e-01 2.831634113797129038e-01 2.179393750664735951e-01 6.652817756964708035e-05 -2.970002352456195538e-03 -4.994075626929767586e-01
-2.303554542488464585e-01 2.287212011775120735e-01 1.998607840231326205e-01 2.243248557427315610e-04 6.406177999369298132e-03 -5.856171212738341403e-01
-1.025606852300354199e-01 1.320118913227868174e-01 2.017158620084850140e-01 -4.709525182096215489e-04 6.164343590969211147e-03 -5.442331099654009741e-01
-9.425689418380114870e-02 1.725595508604477191e-01 2.036670422911016631e-01 -8.807841178452586323e-04 4.008137325737707798e-03 -5.605348652338550952e-01
-4.956619447852118887e-02 2.081459372344331427e-01 2.053837525248658480e-01 -6.226577582404411223e-04 3.810697400314828637e-03 -5.805250392687739680e-01
4.050712978128762076e-02 2.250224600184097812e-01 2.069856950900618719e-01 5.966013688358509561e-05 2.451983354939224306e-03 -6.006164375460691929e-01
3.414024330405232566e-02 1.665335290703001403e-01 2.086194903809183154e-01 -1.385039212616986806e-04 1.300324860908799382e-03 -4.685522647504899996e-01
2.317326337467992547e-02 2.114735765096510400e-01 2.102692112323827356e-01 -4.876831208876230314e-04 9.287756693771908939e-04 -4.959933386891780538e-01
6.411371713650929061e-02 1.621863931407953874e-01 2.118019668030014513e-01 1.827147255395623752e-04 9.179351398286060906e-04 -8.092692172460966837e-01
1.121601489723501738e-01 1.432412218114343383e-01 2.133574141132656976e-01 -3.456128831560024550e-05 6.624939153848626375e-04 -5.966410397097584584e-01
2.020180523390986416e-01 1.930857070689902810e-01 2.149097082426585370e-01 -6.003185860679447925e-04 1.664048081548214798e-03 -8.435855398188464305e-01
2.356181413712901684e-01 1.989024714853329656e-01 2.162877404459709885e-01 3.713746913199395525e-04 9.711568047374339544e-04 -7.697411758960956973e-01
2.969099534978490995e-01 1.807891504742111521e-01 2.177507649255662758e-01 -9.944734952434814280e-05 1.583267130930252715e-03 -7.294597764204826529e-01
2.766340888109461993e-01 7.052617686904552596e-02 2.190682926929509167e-01 4.342439258950771437e-04 1.627675690491105350e-03 -6.727472439113003633e-01
2.372574985352837729e-01 1.084244036486123330e-01 2.202543905086424281e-01 -1.342781757023138814e-04 2.416644959540815638e-03 -6.629332422853007056e-01
-2.295992613021710371e-01 1.833434429150997691e-01 2.011195389571088232e-01 -1.068107915780477273e-03 -1.125806631522706901e-02 -5.216780659046159618e-01
-7.836150369304629992e-02 1.864367775197516008e-01 2.023260161310135308e-01 -7.175813975088845458e-04 -9.857699515890192693e-03 -4.506205309713334772e-01
-1.511939410184210963e-01 1.828388109291078645e-01 2.033468848764116155e-01 -7.679467734313101361e-04 -9.391270084964670889e-03 -6.240486755389887952e-01
-1.371306758139332060e-01 1.441567560335484943e-01 2.044233677176711117e-01 -7.349314327292037893e-04 -8.115176091569106451e-03 -4.243301584017611927e-01
-9.841657405835667338e-02 1.257827765485953764e-01 2.055462166271104230e-01 -3.307331485387786005e-04 -6.452783138120096219e-03 -3.655577237378984101e-01
-7.762472952624976941e-02 1.474454338956211197e-01 2.065246634255148983e-01 -3.298428330809476550e-05 -5.104293289884227064e-03 -5.199649290036177929e-01
-6.994419666145791636e-02 1.300079978964610028e-01 2.073579957018558684e-01 8.575644955368854282e-05 -3.860631470669095931e-03 -5.596933237481452883e-01
-5.035146148583492798e-02 1.782733990320138351e-01 2.081998097657541957e-01 -4.161319634862541898e-04 -2.431686416331529325e-03 -3.708196146890653799e-01
2.481288412183270398e-02 1.283091032986663493e-01 2.091109789552280662e-01 1.355868580487162660e-04 -5.288062890867148988e-04 -2.844817388474033537e-01
6.641659875464783758e-02 1.555669721707197972e-01 2.098493572720898648e-01 1.154294833641129046e-04 8.085207001448789944e-04 -4.282181147863479143e-01
4.806290504574681904e-02 1.245293619035553051e-01 2.105451355331818264e-01 1.802610681056908334e-05 2.356670390496288896e-03 -4.679996140196565624e-01
6.562518499729005916e-02 1.174343278750821090e-01 2.111811205293711580e-01 -1.485597688817308652e-04 3.727120081248022198e-03 -4.784829220311856424e-01
6.883006819120396358e-02 1.103224630325248395e-01 2.118071919254398972e-01 -1.334543439294266862e-04 5.103399713544333645e-03 -4.723052153615568960e-01
4.461463737839646559e-02 8.370717452234137379e-02 2.122123497179743135e-01 -4.694360782023311086e-04 5.801813025721445222e-03 -3.657029914135631610e-01
2.985670164755070341e-02 9.977622925310675184e-02 2.128647782784595655e-01 -4.869310790532243249e-04 7.762965908024130855e-03 -3.977007344541592104e-01
9.305839792781853137e-02 1.007258280230747399e-01 2.131960213270104876e-01 -6.906169732193663318e-04 8.296716150060659198e-03 -4.791868372261254283e-01
9.771016613148278407e-02 1.145635084632804293e-02 2.136301578666942591e-01 -5.837681309044879044e-04 9.335437645704065118e-03 -3.749058159188837225e-01
1.337519685204573427e-01 3.213471852252430816e-02 2.141054608353774591e-01 -9.097828930092859145e-04 1.067482593518556851e-02 -4.135440753691145832e-01
1.284969252511136417e-01 1.295852671852668059e-02 2.143038679110388922e-01 -1.243195301879341510e-03 1.103239465183039440e-02 -4.443043934939447381e-01
1.527694145951595250e-01 -1.058287382845025937e-02 2.146295217933218424e-01 -1.423522526667519690e-03 1.182909893540845872e-02 -3.488521443306287217e-01
-1.374799866276792959e-01 1.796616139010513702e-02 2.056198705695548301e-01 -2.531154927129171915e-03 -1.742966838059487045e-02 -3.216054360012052249e-01
-1.526655294872405755e-01 -1.546262065245038349e-02 2.058144188668690200e-01 -2.475037674409869774e-03 -1.661299279722514705e-02 -2.445450987320031688e-01
-1.102737509335677824e-01 1.421004591111444358e-02 2.060202594269598952e-01 -2.433195115703786805e-03 -1.589603534878502450e-02 -3.148509644922084516e-01
-1.209740456341230341e-01 -8.749080144938796433e-03 2.062786200422692673e-01 -2.049084151043419587e-03 -1.579684294546245676e-02 -2.082970513580390537e-01
-8.802432752401742611e-02 1.149522695324181956e-03 2.064493953995282793e-01 -2.118961198888823748e-03 -1.503967759070036492e-02 -1.699348070429050339e-01
-1.201854524523070233e-01 1.018795642214202594e-02 2.067708938685985931e-01 -1.661481929093820784e-03 -1.467058204029737106e-02 -1.528551186872840750e-01
-1.225791749841763090e-01 5.401462638563615803e-02 2.071403262814042190e-01 -1.610872165521600504e-03 -1.359430055419156951e-02 -6.416698404423426538e-02
-1.222434596246601279e-01 7.176210785420047977e-02 2.075639976140496445e-01 -1.176211670382211472e-03 -1.262096999323037219e-02 -2.118629349835833842e-01
-9.342088114605916205e-02 8.898375833762534048e-02 2.080412454500187303e-01 -1.069620042078129468e-03 -1.082462348110333622e-02 -2.101000207490956728e-01
-9.136545759780860532e-02 7.567905730245839957e-02 2.086809263206702014e-01 -5.747426263392419127e-04 -9.070807947132849755e-03 -6.793378754194240310e-02
-7.975231086699487160e-02 8.024384567943811108e-02 2.093428415304107171e-01 -1.438801239981774872e-04 -6.540536756366319843e-03 -1.614192722059916152e-01
-1.994460074076099751e-02 6.045097002146592596e-02 2.100580334743414324e-01 -4.755976375439288303e-05 -2.573109394868546788e-03 -4.647106112897055746e-02
-8.341864657334790989e-02 7.543236535810855792e-02 2.108345974198960193e-01 1.973355505080729452e-04 2.048493346619926093e-03 -1.581974445723128841e-01
-8.295148087483167343e-02 7.207278533747199512e-02 2.115633361137242430e-01 -4.927502766473106609e-04 7.712989749444956571e-03 4.882756382545491020e-02
-7.295961158768260457e-02 1.291257535498745723e-01 2.124394748594504723e-01 -1.647131143363503173e-03 1.353623657406478366e-02 -8.011943515277224204e-03
-1.183382927077036295e-01 2.274634228187677187e-01 2.071167660928298071e-01 -1.454375439154385972e-03 -1.184967458679853439e-02 -1.593485985876530453e-01
-1.056912894927009849e-01 2.596123782871851415e-01 2.080308482872987863e-01 -6.161450643738914344e-04 -6.386940738253558784e-03 -1.656363824947686691e-01
-1.137729541811118988e-01 2.653043866978369025e-01 2.089268885834890122e-01 3.853275914747429686e-05 -1.480526141067777055e-03 -1.855259018766350909e-01
-1.442513952926653964e-01 3.039216199106629102e-01 2.099512534427321886e-01 1.418410085818773685e-04 3.913299312863200048e-03 -1.957516770189858257e-01
-9.898620582710682125e-02 2.715297389415727292e-01 2.111005083577915387e-01 -6.427730417514685140e-04 8.880117763799467989e-03 -7.400501374308256219e-02
-1.453152942726388119e-01 2.807024968900315720e-01 2.121343692307808837e-01 -1.564924318325982200e-03 1.314668051661755689e-02 -1.965789047571553094e-01
-1.118896757486163573e-01 3.454620297337446244e-01 2.132796201147891257e-01 -2.273970050970593789e-03 1.785334241703794358e-02 -7.600901074710790517e-02
-1.244624403607796914e-01 2.920756261033257140e-01 2.055219987651817348e-01 -6.642071551213282092e-04 -1.025680523258683599e-02 -1.233330321973178795e-01
-7.695786818782357486e-02 3.100579895296890487e-01 2.066626035928673666e-01 -2.942008646524650736e-04 -7.868600439690632761e-03 -1.068982370024043060e-01
-6.662443918189536740e-02 2.946419835445233115e-01 2.080008364361619067e-01 -4.797566620663201351e-04 -5.793659991696074700e-03 -1.284008367601998102e-01
-1.019285277049015725e-01 3.135508964822589784e-01 2.092310585132666212e-01 -5.313923236008194235e-04 -3.423560259139677136e-03 -1.126187249759141445e-01
-7.783565330454048081e-02 3.521524414647051460e-01 2.106646037031860708e-01 1.786499182560008492e-04 -7.669730571109236329e-04 -2.417607151697822032e-01
2.770008460850142268e-02 3.609543872810352383e-01 2.119796578080140326e-01 2.017125451524838878e-05 1.638916374254347592e-03 -2.559370257151810102e-01
2.523326217889364231e-02 4.113749213635379820e-01 2.134702525925309402e-01 -8.481140148623297556e-04 3.424114807528300108e-03 -1.893829477964082131e-01
4.915630055123463432e-02 4.766190146946563400e-01 2.147200223984723766e-01 -6.172979106351539217e-04 5.519855362760387428e-03 -2.290554076413555407e-01
1.916683177707027841e-02 4.431364945762991114e-01 2.164823324531094384e-01 2.510641183669554453e-05 6.655066005850899039e-03 -7.169386854197216941e-02
1.496479366072348688e-02 4.365411990678713106e-01 2.179310812552127108e-01 -5.281133219408553530e-04 7.812235025978455337e-03 1.312380097894809972e-01
5.830803699093490416e-02 4.155650942782021517e-01 2.195748111831272165e-01 -3.440708040338327084e-04 9.302496689446118627e-03 3.154571785813826273e-02
-2.600850823097929365e-01 2.853384902451392979e-01 2.006070442913045482e-01 -5.700190006824037644e-05 -6.223939151502172300e-03 -1.257790531401803136e-01
-2.354289273557170770e-01 3.682704533175099604e-01 2.022305911402105250e-01 -2.590781283017537040e-04 -3.751587495121090632e-03 1.198658829290495664e-02
-1.858206485719313128e-01 3.288768173803290340e-01 2.040295869689487396e-01 6.258865059461669921e-04 -3.172522914900915546e-03 1.080969589194234054e-01
-1.170637078665923425e-01 2.667641545554538252e-01 2.056895428726295272e-01 4.336241019211900419e-04 -2.367931244177900758e-03 2.286729893479454434e-01
-9.685847416360256201e-02 2.634538281031028051e-01 2.073951700308359070e-01 1.055084969199454793e-04 -1.911706046004820608e-03 1.699412726971739895e-01
-5.136702386386807206e-02 1.958061894630885313e-01 2.091722788084760531e-01 3.762881458373991362e-04 -1.269151344178849313e-03 2.010426881462596405e-01
-1.901219973456463874e-03 2.476145065279849733e-01 2.106540436828289731e-01 -4.108351307325481790e-04 -1.461107706559063274e-04 6.639893938301019705e-02
1.833574541033478403e-02 2.112414411071426579e-01 2.126115200182301379e-01 4.138127149468644617e-04 3.005317352547975701e-04 6.854358948010436103e-02
3.650053575309203380e-02 1.267722227093511234e-01 2.143122847943454978e-01 4.262713505605421143e-04 -9.001008262492137739e-05 3.354103807881938376e-02
1.397736684152851572e-01 1.980210551300947142e-01 2.158199073938976142e-01 -1.168875699534545028e-04 4.531689023995145917e-04 -1.669594985441919810e-01
1.576629609968647483e-01 1.710091442987646537e-01 2.173599186654509019e-01 -3.976558580349940080e-05 5.237444016609750204e-04 2.432222220428203324e-02
1.473445234960127359e-01 2.478313376280666391e-01 2.188315481083430436e-01 -8.184539496809238449e-05 8.109205064361649988e-05 8.083805842161888300e-02
-2.320335632755547439e-01 1.679736593067600037e-01 2.002279070509876968e-01 1.186579887331745160e-04 1.388156441563649559e-03 -4.552913689439568729e-02
-2.396370239087662057e-01 1.099700105954410645e-01 2.015708227318330770e-01 4.091438364971594047e-04 1.432568593991477698e-03 -2.462470955281879093e-01
-1.479697295747756658e-01 1.156562150009130124e-01 2.028923937309585757e-01 2.605042754963372213e-04 1.312102306665916722e-03 -8.460219439983145129e-02
-8.175522411319047222e-02 4.526612218330169218e-02 2.040227794214659052e-01 1.044713597532843013e-04 1.304703273300694298e-03 -1.146737738324200839e-01
-5.535379758525308530e-02 5.676565838230487882e-02 2.052507061983332437e-01 1.783210385801304394e-04 1.076262381831988692e-03 -1.189339095732965118e-01
-1.012127348358460993e-02 -7.758866920715781074e-03 2.063453126955135386e-01 2.449113743552863535e-04 9.865532385400954847e-04 -2.090907304271720779e-01
9.215128663013775340e-03 2.043770425891551501e-02 2.072560619025086703e-01 -1.037035461166121032e-04 6.893703284207287852e-04 -1.968300866801191984e-01
3.804645133350287312e-02 -5.501721573503710883e-03 2.082096564894638235e-01 -9.513080049950880425e-06 7.266204728769839680e-04 -2.603491842857549865e-01
3.535526336086462773e-02 -9.609574578634344499e-03 2.090977686036898930e-01 1.395617228975704050e-04 7.035997670917395856e-04 -2.642660998743891487e-01
8.525689758777818539e-02 -2.813073100727746245e-02 2.098363450543506148e-01 6.249329092493771784e-05 7.947642944546767828e-04 -1.947316560375937089e-01
1.254891404992750370e-01 1.330760990328126898e-02 2.104837192672673885e-01 5.672213994744514250e-05 6.670812829521483977e-04 -3.836189196005620472e-01
1.362082498223133320e-01 -2.739756755761363349e-02 2.110507280869455271e-01 1.846671270075803144e-05 7.573968359012427792e-04 -3.758806699438712040e-01
1.204181275816612884e-01 -5.512738841743662632e-02 2.115682255284793145e-01 2.535901223886920523e-04 9.495651359900355096e-04 -3.937167961909191494e-01
1.313372734265757513e-01 -6.761157640849470296e-02 2.118795137953770058e-01 -3.577972109824995679e-05 8.633431628871742662e-04 -2.037244163546942932e-01
1.363589846770833225e-01 -2.596276940653954174e-02 2.122574479545142889e-01 4.663742274246217143e-05 7.135081388077743701e-04 -4.158694717349335490e-01
1.724496491589965486e-01 -5.922551831412764534e-02 2.124541116473704361e-01 9.902449187172938786e-06 9.215726800586789176e-04 -3.199098218419169637e-01
1.492221091631201202e-01 -8.187100791466715710e-02 2.126291095964844002e-01 -1.655626697159511850e-05 8.626296389967720102e-04 -2.784174507020225620e-01
1.542334494736400385e-01 -6.580270521639754178e-02 2.128103878219506084e-01 -7.203521766656373912e-05 8.239569564711455955e-04 -3.237641982047142486e-01
1.592107147683403667e-01 -2.761464445992059188e-02 2.130504814691904225e-01 -4.127699924725480786e-05 8.873423796577789048e-04 -3.813317809252295132e-01
1.773409842476083298e-01 -7.667375462617337378e-04 2.133364068495198218e-01 -6.629164231783691339e-06 9.110244849657356172e-04 -3.601355946562015409e-01
1.715949394831909058e-01 -2.976536604886900056e-02 2.136833295308344649e-01 1.480711472424546104e-04 8.556726569456703105e-04 -3.603653835474553424e-01
1.826886292142466395e-01 -8.345151718277069031e-02 2.140285210807659766e-01 1.299696252225935754e-04 9.711914676724119110e-04 -1.927371283449255124e-01
2.378852166550433078e-01 -3.347707115431288599e-02 2.143158630857850411e-01 -2.622345233614219325e-04 9.659678920840469082e-04 -2.293639924163683730e-01
2.419019847461189310e-01 1.370282252349180711e-02 2.149354969294515194e-01 -7.811471256571109851e-05 9.088578988745439190e-04 -1.171244403547576918e-01
2.173267160980089652e-01 4.768720513122830240e-02 2.155665514645737080e-01 -7.598309705235961890e-05 9.847813839934408883e-04 -1.653991938375538595e-01
2.531084737810809782e-01 8.194098058260834705e-02 2.162758513500807611e-01 -1.750217823055873927e-04 9.329857151974332852e-04 -2.276469100533670409e-01
2.473239177462146221e-01 1.314464500883797404e-01 2.171262144385960324e-01 -2.458969372392932263e-05 9.932618250983130809e-04 -2.970069494128748100e-01
3.175240812396128431e-01 1.532653470932818507e-01 2.178896457291495947e-01 3.099893393105946526e-05 1.353526191998064660e-03 -2.488681643682900957e-01
3.307941029779002950e-01 1.581119951724687944e-01 2.188007663743244957e-01 -5.890327997922764955e-05 1.308755572772689942e-03 -4.026735141113581551e-01
4.084960663624550015e-01 1.455272841295660313e-01 2.199108909317148419e-01 2.218775093629112688e-04 1.482491301436604037e-03 -6.870883110356343915e-01
-1.245732741461823279e-01 1.149797025959353042e-01 2.007832580972553904e-01 2.592872555713953450e-04 8.902713656132089665e-04 -5.671540486344777143e-01
-7.177610621820564030e-02 1.282169198031365420e-01 2.016483541585196715e-01 -5.295920314032972472e-05 1.487903084712177866e-03 -5.849543565777103327e-01
-2.569891951622160428e-02 1.142946677858720783e-01 2.028419036924366536e-01 -1.352874755598924036e-04 1.080101191327848724e-03 -3.256211936479330715e-01
6.354433098537373703e-02 1.750019447122461713e-01 2.039876403741857636e-01 2.494473046266591017e-04 1.309001763971550693e-03 -3.865497006772379840e-01
6.314446055929127943e-02 1.293125568089465161e-01 2.052524865129344844e-01 4.393311542828739645e-04 1.402495761793031781e-03 -4.652589311422532514e-01
1.209743112730566339e-01 1.951245336413620357e-01 2.063655835158600960e-01 -6.965551293235152904e-04 1.703582477912813633e-03 -4.103942732382342418e-01
1.498422465145733962e-01 1.694991793724124340e-01 2.077943383474610273e-01 -7.814235290588319842e-05 1.494132991084828367e-03 -3.948461682946382001e-01
1.786248623091230836e-01 2.126964954687942944e-01 2.091593823411750930e-01 7.239533265240871186e-05 1.723042159373975538e-03 -3.734041190072439620e-01
2.178454242771286631e-01 2.086201584326068947e-01 2.106086902669139782e-01 1.100462037346013294e-04 1.804620953421393536e-03 -4.346217109625079567e-01
2.657064277954444553e-01 2.248953692212037059e-01 2.121455447790626669e-01 1.087566034147609479e-04 1.466805328131419233e-03 -4.662431082485989364e-01
2.926457455887382375e-01 2.229858447646238528e-01 2.136107831873431673e-01 7.435861947857680193e-05 1.832955834799689923e-03 -5.095540604355358605e-01
3.309611907204920156e-01 2.575633873269306262e-01 2.152699272369419381e-01 1.458289050255850733e-04 1.388651138635883017e-03 -3.995794957166888262e-01
3.062994791198753730e-01 2.882118947292584554e-01 2.168243585359098113e-01 -3.959717375711144347e-04 1.425176757223591125e-03 -4.540043200188517702e-01
3.723139608661446553e-01 2.599241436185883991e-01 2.185575945015057475e-01 2.875762418111602330e-04 1.577422946024628842e-03 -4.229526863955973548e-01
-1.043456253423397095e-01 3.239190797666077204e-01 2.001699841890331455e-01 -2.972597694937908651e-04 1.045824099836834865e-03 -3.240716948781440787e-01
-7.203934954792831635e-02 3.456260064906855334e-01 2.018927339756734773e-01 -1.050856682763324796e-04 7.399230476910911717e-04 -3.313672525432345695e-01
-9.730638317987122532e-02 3.353209347534530926e-01 2.037407592216757268e-01 -9.419411169735423292e-05 5.346964038559010642e-04 -3.642142698158781222e-01
-7.272303150813504841e-03 3.173074423809683631e-01 2.055016315893424816e-01 5.645500360652427321e-04 4.472674173540586466e-04 -3.304012994626448485e-01
-1.247153592667563440e-02 4.006755216926469743e-01 2.075607927555294108e-01 -3.231840947738116973e-04 -7.917503267299095060e-06 -4.391208945098513672e-01
-1.268533654871948149e-02 4.289590423262600316e-01 2.092877715226863500e-01 1.745137458654940699e-05 3.992003826099994011e-04 -3.923508755338792064e-01
4.126136704733814053e-02 4.724990663356331555e-01 2.112162053396787198e-01 -6.693532211737409699e-05 6.943031588037101550e-04 -3.889902760745682642e-01
8.039404738852214127e-02 4.994830635401434349e-01 2.132032057605849351e-01 1.134376531390289230e-04 5.807919683187742202e-04 -4.690975002908743807e-01
1.349903400071732484e-01 5.248747476264263856e-01 2.152176701696882910e-01 4.337135878562590726e-04 5.832885042114109618e-04 -5.364497945536035317e-01
1.432393137300208841e-01 4.480781528891494281e-01 2.173392982007721908e-01 9.195685563389003519e-04 3.696952838136927252e-04 -5.669498500540330888e-01
2.382839228055833591e-01 5.578798082163284322e-01 2.193290799784383682e-01 -4.377059119951688757e-04 1.110966841555394071e-03 -5.600372943658614711e-01
-2.336566158680928318e-01 5.462964533026888336e-01 2.013108734061156979e-01 4.094413312974061470e-04 -5.776446140854707206e-04 -4.884139223160091081e-01
-2.735109286172826559e-01 4.829450674114150743e-01 2.035294650000172845e-01 3.181044558411789199e-04 -7.586979991670642076e-04 -5.864193868415323863e-01
-1.924139312164609983e-01 4.349665313342213624e-01 2.057356618618685906e-01 -2.494757951079923375e-04 -7.239802879631965183e-04 -4.652545082418477196e-01
-1.572179855918021119e-01 4.947761655477072584e-01 2.080044833702462959e-01 -2.874016879793538874e-04 -8.395838967322777086e-04 -5.201953605843558925e-01
-9.845950579222002841e-02 3.862112185375378148e-01 2.100878269061662307e-01 8.364421568626290724e-04 -6.813897110615890762e-04 -2.313428481026267580e-01
4.042226171771357013e-03 4.867127386704231951e-01 2.123883384252868711e-01 -3.863354813490607690e-05 -6.708294479625612075e-04 -3.092737255361071025e-01
1.603549461895427408e-01 4.987940218145938132e-01 2.147371335130991432e-01 4.016059135072273833e-05 -8.537235600472134912e-04 -1.723714909466152190e-01
2.140404552537777949e-01 5.068388947668004407e-01 2.170313740259955382e-01 6.057887648659427251e-04 -9.013969711350574079e-04 -2.355970329375011163e-01
2.847185768017442831e-01 3.723128895872049871e-01 2.193077243729329440e-01 6.118320764656952999e-04 -1.058937055406587984e-03 -1.006527534990316747e-01
-9.744487219795826272e-02 3.506591995840597775e-01 2.016944756243637116e-01 1.284646463511688306e-04 -4.414132547631201427e-04 -1.128034929191228386e-01
-4.344095094460970197e-02 3.391519943965371486e-01 2.042505245837794581e-01 2.745083484107963294e-04 -1.394259321421965122e-03 -4.260804156402088309e-03
2.450303897087287644e-02 2.951927850560859823e-01 2.065709619860354729e-01 -7.908278404665168538e-05 -9.602394958264097620e-04 1.355764733155246371e-01
-1.353938266255227084e-02 2.754669669146204702e-01 2.090090260677394673e-01 3.199192297956634525e-04 -1.064666810401916500e-03 8.596024112070789480e-02
1.803017958829983836e-01 3.342473228473428204e-01 2.111798940823405024e-01 3.864956236691758111e-04 -5.502597630812750256e-04 -8.406018513085608546e-02
2.459137922715561586e-01 2.681786971873113545e-01 2.138491401423642246e-01 2.744811095551797915e-04 -1.197990442882064261e-03 1.615938879642480064e-01
2.874152080132388321e-01 2.039357320223191827e-01 2.163348041808752509e-01 -3.725161204480178967e-06 -1.511914307756870822e-03 2.864572029232307360e-01
4.346099080754783905e-01 3.326642869478783071e-01 2.185413584691602296e-01 7.767453512965904799e-07 -1.074294438309511676e-03 8.746035071905079727e-02
5.747525118997587334e-02 2.761713575183308289e-01 2.000891556975789576e-01 9.317401052490290221e-04 -1.382251115300988731e-03 -5.594824934443008713e-02
6.585754761109507971e-02 2.332077418751754561e-01 2.025602839059016391e-01 4.838597930671569524e-05 -7.728169123131825276e-04 -1.592439598405432644e-01
1.247666507846798695e-01 2.604398201344149677e-01 2.050695655345765034e-01 -1.474212676625520451e-04 -7.444361553085453338e-04 -3.826872261734481917e-01
1.338577086881148070e-01 3.892212959272715045e-01 2.076487767947343688e-01 2.460161264389288229e-04 -1.093949101772593050e-03 -6.970277208857946771e-01
2.525595717209429547e-01 4.385398009056711288e-01 2.102605410556471766e-01 -3.708592612611647963e-04 -4.139341238872240722e-04 -3.363722659702809148e-01
3.683024330094704091e-01 4.602668743945022567e-01 2.127994744508639458e-01 4.779387846426829741e-06 -9.963184800341211202e-04 -3.477747500212477472e-01
3.517358792810253432e-01 5.316116128872219182e-01 2.155351186221044490e-01 1.645114820651351762e-04 -1.376746664693226764e-03 -6.394182889294134364e-01
3.747282979772181832e-01 5.100274601489168669e-01 2.181563927727988572e-01 9.286194482216474747e-07 -1.148066761839603876e-03 -5.405946606218670070e-01
-1.884063380050302328e-01 5.187112691602919767e-01 2.000287347382036507e-01 -4.231394175954629586e-05 -1.591443188547804651e-03 -7.714454961276275835e-01
-1.379330991620675573e-01 5.664406344850162478e-01 2.027524086139437243e-01 -5.818597364480754556e-06 -1.632357919445425690e-03 -8.071023406867915417e-01
-9.079171882168310392e-02 6.351893362775496987e-01 2.053989772056739604e-01 -3.492520759958136285e-04 -1.353509233518874295e-03 -7.719400476522283450e-01
2.935053708477683432e-02 5.923112673727704003e-01 2.080438164375340016e-01 3.433913515024481530e-04 -1.107962792617482161e-03 -6.065746567030997349e-01
6.097415815210402434e-02 5.494113759974265099e-01 2.109404425355150825e-01 4.868680635072221061e-05 -1.852564306564151138e-03 -4.822151555438953241e-01
1.479082363082538099e-01 5.010915706866674313e-01 2.134830485768187125e-01 8.939080469890440378e-05 -1.095607118415891420e-03 -5.819118906989342310e-01
1.453299500197102467e-01 4.825815563876869607e-01 2.163377370371191710e-01 1.997089331855758708e-04 -1.481777483234032744e-03 -4.125804751930352010e-01
1.260483745205700779e-01 3.068646573042628778e-01 2.191427286370049576e-01 7.237389359076254079e-04 -1.478620527794821020e-03 -2.488566923593392155e-01
-1.660659474406944447e-01 4.081111747900562081e-01 2.018340690781456614e-01 -2.373506469911946105e-04 -8.970307430373851421e-04 -2.096860241811571712e-01
-5.389522376705825624e-02 4.874786152419999796e-01 2.046418563098035270e-01 -7.552693459810673856e-06 -1.196572650815177271e-03 -2.790161685413237169e-01
2.570466067992452711e-02 4.312487658437739180e-01 2.074824382947060286e-01 7.307038809701835223e-05 -1.176562452872217945e-03 -2.944817427174682978e-01
1.103963115974632148e-01 4.131752700115123300e-01 2.103029993639810580e-01 1.325914696207192568e-04 -1.058379315731928149e-03 -3.672781937209381176e-01
2.049856284675641016e-01 4.723351999804309975e-01 2.131325470793006827e-01 -9.868948780529520099e-06 -1.047742550292423552e-03 -5.399116974913593658e-01
1.686025564322921055e-01 4.357464608637242054e-01 2.160275134052553891e-01 2.044836046761976632e-04 -1.326008414032508629e-03 -4.230991071463545694e-01
2.426986064004467425e-01 3.633124612902061679e-01 2.188019614940867053e-01 2.889221161311080694e-05 -9.154700351730410629e-04 -5.645461674593835744e-01
-1.681937745085916869e-01 4.085905146358869700e-01 2.014387603143801830e-01 9.732923614257558921e-05 -2.667315473190609815e-04 -5.121877037195642357e-01
-1.766604394737644051e-02 4.892610674400677540e-01 2.044163712807065547e-01 -3.729186834395600684e-04 4.941786969434540768e-04 -6.432964179081346323e-01
6.346697720577471058e-02 5.168681743992206146e-01 2.070781434716843505e-01 2.666383227705630210e-04 -7.323671496792685896e-04 -7.209846593702265993e-01
3.601485073236496137e-02 4.781011777606299917e-01 2.100333669580198293e-01 6.272049041348547876e-04 -7.858166516306855809e-05 -6.468890725670113362e-01
1.522882690859996835e-01 4.927235048196679790e-01 2.128947511098251977e-01 2.549369596366635090e-05 2.545461033105118637e-04 -3.008681681926719809e-01
2.550532358814113776e-01 4.701550471217118554e-01 2.160063932294339906e-01 -8.966916819678633901e-04 3.965245198510752595e-04 -2.163986247419496245e-01
4.194355250552309622e-01 6.669171471842988419e-01 2.187963846333990103e-01 -3.568346166595034552e-04 6.371305206992460566e-04 -5.405102094505139787e-01
-4.359685332667517094e-02 4.521029683974299718e-01 2.014289219299734146e-01 5.464402392335847986e-04 4.429219907697911300e-05 -6.477116091625848004e-02
-8.615519351723190111e-02 3.596053079239033834e-01 2.044844127366303721e-01 7.346574857897752650e-04 6.001355599069220547e-04 -1.815744293509901630e-01
-3.605366704538769812e-03 3.830036637586295978e-01 2.072789620998153892e-01 2.415936306128702070e-04 8.362815807605890588e-04 -3.132495381604586404e-01
4.845164157724612952e-02 3.496818151420771348e-01 2.101720308508081003e-01 -4.239784412823286970e-04 1.064401150418785259e-03 -3.410149185734293598e-01
1.210476217333971566e-01 3.782754433316365961e-01 2.128837376572121909e-01 -1.880943379525672221e-04 1.932501459944770952e-03 -4.586408536926127044e-01
1.774229506007768131e-01 4.117274540072189959e-01 2.158334866878521274e-01 -1.899838494480721174e-04 2.242719303418396534e-03 -2.646083277017840518e-01
2.746818711709105298e-01 4.278129201358868983e-01 2.190358000827750118e-01 -1.847421844593928836e-05 2.120810440582828783e-03 -3.507000009516425543e-01
-2.130812897266005090e-01 4.380133581565308631e-01 2.015711897459479540e-01 2.260478727446001531e-05 5.254196294425140124e-04 -4.189548867746079042e-01
-1.935729412989811993e-01 4.457183378680235064e-01 2.045017571937469691e-01 1.107504143790998625e-04 1.052845644416764695e-03 -4.059637798068891912e-01
-1.290575882788115580e-01 4.931794326713545007e-01 2.074950509535329335e-01 9.541651369225252212e-05 1.442591458270621116e-03 -3.395235888301365579e-01
-7.956878945905977718e-02 5.213348428882447205e-01 2.106181671329235283e-01 -5.449020783323219605e-04 2.657690755623467321e-03 -3.967610009531222226e-01
1.098055751888731002e-02 5.847988031843778245e-01 2.133659610416140939e-01 -1.846470583337402049e-04 2.654813254455032790e-03 -2.818814188122037434e-01
1.204520181188197675e-01 6.248430844530880046e-01 2.162858130513009014e-01 -1.996746502969979991e-04 3.199973410486702408e-03 -1.762703334776528352e-01
-1.058200612884625524e-01 6.040360142903077323e-01 1.992339291054116002e-01 -1.171474423397819990e-05 -5.718695826627348154e-04 -1.807119657540160462e-01
-5.885328664618902361e-02 6.305699620126024030e-01 2.022465123861301173e-01 1.135188935140312978e-04 -1.573852951356290771e-03 -2.965470811720328781e-01
5.388168748635849270e-02 6.341316934546067374e-01 2.051468481863480964e-01 5.860256332406228892e-05 -6.458098654281718438e-04 -1.472343846224443698e-01
