-1.856008014910638937e-01 2.354131152560103024e-01 2.060169530422561457e-01 1.984659141908569856e-04 -6.557682047862849759e-04 -4.220138633871713812e-02
-1.687503233127385094e-01 2.419739208622185278e-01 2.060521086566007853e-01 -7.674936130160532621e-05 -6.587099054822482614e-04 -3.909827161298334332e-03
-2.132951922149494417e-01 1.505868886683683350e-01 2.060862223269104287e-01 4.497851262767610245e-05 -6.507837891237119518e-04 8.265134465890515425e-02
-2.129947828792962961e-01 6.866073537995669163e-02 2.060216251506162277e-01 -1.369930804394303659e-04 -5.140167375168023557e-04 -2.579630203633028265e-02
-1.949895336625224185e-01 1.329006424093741590e-01 2.059505135235271123e-01 -7.268564362261389054e-05 -5.882013743369547730e-04 -1.049315953013737340e-01
-1.826532270337444253e-01 1.693731826510650740e-01 2.060730332939240128e-01 -1.429250136714097798e-04 -6.429041961410345354e-04 -2.292183752722559420e-01
-1.605329867104695885e-01 1.788126181048398655e-01 2.060281676050824684e-01 -4.571416202265345526e-05 -5.487885026768114490e-04 -2.917773376859935652e-01
-1.460111677332186220e-01 1.019009912016133890e-01 2.060438454720375234e-01 5.212943115388082600e-04 -5.874997198502939638e-04 -2.989419833209668309e-01
-1.954701114007195428e-01 1.803278673856000824e-01 2.060288049854619441e-01 -2.009557025953463802e-05 -8.611162184636219621e-04 -4.546211178551905485e-01
-1.832124667865310252e-01 2.683310190447573684e-01 2.061830304975464379e-01 -2.302959852561221746e-04 -6.270606590498477122e-04 -1.852053326775080500e-01
-2.848948792012041542e-01 2.471671565073399468e-01 2.064351039812880595e-01 -1.273915602081366889e-04 -7.087453309984797015e-04 -3.508476272931838613e-01
-1.472290161924770246e-01 2.194424537326897240e-01 2.064381270215508435e-01 1.206411947978020064e-04 -3.513432247488662194e-04 -3.592407726606764995e-01
-1.787227315575024844e-01 1.988553822671366433e-01 2.069269773981090577e-01 -1.761562285401858930e-04 -6.318080814295067796e-04 -2.870821862701047888e-01
-2.216662630046965510e-01 2.857951607152637297e-01 2.072375292140283265e-01 -3.591385198627795091e-04 -5.142352138728441702e-04 -2.440590976666520973e-01
-6.843280129944273593e-02 2.633526726392119155e-01 2.076246225346673469e-01 1.441482467430352135e-04 -2.392168451465708585e-04 -2.806285169087941456e-01
-2.686302484799054854e-02 3.501288644254146321e-01 2.081925847972463384e-01 1.007550495972811907e-04 -3.164151231810770045e-04 -4.112360464282298622e-01
1.489081281248875663e-02 3.803576011327670647e-01 2.087443724068967499e-01 -1.980472789204911716e-05 -2.867018302858304773e-04 -5.201999466306941322e-01
1.670600217145969818e-02 3.745795736340419846e-01 2.097070685626337139e-01 3.280443524429332418e-05 -7.326345481860986391e-04 -3.412455365334381430e-01
2.357060327194489269e-02 4.632152973587006506e-01 2.106347251081339134e-01 3.793265372598190511e-05 -1.039099756296557207e-03 -3.057665723806900493e-01
-1.856098186573990755e-02 3.678472191235152011e-01 2.113509166325870381e-01 2.541112924741296660e-04 -8.366608214169118408e-04 -3.640438432393262001e-03
3.491865973879271223e-02 2.972442731768492608e-01 2.122441257155856520e-01 6.426861663977581000e-05 -6.464672447087476933e-04 -2.822095518284601368e-01
7.395007005890907870e-02 2.068274413108375509e-01 2.133845210595775588e-01 1.426018536020902557e-04 -1.296422429130715103e-03 -3.728492376871170855e-01
4.477957707597195192e-02 2.306833519346039307e-01 2.142104299043430249e-01 1.528949917572499631e-04 -8.236037578695315714e-04 -1.939805714092227296e-01
1.300344265162412319e-02 2.339855040246907047e-01 2.154479914995120482e-01 2.637589880288557296e-04 -1.199061875568537558e-03 1.741495801615045025e-02
1.321013378481518674e-01 2.958351007098623531e-01 2.165096238683607011e-01 2.578151241828215549e-05 -5.138542088394561485e-04 -1.394296878848214419e-02
1.452041693069707762e-01 3.187125321934737854e-01 2.178416984422674729e-01 -2.655709989152413970e-05 -6.623332577613560718e-04 3.853196341919819939e-02
1.377492588850576238e-01 2.198096325894705050e-01 2.189999175742861626e-01 -5.283057309568271346e-06 -3.586761842129901237e-04 3.970710698426548751e-02
-2.733565115369545051e-01 9.859507630146760460e-02 2.004242446851063897e-01 3.385452156053392837e-06 -1.641025226258659327e-03 -1.115258716286809254e-01
-3.103031214710538777e-01 1.185187174301566698e-01 2.015872095881719450e-01 -9.212173985893814707e-05 -1.449497403063366866e-03 -1.889223883544140226e-01
-2.554607771505657543e-01 6.794220731132617763e-02 2.032183077940080684e-01 -1.712910909294358935e-04 -1.738781502384875678e-03 -1.105281594689219715e-01
-2.443844174265196734e-01 2.161094186527658667e-01 2.048248115239512113e-01 -1.085119516007395100e-04 -1.816117672015196650e-03 -1.647807348768703939e-01
-2.064975738744307954e-01 3.726909074944459443e-02 2.065238596554043182e-01 1.741881098906911444e-04 -1.621640712063544777e-03 -2.492368133032686894e-01
-2.241041836554177047e-01 1.426379508301432730e-01 2.080565542939833978e-01 -1.596984365481865715e-04 -1.749788925164260907e-03 -1.523878716708723935e-01
-2.679619005449559443e-01 6.223535088253701053e-02 2.099534862640843880e-01 3.508557752752654139e-05 -1.786427164315121776e-03 -1.107492352304581124e-01
-2.191792909132178613e-01 5.841435090902512284e-02 2.113236561184310136e-01 -7.409114678128782738e-05 -1.221080841474408854e-03 -9.957652859851319482e-02
-3.649331324394207432e-02 8.584248598684887654e-02 2.133553914772574611e-01 1.402127401138140311e-04 -1.440559095774843895e-03 -8.464519304794636267e-02
5.679246479676186565e-02 1.899897307470634622e-01 2.149279133035385536e-01 8.576910164991396177e-05 -1.178859393321517049e-03 -1.735322833057896807e-01
4.862428600583011684e-02 2.806296126043218431e-01 2.173789077539295400e-01 -3.833948205886103630e-04 -2.421023905885904062e-03 -2.515575509218901940e-01
8.240333038336528082e-02 2.322879380141271433e-01 2.192148774388681387e-01 2.005261250027463513e-04 -1.606430299635876061e-03 -3.145786183021762605e-01
-2.555540262700600196e-01 1.217603315638170897e-01 2.006631267738325231e-01 -2.109433183430559934e-04 1.304124002208002374e-04 -2.667074084435628878e-01
-1.636563452824435494e-01 2.206530403829456699e-01 2.025400914541914399e-01 -3.732103865978210976e-04 -2.465743772413227621e-04 -5.752578523383469200e-01
-5.169153663533626597e-02 3.657377415363232132e-01 2.048459781666581714e-01 -2.389657621229870064e-04 -4.656550453568962305e-04 -6.026504602496923768e-01
-1.383931281489484966e-01 3.448886799773194789e-01 2.069316443533519845e-01 1.798955175945900838e-04 -4.672049521504691269e-04 -6.375616791931466576e-01
-6.573022391952265675e-02 2.685106456745318115e-01 2.092640693569058907e-01 1.118171812332710970e-04 -3.357807472108715057e-04 -4.898765577497050105e-01
7.212380877335512752e-02 1.719528839028758860e-01 2.114808784520838536e-01 -2.483267106451490278e-07 -3.102452721254367763e-04 -4.668092540455248129e-01
1.111160097562541443e-01 2.433162492705676638e-01 2.137389376641027905e-01 1.566813851001361193e-04 -1.146276217772560239e-05 -4.015571772066761080e-01
3.253982737070618136e-01 3.708468496183647267e-01 2.160515355965478279e-01 1.563335611414773960e-04 -7.812669912088664745e-06 -5.570491163427709891e-01
2.214178222102527460e-01 2.686586201454234102e-01 2.183401204352682368e-01 3.896776946588781116e-04 1.583945366126147914e-04 -3.612545009099504822e-01
-1.936321542227349979e-01 2.668587742857271294e-01 2.006072412129437654e-01 -1.516819720233564717e-04 -3.498779986483041993e-04 -4.567124159008747464e-01
-2.549311513920077821e-01 1.522665233474870539e-01 2.029009031766191296e-01 -3.988491265845912308e-06 5.289127338097622836e-05 -4.174123803257632215e-01
-1.780533492686922903e-01 2.039611273445566253e-01 2.050885991857719359e-01 -2.191436621346572015e-04 1.330607663607636434e-04 -4.484656602754893973e-01
-6.653993049142500893e-02 3.588730743783008492e-01 2.072864264756853481e-01 -6.533272713833284491e-04 2.846311408817291133e-04 -5.621288173966145774e-01
9.324149131889121478e-03 3.483086874566866387e-01 2.096904774104027536e-01 -3.747419840028625316e-04 6.912578148681601433e-05 -4.794573377469789621e-01
4.383000033357171282e-02 3.691638427563925240e-01 2.120337409752846569e-01 4.914361517673214636e-05 -8.316094296957352917e-05 -3.914312247401052214e-01
1.162171833161864815e-01 4.461802655503460113e-01 2.141849386576230030e-01 -4.359344355619575585e-04 3.569293548033661685e-05 -4.699701703650220330e-01
1.452968730502145756e-01 5.142177524604765182e-01 2.165794165829984519e-01 -4.900693458309357065e-04 -8.881962538776587012e-05 -4.773002434648714321e-01
2.272577539398358826e-01 4.496603129815270883e-01 2.188390265221747955e-01 2.437466544941252987e-04 -6.000357131860519194e-05 -3.600046122465022091e-01
-3.664360749996494193e-01 3.624402757293600508e-01 2.005604699894566467e-01 -1.032169134402554777e-04 2.655913982583233725e-04 -2.920270885411788142e-01
-2.663422778006725999e-01 3.770959432076121387e-01 2.028386752402933646e-01 -5.169753638617949993e-04 4.562664776057497474e-04 -4.736111047959864484e-01
-2.258122374861179504e-01 5.465366260365543960e-01 2.051143830764088349e-01 -5.478122950518158306e-04 1.011328910566902835e-03 -3.904255650310152759e-01
-1.763653275778051532e-01 5.416407448730925500e-01 2.075484425002089295e-01 -5.944123686259352238e-04 -2.048665936139136123e-04 -8.116309005429860335e-01
-1.257796338436921180e-01 3.888623026451388243e-01 2.097841935173620498e-01 -1.746206385001905503e-04 5.592236191147229984e-04 -5.902698040464995355e-01
-8.470130076287497867e-02 5.488889304678820080e-01 2.121850080322739696e-01 -6.507939705654718380e-04 1.011591317524095719e-04 -6.760816427325945233e-01
-9.545909364574584055e-04 5.468227855899134848e-01 2.144686167137219157e-01 1.245028252859848368e-04 4.298343070959369282e-04 -6.984795681679863977e-01
1.226712803053165851e-01 4.560959530925087213e-01 2.168958358876193482e-01 3.173511417788176404e-04 -2.358800120420030875e-05 -7.451574428679621498e-01
1.718720543030153036e-01 4.485947043038933102e-01 2.190946644998598147e-01 9.666036776061056538e-05 9.445389727567147804e-04 -6.178614202201796468e-01
-3.377078275456200651e-01 4.714344280217263039e-01 2.007306486376934096e-01 1.628942141876899799e-04 -1.531899241905537842e-04 -5.352674445169294248e-01
-2.388986045978649386e-01 4.350775433455902896e-01 2.030943970227251372e-01 6.740334181571572454e-05 2.647146614225711053e-04 -5.264397431066395461e-01
-1.346835503719895910e-01 3.604592773289334584e-01 2.053648146931322249e-01 5.329605973886630257e-04 5.691480225881574793e-04 -1.830501000565977754e-01
1.476809516594853114e-02 2.752485689955670445e-01 2.078532564905882785e-01 3.482878429955050745e-04 2.847944999762938708e-04 -1.749191680270175409e-01
1.380826614980965039e-01 1.224892378395348036e-01 2.103124955705004684e-01 5.804488071627168832e-04 4.979301393249528857e-04 5.494250227337158649e-02
1.806560100003906100e-01 2.953234728528623121e-01 2.125740930577407761e-01 -7.278798287985328028e-04 1.274953033553660828e-03 -1.238442970624528267e-01
2.010153988919133328e-01 3.411041169656626182e-01 2.147146385925393086e-01 -6.073688467060259872e-04 8.329248539760608422e-04 -2.653666934022575474e-01
1.968289016693882121e-01 2.966488540963772569e-01 2.171122697048530337e-01 1.053007996161492118e-04 9.051446867323303773e-04 -8.666133261056876980e-02
2.655959683053140119e-01 3.551487651560553682e-01 2.192219545392835034e-01 -4.917018328601269889e-04 1.708787866827394392e-03 -1.841609857232275882e-01
-3.726572930781965054e-01 5.727670856172764058e-01 2.013932561142932065e-01 -2.794083425446879055e-04 -1.304516248073583082e-03 -2.410268187362027970e-01
-2.632841915820831047e-01 4.946690191835036443e-01 2.037197732505068859e-01 2.282303421675680442e-04 -7.276166823066641245e-04 -5.420396198059570375e-02
-1.970096236959903990e-01 3.161880538274483010e-01 2.060488461477196220e-01 3.775759872285273911e-04 2.203338475763704093e-04 -1.916374313441470412e-01
-1.336802888368911479e-01 1.598410565219366974e-01 2.083633408962708988e-01 5.162743845325381328e-04 3.002509273900477922e-04 -2.407198608844779431e-01
-5.931793350448832935e-02 5.539098323552142655e-02 2.106325667126803247e-01 4.081456084090358418e-05 8.973111832066532189e-04 -1.317971899180735151e-01
8.427566950397029355e-02 2.303417962340706948e-01 2.128875947270675306e-01 -1.327974606456034583e-04 1.614433905640596991e-03 -1.637152214124646121e-01
1.519875003585273721e-01 1.316255077842159726e-01 2.151364132290112807e-01 -4.117011650521303773e-04 2.187991740461282374e-03 1.791727993931953589e-01
3.711727173796114387e-01 2.445410569840478499e-01 2.173247375917774504e-01 -6.917851045175766591e-04 2.985741867778659350e-03 -2.513305743958342275e-01
4.345702397283093821e-01 3.163415522759237541e-01 2.193483599918510385e-01 -2.677075778213024193e-04 3.105760231361109468e-03 -1.061730047681772593e-01
-2.032556632676765437e-02 2.291253265303735409e-01 2.011076630429654011e-01 7.170208611429986683e-04 1.872013770162115351e-03 -3.097299235024992270e-01
2.121535389508548419e-02 3.223803447966014923e-01 2.029854211783351792e-01 -3.521262732136282853e-04 2.234059326406555041e-03 -3.880364111680022488e-01
6.446028664571344657e-02 2.722679356589694510e-01 2.048352628021816169e-01 -4.649987180364296806e-04 2.425454863250478543e-03 -4.868202919324806643e-01
1.519303821108337060e-01 2.502532220513886130e-01 2.065913777392414663e-01 -1.226856560444253199e-03 2.565701172763356665e-03 -2.658820990435123433e-01
1.227098431581050975e-01 2.900900139223212548e-01 2.081893514170586879e-01 -4.074782826221053696e-04 2.235274107160355010e-03 -4.286313434241622589e-01
1.299355218088031338e-01 3.818300842029079267e-01 2.096415441586488848e-01 -4.954358146237348038e-04 1.759866696388934920e-03 -3.934324080396355283e-01
1.620425341544826925e-01 3.739947378014394919e-01 2.112501657138804445e-01 1.280673607749516262e-04 2.788848535171845663e-03 -3.126494826533455784e-01
6.379478612800684734e-02 3.372413299978353485e-01 2.122460933539643824e-01 -9.182170309968203797e-04 1.199181489224435387e-03 -6.672183526901184214e-01
1.282764825456756685e-01 3.701150166725393764e-01 2.133803520104480822e-01 -1.651802980983864844e-04 1.497305961509080244e-03 -8.590308283474094031e-01
1.715771791016125203e-01 3.444493024110465429e-01 2.143788964868632574e-01 -9.369297836297588210e-04 1.778450084492746780e-03 -7.600558636126747425e-01
4.675517684301001842e-02 3.940914753031382056e-01 2.149027921226367988e-01 -8.159505353692370804e-04 4.177996189120977352e-04 -6.241193499311179504e-01
1.452899454535623580e-01 3.628481790602566259e-01 2.158544553316232850e-01 -4.309876376294120783e-04 2.038400914845088247e-03 -6.638684947561238614e-01
2.125383501271082554e-01 3.202661925072251559e-01 2.163398510597123736e-01 3.348200012308966741e-04 1.915466295936610937e-03 -5.834863708491464518e-01
1.681756267867313970e-01 1.992630049344529808e-01 2.167562188258886358e-01 5.215960315893664696e-04 1.796358219685638890e-03 -6.001766529874866807e-01
2.508182807724988472e-01 3.326188034363641299e-01 2.170938449551948479e-01 -5.180759800283896068e-04 1.949651724564493635e-03 -7.440226250135532071e-01
2.948524359442368237e-01 2.510311090717443072e-01 2.175041398258047431e-01 1.512450420294548332e-04 2.394802885725474430e-03 -6.457231174398055940e-01
3.828887331813011219e-01 3.159738087718770294e-01 2.176310266610438915e-01 -2.605025056131371540e-04 1.934859360838992728e-03 -7.935127009537218390e-01
3.466859900530694927e-01 2.173008381329642469e-01 2.176951067537026829e-01 8.281527600297665750e-05 1.621298064741713042e-03 -8.679938641959781265e-01
2.786708527095136390e-01 2.122517465728809283e-01 2.176500389027685722e-01 -5.915509061171942296e-04 1.009152264700681001e-03 -9.002847426882407689e-01
1.989230679788763778e-01 2.101697903703975134e-01 2.177370716654005722e-01 -8.340638315443369821e-05 1.463902837610081336e-03 -6.837964376155388768e-01
2.141392054690273716e-01 2.146027941030876351e-01 2.177532502177657592e-01 -4.370305528962639100e-05 1.772064632351107519e-03 -9.124154333442435760e-01
2.980251182642458807e-01 2.243022182386398000e-01 2.178366701288884100e-01 2.488057832434124026e-04 2.134932218794449547e-03 -6.653570243152200359e-01
2.781388703798108875e-01 2.290664463249172667e-01 2.177399770848770788e-01 -8.445776635458929291e-05 1.590103247881902767e-03 -5.740477751178721944e-01
2.759314904546753544e-01 1.863532186522107725e-01 2.177564857313962210e-01 -1.190886056601530885e-04 1.650057968624886809e-03 -6.106032375141621227e-01
2.666475045805045685e-01 1.908930010499682028e-01 2.177889992428272414e-01 2.108612356563858026e-04 1.978208050027479518e-03 -6.614934773875216223e-01
2.982733637153546780e-01 2.831763646169574433e-01 2.177733662176748464e-01 -5.305989571631341975e-04 1.740422159091638450e-03 -7.585532754975329306e-01
2.866841004080382671e-01 2.744617596767625622e-01 2.177352056413828230e-01 5.834573315631411946e-05 1.611935925739491028e-03 -7.201900458003980265e-01
3.049456971477931266e-01 1.945617093622421245e-01 2.177967097196406576e-01 3.446083273810662036e-04 1.831367502529515807e-03 -6.217170154544487959e-01
2.935527590147234966e-01 2.802270470314456863e-01 2.177511799065659504e-01 -8.610340607286192868e-04 1.557007287835603885e-03 -7.233770697524037896e-01
3.113986844547227406e-01 2.584007231042872998e-01 2.177439001153023690e-01 7.981834840369706727e-06 1.556068139187280269e-03 -5.366922748405431598e-01
3.048746399635240412e-01 2.740470585625836564e-01 2.177316826947595652e-01 -3.031508364949462501e-04 1.465943940260070041e-03 -6.150021203574862483e-01
2.652129572680002045e-01 2.277373372298085452e-01 2.176870872690253034e-01 -8.812544290307950106e-05 1.270564928445708838e-03 -7.185929626308233953e-01
2.808129837136954521e-01 2.393225975271192074e-01 2.178109773707144758e-01 -4.329516149518179789e-04 1.897582151313444718e-03 -6.329939734790480665e-01
2.694879842738870934e-01 3.082748336575252823e-01 2.177534398752449807e-01 -4.057437241274163085e-04 1.636068871835009205e-03 -9.003514378467599721e-01
2.670867228789437497e-01 2.760204415738217176e-01 2.178090667572360473e-01 4.505908658534803928e-05 1.878573206240586593e-03 -7.543729436545986156e-01
3.151395056964541030e-01 2.567860526866327375e-01 2.177506415788493244e-01 2.000155124478392914e-04 1.748019924578658171e-03 -6.541466675205270809e-01
3.570775975914652345e-01 2.925559050420069029e-01 2.177684401804647618e-01 -1.127529024216196294e-04 1.671821080059105380e-03 -5.841068568295649799e-01
3.812844811971745074e-01 2.737414114792127151e-01 2.177889883895566814e-01 3.881007398280279428e-04 2.072553197507967862e-03 -7.739770113823720710e-01
3.527405605079579343e-01 2.709527853095367589e-01 2.177118596451726451e-01 -8.774847780634359082e-05 1.486547583232445150e-03 -6.483322842889156501e-01
3.831264903894531226e-01 2.551164012943462622e-01 2.178022524081377753e-01 2.276596695816586024e-04 2.104315947366455081e-03 -5.636957126483531644e-01
3.228614906455795630e-01 2.577821310537594113e-01 2.177272976533773385e-01 -3.569750854368646041e-04 1.555128271037035720e-03 -6.544753930979146928e-01
3.710636359282264429e-01 2.314178330900783787e-01 2.178578431478989108e-01 7.909426447298980407e-04 2.362156966556088877e-03 -5.893519605949602003e-01
3.393625173956381080e-01 2.751390063590337665e-01 2.177970639631562899e-01 -6.920447749296080621e-04 1.783448583005941245e-03 -6.596218222995542391e-01
3.234653205204551796e-01 2.849401176829921001e-01 2.176650634303306520e-01 -6.906161268544482945e-04 1.110282810449509348e-03 -8.154734361146676047e-01
2.944939689712502418e-01 2.212928437082885003e-01 2.176922703820437510e-01 5.190468452812719153e-05 1.368387035040912868e-03 -8.098465343301474162e-01
2.592159606938919669e-01 2.534021540003212336e-01 2.177600835018956849e-01 4.919463651869979197e-05 1.785791036047353368e-03 -6.056179210650494138e-01
3.289998953390098624e-01 1.065480088438382905e-01 2.177656216887395302e-01 7.555502713103661155e-04 1.866150454663858659e-03 -4.522392208986043549e-01
3.283179392100237237e-01 5.577134395515491450e-02 2.177777035835815056e-01 2.100203534892655535e-04 1.778957346812060688e-03 -3.978464820451401152e-01
3.924021176410298906e-01 1.208947079743392106e-01 2.177570524437307808e-01 -2.564907655665673398e-04 1.825079372827569666e-03 -4.302861294475308629e-01
3.589897147248635734e-01 1.816399479826724395e-01 2.177609264450204307e-01 -3.984689226020031168e-04 1.854259778796779699e-03 -5.589724963281010872e-01
3.741235877646553187e-01 1.264678032503100957e-01 2.177698592003766698e-01 -1.978746105521469632e-04 1.753291715033761505e-03 -4.481126458260362710e-01
3.299726909495256377e-01 1.712528775528283087e-01 2.177288229472794656e-01 4.411287715325195626e-05 1.708756435519982351e-03 -4.891378461577380876e-01
3.572276643610713398e-01 1.467643798149172174e-01 2.177870405350831318e-01 -1.974596503545918299e-04 2.046401725378829695e-03 -4.608073939368504957e-01
2.948315712775869124e-01 1.954618276296095081e-01 2.177001228429163993e-01 -6.227293207021542118e-04 1.283090069266521306e-03 -4.386939980832338382e-01
2.558661367743937931e-01 2.431456587907357414e-01 2.177469804174785306e-01 -4.810950874313054283e-04 1.608391403908900714e-03 -6.475458188957992078e-01
2.478086493716627758e-01 2.249461839744044123e-01 2.177591020580953995e-01 4.813437233438679601e-05 1.792774799509460172e-03 -9.327142875737768346e-01
2.553708815609191385e-01 2.784282294266250402e-01 2.177609385439677747e-01 -2.272325858668645796e-04 1.598173296066625034e-03 -6.466663678762464285e-01
2.484117074891962762e-01 3.404898821686740407e-01 2.177335893262670186e-01 -4.757526353927988357e-04 1.521068387613523946e-03 -7.284039678019916808e-01
2.762391166300082745e-01 3.875961733771386974e-01 2.177656677815757447e-01 -7.002955634292187565e-05 1.750209067264113733e-03 -9.097294849412062012e-01
2.377797716147012630e-01 3.810221213823056785e-01 2.177625165714998090e-01 -6.419705780267355878e-04 1.464083980160115752e-03 -8.493910368813141210e-01
2.702206950902027449e-01 3.953623915149777623e-01 2.178028609032552354e-01 -7.933267404927568341e-05 1.956120890543594591e-03 -9.138659372450707030e-01
3.239077085897492103e-01 3.729552532357811034e-01 2.178016076613229490e-01 3.973364206363000210e-04 2.020584545579681007e-03 -8.945966450977964612e-01
3.449301622948640622e-01 3.311959456309108707e-01 2.178610945297173584e-01 4.700942381187139308e-04 2.164036881642921687e-03 -8.312325950797163632e-01
2.978640419660793515e-01 3.371858565224042925e-01 2.177571212866972195e-01 1.925419185320281464e-04 1.727797757718624490e-03 -9.183460105986442912e-01
2.711796843313265537e-01 3.650125928892794525e-01 2.177574581826359212e-01 -4.422947057418778923e-04 1.689914153855941485e-03 -8.966476643411886993e-01
3.084209855080859430e-01 3.574445920155486234e-01 2.178078837612938412e-01 3.795927967724480349e-05 1.998981494688394350e-03 -9.872839889536004776e-01
3.542110927454555913e-01 3.511215328712642414e-01 2.177562576401305683e-01 9.253448575634833149e-05 1.711853814653807029e-03 -1.062384148315697718e+00
2.903203086024155333e-01 3.891676200016652154e-01 2.176219086036615957e-01 -7.682498113474430434e-04 8.600400838556102392e-04 -1.068644059735730512e+00
2.038397368898330342e-01 3.004182142362892827e-01 2.177503960406596550e-01 1.644065872229237134e-04 1.536892615368989695e-03 -7.897505173865135841e-01
1.829969874494592197e-01 3.745251101250012815e-01 2.176740009872873416e-01 -6.121598592220740560e-04 1.142128353322294666e-03 -8.027223850921064718e-01
2.371568696981040114e-01 4.455361341397983121e-01 2.178225185266836617e-01 -3.042700154199455792e-04 1.939152798466736933e-03 -9.170290648645894604e-01
2.886639709446569557e-01 4.548701004754731048e-01 2.177539902295814178e-01 1.477978559233975823e-04 1.599147806627272553e-03 -9.738127109415350979e-01
2.516612729864217690e-01 3.925611219508168270e-01 2.178063232612812428e-01 -1.804814465044800862e-04 1.760463306280734153e-03 -7.493628073333831185e-01
2.519589171162197050e-01 4.052872443114666767e-01 2.177099233930156474e-01 -1.656471057439066813e-04 1.243998294238825211e-03 -1.032831072602618638e+00
2.456006888287405598e-01 4.322780133081345344e-01 2.178582442548065434e-01 -9.056822764818055693e-05 2.193337291267439485e-03 -7.592457818473893338e-01
2.337395968849489414e-01 4.565758524151953268e-01 2.178025426126234398e-01 -6.394278825860352366e-05 1.858737405001423303e-03 -6.933462355356876383e-01
2.582496260365545471e-01 4.257410617022925892e-01 2.178034738714971774e-01 -3.032204994197861122e-05 2.048419785910372912e-03 -8.468936931188111306e-01
4.060439485388414038e-01 4.104877499864140189e-01 2.179350205829816978e-01 5.933923935787834827e-04 2.695068236672109544e-03 -7.006256267082940914e-01
3.881583927879073137e-01 3.059167534594895432e-01 2.177427833774430166e-01 6.770956170277138159e-04 1.623954862703686636e-03 -7.554766114974547087e-01
3.659242150231724056e-01 2.809055389955785742e-01 2.177594279121787824e-01 6.150249726376733495e-05 1.636287617305883001e-03 -5.715974381234018020e-01
3.859877381326566326e-01 2.945712940832227456e-01 2.177697990188666166e-01 -1.396672281304152234e-04 1.780156428159524297e-03 -5.973166890424946862e-01
2.953181417002215814e-01 3.547750334034776576e-01 2.176995708369743321e-01 -6.051235963647004067e-04 1.110111019338364891e-03 -7.339999706707892591e-01
2.680912844485129343e-01 3.639502811980483421e-01 2.177141712112904970e-01 -4.057732188922389760e-04 1.357104959740696023e-03 -9.490978309449792372e-01
2.274279333202896547e-01 3.650267045016876155e-01 2.177733898904634091e-01 1.182457210334399080e-04 1.622285107691974265e-03 -6.766382499185500388e-01
2.343583006942289992e-01 3.852650978649644342e-01 2.178414261303435739e-01 -3.738946657642174595e-04 2.003223643709599235e-03 -6.653819599034330734e-01
2.319435901538528522e-01 3.956153503064901988e-01 2.177639079596690452e-01 1.702990307750800250e-04 1.797414498525141957e-03 -8.239849943727584058e-01
3.491902514145873160e-01 2.677499973606756734e-01 2.178151567360559482e-01 6.355306547379626671e-04 2.069724504589831506e-03 -7.113699758260332295e-01
3.303142820476995256e-01 2.485743977207353905e-01 2.177220803106416636e-01 2.231510752166666881e-05 1.521742450433186166e-03 -7.856180789807077902e-01
3.350195758520390643e-01 1.985843651210448257e-01 2.177723226702006909e-01 1.837749798980554852e-04 1.727768848142537290e-03 -5.315459475213049068e-01
3.482177453215568042e-01 2.156433712344404119e-01 2.177964922983315343e-01 -1.183574567469362172e-04 1.801583415667139644e-03 -3.793888036010992226e-01
3.180195120813973930e-01 2.693780141601544997e-01 2.177234364313865300e-01 -4.785020688500100645e-04 1.464914345230007011e-03 -6.349403197290968137e-01
2.114985421245907105e-01 3.493605228666291640e-01 2.176650526572066480e-01 -9.335676950509275672e-04 1.208727140208697886e-03 -8.736151752928160708e-01
1.759190603687329491e-01 2.793943519453026547e-01 2.177878823529880159e-01 3.921732498300902641e-04 1.947470534262116509e-03 -7.018912288968155444e-01
2.231996038946478522e-01 3.429398642271272446e-01 2.178141194872013076e-01 -1.156343414794003098e-04 2.226860711252297287e-03 -8.191926027705234148e-01
2.105214745947163457e-01 2.092560695041679741e-01 2.177463515490934420e-01 1.045306063531739951e-03 1.865197387774646023e-03 -7.218512710888876915e-01
2.384658028096957316e-01 2.664084933128720856e-01 2.178279308553442983e-01 -1.079176886546312351e-04 2.248177563997219228e-03 -8.436965810088782325e-01
3.346724737592946530e-01 2.729401329824129308e-01 2.178138016262934906e-01 -3.181274636839084218e-06 2.240104220531211054e-03 -7.739059062926730848e-01
3.249441383404925721e-01 1.653622873923665804e-01 2.177999818722960446e-01 1.115640341792664258e-03 2.135542537755165740e-03 -4.771922629095673996e-01
3.328519639337553238e-01 1.082230491464904881e-01 2.176833406439988017e-01 -8.665915214015225410e-05 1.544245374002242016e-03 -4.877845248793245547e-01
3.369009025741108720e-01 1.082629728808939401e-01 2.176937224205081067e-01 -3.442335139295361847e-04 1.527837049874513362e-03 -5.811480808031657119e-01
2.660506752727260227e-01 1.791215633556664522e-01 2.177431343600610969e-01 -3.624964781799806042e-04 1.781633938011244330e-03 -3.558589054315580147e-01
3.036477386699902303e-01 2.650248241826106410e-01 2.177197817034639549e-01 -4.525706923512451407e-04 1.691393927634678293e-03 -7.290956079506913934e-01
3.472160772920161453e-01 1.302837000077866070e-01 2.179292131944549626e-01 1.162814132251795531e-03 2.800909426276845717e-03 -5.678473864602632259e-01
3.583105334485593985e-01 9.365687416743767590e-02 2.177193461853754730e-01 4.165040790096164716e-05 1.730673096435146174e-03 -7.894628392027829289e-01
3.294654107950902855e-01 8.935898541423772934e-02 2.178217475649810164e-01 2.311250950494781018e-04 2.167559507642116169e-03 -6.671900228862397420e-01
3.104028366175595188e-01 1.334931511965580520e-01 2.177015378959238912e-01 -3.509237428329287415e-04 1.480904671928501889e-03 -8.054136787903042327e-01
4.016466411272939796e-01 2.087440472414751613e-01 2.178233628304508396e-01 -3.210011396073876198e-04 2.265330995686535686e-03 -9.105942264599642400e-01
4.250292522058982669e-01 1.487261377083808345e-01 2.179234592965906825e-01 6.790313729924088481e-04 2.542311368767891881e-03 -5.970718199280677929e-01
3.941728294778383823e-01 9.339501723467515115e-02 2.177198581597912241e-01 1.278264812641035936e-04 1.625053266162370140e-03 -6.035359231157224613e-01
3.164159297591924713e-01 2.154202162606926318e-01 2.177153477304140106e-01 -9.190727098376712256e-04 1.407434667562258452e-03 -7.808301524802757632e-01
3.326961317563348897e-01 2.757203568947773076e-01 2.177993783325916644e-01 -2.468362633692605971e-04 1.869946952278641510e-03 -7.284278705542817089e-01
3.374449341245382983e-01 2.223031486389079880e-01 2.177385296545912285e-01 9.540556357037336440e-05 1.538177163443130505e-03 -7.617814131190500104e-01
3.506731411857836322e-01 1.645445584749179735e-01 2.177798355642103778e-01 4.658612494937284425e-04 1.926096595169243938e-03 -8.458370174474267866e-01
3.802051489911128512e-01 1.559674978536617074e-01 2.177867841074943023e-01 1.826919792496485085e-04 1.946559548581128490e-03 -9.919933472752394676e-01
3.852614267222497779e-01 2.170887901596503800e-01 2.176598775203644753e-01 -8.342309633585227695e-04 1.254818881600738368e-03 -1.022917494062902888e+00
3.608070783569837237e-01 3.204614112989046526e-01 2.177271738403170342e-01 -5.958572752857888314e-04 1.362097101752934468e-03 -9.848892439454545178e-01
3.186422149094511602e-01 3.182057035443658921e-01 2.176474555102770325e-01 -4.264652943851120486e-04 1.004788315833557823e-03 -1.046953633968493058e+00
3.522764793784238235e-01 3.101476089707710937e-01 2.177883447048607479e-01 1.752866233248910873e-05 1.817707447378068839e-03 -1.036265617040126097e+00
3.064970768651638644e-01 2.990297601396341154e-01 2.177007838824919772e-01 -4.532934122489201798e-04 1.255963419016387040e-03 -8.135674139123426629e-01
3.486406440823384134e-01 2.896704431269557789e-01 2.177832787892071686e-01 3.769802781430892482e-04 1.817663985142367166e-03 -9.139291441828044649e-01
2.862305961130654497e-01 2.905509670277641732e-01 2.176812973881840918e-01 -6.254015178855478526e-04 1.224236767115688754e-03 -9.534202630182814220e-01
2.579351442111766368e-01 3.038186531743078955e-01 2.177729502100426151e-01 -5.463825952192713601e-05 1.817628880926630422e-03 -7.203811505892673273e-01
2.629784345367380261e-01 3.332126222275134664e-01 2.178252941637081608e-01 -2.623051341729827862e-04 2.104525933757534720e-03 -7.142951237480189564e-01
3.320973047154868740e-01 2.401017387758121180e-01 2.178144942964946873e-01 4.120775928857347073e-04 2.082508808935045960e-03 -5.560529629713381050e-01
2.892047154025209066e-01 2.300510641277358492e-01 2.176852190613997595e-01 1.539009992823886887e-04 1.557486943764981166e-03 -6.979439461695573499e-01
2.395016175045752704e-01 2.134194438124976945e-01 2.177663668131765706e-01 1.661163559974906619e-04 1.832037803403284123e-03 -5.106640730004637918e-01
2.085596834642451936e-01 1.847496055393423875e-01 2.177027597410150506e-01 2.447730521366437394e-04 1.634970120612469361e-03 -7.308066955870151649e-01
2.184075372143575167e-01 2.287634228951153648e-01 2.178480299990762648e-01 -3.539330185187584271e-04 2.110289324151055825e-03 -6.113354686825780426e-01
2.365421448197439491e-01 2.105556148706817232e-01 2.177226231427104586e-01 1.767222387818146129e-04 1.592141232637048556e-03 -8.100628184443706692e-01
1.748179904263017226e-01 2.053219273278376611e-01 2.177094246338821537e-01 -4.430177782453214620e-04 1.321780528345496523e-03 -7.158621149239244863e-01
2.217946240483363030e-01 1.745584523744337091e-01 2.178662003782166900e-01 6.797993412582549726e-04 2.400492889653485593e-03 -6.233513506464793963e-01
2.039318867853027462e-01 2.007872442216064590e-01 2.177191777423927443e-01 -2.962382126611370100e-04 1.576691901625838083e-03 -7.239563611438678548e-01
2.293134062944393592e-01 2.589872332262295185e-01 2.177428640252920822e-01 -5.594385321146797853e-04 1.738912331273645027e-03 -7.785524475119164345e-01
2.691449245010761326e-01 2.341718233073487587e-01 2.177431187525892264e-01 -2.697813531520585313e-05 1.722067460240217117e-03 -7.126590732756751256e-01
2.911896472457708995e-01 2.350547112237873215e-01 2.178327307698595949e-01 3.504716542007764901e-04 2.279502009552658234e-03 -6.855741646307572656e-01
2.923965966344801437e-01 2.337270535732903221e-01 2.177207470721889693e-01 -1.244789544885286303e-04 1.500235420630444041e-03 -7.222886721819908873e-01
2.901785050831504620e-01 2.331114629521626458e-01 2.177761183027085434e-01 3.179870995706936395e-04 1.974497969793936967e-03 -6.352375316915978010e-01
2.722291003155528077e-01 1.888819526433085927e-01 2.178177924803741949e-01 3.669296218013714020e-04 2.199391452310410673e-03 -5.327616048874960208e-01
2.465193543642826002e-01 1.844687399434044028e-01 2.176992456510283280e-01 -5.516258858881577308e-05 1.588817465478582725e-03 -7.130747466938853751e-01
2.471091871590198330e-01 2.014293021348924628e-01 2.177896578616825840e-01 -2.532462371140465447e-04 2.074402599711714246e-03 -6.379151255958513955e-01
2.505811907600924981e-01 2.345954861890453824e-01 2.176934258168176095e-01 -2.354303576042381194e-04 1.486422875344278445e-03 -7.521935606318904677e-01
2.159709921541764777e-01 1.793762325665513857e-01 2.177228748181936901e-01 -1.307457315598742928e-04 1.577154702872667720e-03 -7.735726624425977027e-01
1.970280544638303155e-01 1.870093866464315746e-01 2.177463558195268933e-01 -7.415644201155497468e-05 1.666471786222462666e-03 -7.730189167424230678e-01
2.008780022269150145e-01 1.770783509332581052e-01 2.178102365969343257e-01 -4.521766856945191382e-05 2.075711393845343540e-03 -6.781221980001277405e-01
2.405908561453040939e-01 2.158658023775118229e-01 2.178569575226687594e-01 3.045202749498237779e-04 2.484850928020592049e-03 -6.430564923191809390e-01
2.958514335079435731e-01 2.832674092087132389e-01 2.177743569721711236e-01 -6.113380775814761898e-04 1.784050488584357132e-03 -7.843317248093644167e-01
3.126767900086821483e-01 2.551223071814510135e-01 2.177734240513822805e-01 -3.968615135295011702e-05 1.828764329239709364e-03 -7.910493855913647288e-01
2.824303825302452164e-01 3.239065539225448043e-01 2.177716542684534073e-01 -2.967093819805630465e-04 1.911744854666179135e-03 -8.774154123481223699e-01
2.987322811637265763e-01 2.433749328651331478e-01 2.177773040187481191e-01 5.563059479390872458e-04 1.971517113981222351e-03 -7.640903600140360741e-01
3.573642536165117511e-01 2.225166939672716115e-01 2.177900178324184699e-01 2.487714823703502678e-04 1.988745449588913503e-03 -7.186601474153183622e-01
3.248139038546462021e-01 2.570744025505107833e-01 2.177548442793230121e-01 -2.423256991127908195e-04 1.730601003007761372e-03 -7.139269461055325339e-01
3.375549182735620435e-01 1.861007599164009874e-01 2.177969724881915203e-01 5.263018495456539460e-04 2.023983169748539042e-03 -6.606618519929309263e-01
3.587696943125534554e-01 2.292974913205492460e-01 2.176976325599364603e-01 -1.950529473815090461e-04 1.521141161007143758e-03 -6.737040683384956097e-01
3.706773560010542812e-01 1.506666956415992908e-01 2.177811460468043192e-01 1.211369311480522048e-04 1.869257393731352463e-03 -5.804131535014827037e-01
3.335938673334185589e-01 1.555052554012184285e-01 2.177652126594486481e-01 2.642661361250504275e-05 1.611537825459118502e-03 -5.698309360940364554e-01
3.812813867099437704e-01 1.754221924001698185e-01 2.177816421369282995e-01 -6.591368545088500713e-05 1.934660335764173998e-03 -8.175732005191361784e-01
3.290857777629129233e-01 1.698823138313912129e-01 2.176056348721286948e-01 -6.182438725459781610e-04 1.045897661210156565e-03 -8.915693448821112588e-01
3.787124798333698639e-01 1.682777371267692446e-01 2.179211871788266919e-01 6.410111766769582527e-04 2.509451816379109496e-03 -5.760528482459432720e-01
3.393274263808644942e-01 2.647367352112131034e-01 2.176547154417785013e-01 -9.990638985793740077e-04 9.979934030531446496e-04 -7.545783882190947311e-01
3.800213452019067795e-01 3.031931968946706135e-01 2.177797016475829239e-01 -9.495169578259823678e-05 1.893580997329835647e-03 -8.079692137653394779e-01
3.425166398676872115e-01 2.740295184035062004e-01 2.177643192626567137e-01 1.167727067152894921e-04 1.787590590457265689e-03 -7.941808690287265327e-01
3.772681787554489352e-01 2.509115714265993113e-01 2.178112720690917326e-01 9.107286179564836443e-05 2.127867609207610439e-03 -9.032149246292849876e-01
3.562854296755327277e-01 3.067068199723935740e-01 2.176812620507594942e-01 -4.463145314728215996e-04 1.347606415076120934e-03 -9.239805707652943845e-01
3.592277393582215539e-01 2.279411598134141737e-01 2.177057572030933752e-01 -5.391904240441769484e-05 1.333431485963780007e-03 -7.587424922099061941e-01
3.696367580587467394e-01 1.752509117460636090e-01 2.177475083506559272e-01 1.772949477716617575e-04 1.677888502517830291e-03 -8.070007047381552168e-01
4.108757870194899020e-01 1.254246440737445956e-01 2.177689144256810816e-01 3.351932460187052594e-04 1.866951228549050068e-03 -8.262013888386829930e-01
3.403928731788746775e-01 1.187871465438786051e-01 2.177826813359829972e-01 1.545958939317971495e-04 1.830654597662385429e-03 -5.412733600164835179e-01
3.694003572707165728e-01 1.706283961807686655e-01 2.177037798612233566e-01 -4.120726323261206443e-04 1.549131485206052235e-03 -5.366064236848931968e-01
3.638334878144212636e-01 1.890678217240940595e-01 2.177438912185239439e-01 -3.075858690219873497e-05 1.789806213757453484e-03 -6.303989018777276243e-01
3.727851262169776247e-01 2.236830481634795587e-01 2.178432091537244042e-01 -8.663890380322028636e-05 2.092473520000267314e-03 -5.339389666073612872e-01
3.756239474002457945e-01 2.156732880476531777e-01 2.177000736334551712e-01 -4.265824240191859766e-04 1.336470669460531474e-03 -6.513370775905562571e-01
3.980081118419971919e-01 2.261449263638427021e-01 2.178085496372735852e-01 4.603084098816189731e-04 1.972132822799694835e-03 -6.209434285699308997e-01
4.367408128075765394e-01 3.053444493442550867e-01 2.177808983510833851e-01 -6.980291447691691674e-04 1.738518740300496130e-03 -8.205097685132790586e-01
3.591440559107976771e-01 2.423773094427218444e-01 2.177572457261773287e-01 2.606314005012356832e-04 1.724586436998002195e-03 -6.412918192863281686e-01
2.749342466342185598e-01 1.761420677561547632e-01 2.176506316802144236e-01 6.115611258174885026e-05 1.150912582729196739e-03 -5.407029253157390469e-01
2.869348753535950203e-01 1.957482603034020052e-01 2.178248489801487553e-01 -2.666008536806656768e-05 2.127385901730771949e-03 -6.262891824096182836e-01
3.397269391471331446e-01 1.511966858576953843e-01 2.179664092180668700e-01 7.445162341330748782e-04 2.826639458496052471e-03 -6.223645262694847968e-01
3.824567661851653311e-01 1.624526962825288134e-01 2.177753661053027923e-01 1.692641482574800749e-04 1.946594802964098699e-03 -5.541927826242242228e-01
3.711583201191091530e-01 1.659689012874879799e-01 2.176682090196512265e-01 6.054943381275890792e-05 1.339650941534305121e-03 -5.157382071098421950e-01
3.624020046491454039e-01 1.449461370395927207e-01 2.177299375089201128e-01 8.265662089754013828e-06 1.638222534687842988e-03 -5.962109839141216394e-01
3.495505259463685399e-01 1.038277039172341709e-01 2.178298505239980587e-01 4.393737867205523744e-04 2.145171032219024294e-03 -2.687179597705914857e-01
4.053847008393469120e-01 1.287945474970730309e-01 2.178179537171195945e-01 1.849200284152477055e-05 2.175946965034748510e-03 -2.882033458232127754e-01
4.474495277785356939e-01 2.263987722458750407e-01 2.177894859691251184e-01 -5.405872410763228920e-04 1.814177030438680590e-03 -4.491724813414141870e-01
4.571360879572300973e-01 9.274984581411759021e-02 2.177878848876857454e-01 8.894258099650713617e-04 2.059111963878263851e-03 -4.708119744240402138e-01
4.165729445047288149e-01 8.938634289607938488e-02 2.177256885695541544e-01 -1.817691926073409928e-04 1.551109945625526619e-03 -3.815467782604843316e-01
3.823256406003614494e-01 1.134605754079177770e-01 2.176860534438513906e-01 -3.623218641046083177e-04 1.322267161897292898e-03 -5.814377683061426882e-01
4.541703885913389582e-01 2.673819983431982919e-02 2.178275161038376595e-01 4.036885039334071846e-04 1.993679993038666425e-03 -5.137975043152493981e-01
4.916787691313640463e-01 3.948057758410675883e-02 2.177647883512697780e-01 -2.000161891148048341e-04 1.701663805694884901e-03 -7.037227708621446309e-01
4.037712813765680919e-01 1.975746803152488712e-02 2.178068009480966238e-01 1.791189770000754886e-04 1.932001794665718242e-03 -3.663628859485831835e-01
4.507416068169334267e-01 1.268296591170495757e-01 2.178393750455611122e-01 -4.946044640683904285e-04 2.080882383719600843e-03 -4.072617288318750584e-01
4.844567311280341126e-01 2.694377038127595755e-02 2.178080920394410702e-01 8.004800007322905369e-04 2.167569982628294104e-03 -4.350286700912148197e-01
3.813471073014574886e-01 3.919253347384273056e-02 2.177303843199873690e-01 -2.072593699060309113e-04 1.473606697444677449e-03 -1.746826237281049188e-01
3.719780257546033142e-01 9.859544842216975968e-02 2.177579189357025102e-01 -3.326067154903931630e-04 1.701046875001969213e-03 -4.939562282251760972e-01
3.544572448464464731e-01 1.235138647235570208e-01 2.177996997109388766e-01 -4.949113512191215811e-05 2.014039495174845158e-03 -2.978595517826951311e-01
3.030100079450629424e-01 1.341000383937379914e-01 2.177348217952984610e-01 -2.425850365107625080e-04 1.773605829155997697e-03 -3.863955565739866094e-01
3.815603850371007688e-01 1.402201519065484625e-01 2.177476949333171374e-01 3.672815789213360364e-05 1.846748216969813046e-03 -4.858916592893531838e-01
3.504739121281001957e-01 1.078249748643074629e-01 2.177419182521555530e-01 2.943288052400422393e-04 1.731771920313744271e-03 -5.638883799097104133e-01
3.199441457870745853e-01 2.093013578600556590e-01 2.177304060357259652e-01 -5.668406316262318816e-04 1.593422311255147245e-03 -7.469180518777509548e-01
3.813671547361802694e-01 2.013309195097022775e-01 2.177669729591307224e-01 -4.397324374581569086e-04 1.778675716499816253e-03 -6.726269436039106209e-01
3.709160000532530921e-01 2.164287301368769956e-01 2.177982350062716010e-01 2.767185011076168434e-04 2.026381561467270088e-03 -6.779217756184803267e-01
4.244214342516375305e-01 1.439950452114274193e-01 2.179256022683515592e-01 1.214189384387780570e-03 2.681277974648418102e-03 -4.978983546282677586e-01
4.727258236009458381e-01 6.612950423173302728e-02 2.178427863098347239e-01 5.946009231073392989e-04 2.412693786100450835e-03 -3.303935266463513543e-01
5.413186394220830255e-01 4.042856522903606753e-02 2.177485086949332849e-01 2.290987281012172108e-04 1.825190210425014191e-03 -2.842610656677506120e-01
4.754663118952918710e-01 1.472454014782282328e-01 2.176100977588551477e-01 -1.323231306565304192e-03 9.718016691009657157e-04 -6.057108843578367097e-01
3.978816353701967734e-01 1.682171676386676473e-01 2.177946454641778717e-01 -3.046759993476533691e-04 1.838085405541217080e-03 -4.645712315943548165e-01
3.664895569780476925e-01 1.562595709922952603e-01 2.176126580855256565e-01 -4.955057548105311561e-05 1.083286065073930330e-03 -6.103534347830847917e-01
4.019090241297129662e-01 1.536425698375477045e-01 2.177999909008929702e-01 1.724835122068938781e-05 2.096677978999456505e-03 -8.353656956177073489e-01
4.262089125843862569e-01 1.852134448586120197e-01 2.177547448417588849e-01 -3.485331462284229167e-04 1.586998648227795714e-03 -7.236036079733615400e-01
4.341245986834994519e-01 2.580407266719355608e-01 2.177234625148521396e-01 -8.244251929749048767e-04 1.517618285982465882e-03 -8.023476598121577208e-01
4.234127121347014411e-01 2.358139755918281788e-01 2.176999234171650421e-01 -4.937812745636844451e-05 1.250972315242092131e-03 -7.792797444290886499e-01
3.989151393563088455e-01 1.875958926110228298e-01 2.176993015076265081e-01 -8.226990163234617118e-05 1.284520753925537601e-03 -6.673141304183326517e-01
3.661062921669848147e-01 1.988337448027547583e-01 2.177536061208206197e-01 -1.643266668957221158e-04 1.580782062940250862e-03 -5.029485842349094016e-01
3.724921974151993442e-01 2.225232208957403368e-01 2.177984353456042244e-01 -3.421359112252110768e-06 2.000250281790470590e-03 -5.785834503041330512e-01
4.110104952877925988e-01 2.147875544358820721e-01 2.178235182667203618e-01 2.133183174650114117e-04 2.073211432965463112e-03 -5.444951822743211434e-01
4.002572579293105504e-01 2.115902721284740329e-01 2.177957296641814255e-01 4.237750871399760083e-05 1.964678103254282378e-03 -5.306101970876840879e-01
4.554780523083348798e-01 2.361790010929126216e-01 2.178574717991934584e-01 -2.455976086059192420e-05 2.240456533883646538e-03 -7.059584789884976175e-01
4.130999641772252762e-01 2.271002404486666404e-01 2.177136893308351251e-01 -2.567687005557863877e-04 1.464205609096989533e-03 -5.830448468316851152e-01
4.502468396318101140e-01 2.437204001398833864e-01 2.177000144443156926e-01 -7.614711873557210265e-05 1.452100089825868971e-03 -6.965811698132136076e-01
4.491881433179554794e-01 1.708128865861126555e-01 2.177369594846357836e-01 3.754341601852181280e-04 1.687910164607176562e-03 -6.078841264287958568e-01
3.743176323310050124e-01 1.686779446641009372e-01 2.177272527731557439e-01 -5.401907594587681752e-05 1.562075859964067847e-03 -5.775130647542974227e-01
3.761168911657450376e-01 1.425949872248056527e-01 2.177926943150457206e-01 2.765807584576188653e-05 1.897850588374976532e-03 -4.618271941897774679e-01
3.584675491744538367e-01 1.294092629531508887e-01 2.177762114594349874e-01 2.528798527324831115e-04 1.894959695014706907e-03 -5.117359156888593441e-01
3.709728263159897121e-01 2.103938900580923088e-01 2.177479156156219009e-01 -4.325950909590960233e-04 1.694429830514914553e-03 -6.299680752106288084e-01
3.955893535485531243e-01 1.999952717454087092e-01 2.178457238272242247e-01 4.772865855098989713e-04 2.438090600675222631e-03 -6.063886637689434034e-01
3.519575224630955290e-01 1.392157543208638049e-01 2.177567117634271465e-01 1.172810225272555100e-04 1.673442458106936311e-03 -6.919432841408398316e-01
3.555576376918888060e-01 2.347307255961676997e-01 2.176871160090205759e-01 -1.014750462014336755e-03 1.207895026721357828e-03 -7.837611968436496435e-01
3.676259225981134970e-01 2.855821798912887011e-01 2.176941229849716497e-01 -5.273508323528652321e-04 1.345767761152741847e-03 -9.163886555465297068e-01
3.690106717621020604e-01 3.147684079019164582e-01 2.176771089703147810e-01 -7.745696128359460695e-04 1.101381349287168651e-03 -9.099812735016586940e-01
2.944704375000924412e-01 1.864531515290641372e-01 2.177255722347671285e-01 2.674559286403404537e-04 1.359090702523877911e-03 -6.989872144123406850e-01
3.022449829353408002e-01 1.643720514813844791e-01 2.178104762636349223e-01 2.931955069583053056e-04 2.023658948355959528e-03 -6.926419708211429827e-01
2.752906125610207200e-01 2.008514513539363111e-01 2.177954165717860269e-01 -1.544751767374941609e-04 1.885246139851849429e-03 -8.717286120516578585e-01
3.015791058968755323e-01 1.893310407959757358e-01 2.178020756814519898e-01 -6.245740272297983049e-05 1.880771334400291143e-03 -7.491405017616313833e-01
