-4.956172713070877700e-02 4.458611376068278842e-01 2.097156674158455192e-01 6.306475978523838318e-04 -1.687694603123715683e-03 -5.569268981517545569e-01
-4.730430606546631028e-02 4.883431770219909818e-01 2.097712392690647687e-01 -1.869191177506782575e-03 -1.567379920701251334e-04 -3.230967097963660661e-01
-1.628053305355111474e-02 5.528038935503980511e-01 2.091207950327698684e-01 -2.773091436026150396e-04 -1.424838705986848078e-03 -4.614080114729744442e-01
-8.832067056377676528e-02 5.503830049443699801e-01 2.087931491528614014e-01 -1.719370010184909190e-04 -7.675185644342836198e-04 -3.539427215855336373e-01
-6.277821723522646058e-02 6.739068182819040187e-01 2.085301651756909513e-01 -7.142962492831460186e-06 -6.044519913278204948e-04 -4.108297447571701566e-01
-8.810377510416247948e-02 6.377275753661739710e-01 2.095557064745272591e-01 1.327601381620357361e-03 -3.582361942277188728e-04 -3.486447050190195074e-01
-7.960885775710815904e-02 6.101489217927061892e-01 2.095057506324120578e-01 1.241345554616757069e-03 -2.646957866499685392e-04 -2.081929195109582242e-01
-1.209874744828762644e-01 6.621079053787525259e-01 2.095132202317420700e-01 -3.140946916295720326e-04 -7.100323729168229450e-04 -2.427592190245283221e-01
-1.141201604313907408e-01 6.911782799021748414e-01 2.090392203530921367e-01 -7.258372079594217199e-04 3.552037025664238280e-04 -3.041539431011429651e-01
-1.062742884484609712e-01 5.947025800043407306e-01 2.085891293318812290e-01 3.066546243733677193e-03 7.801858908691611813e-04 -2.653747473949507052e-01
6.332668644605795455e-03 6.116872894805005512e-01 2.093823189428304365e-01 2.643335173599816834e-04 1.881607698142744771e-03 -1.752835657348369436e-01
9.761929971695230968e-02 5.955660949491886624e-01 2.089898913777583633e-01 1.473759926059778390e-03 2.809221567769896294e-04 -1.438520672387308408e-01
1.991957431199453399e-01 4.671156485331575126e-01 2.099172316003516947e-01 7.938577208901401432e-04 1.105095942914885660e-03 -2.011136806374897446e-01
2.289431673662464251e-01 5.899718390468280393e-01 2.096180273064997546e-01 -1.985749970796471184e-03 -1.516118152835659169e-03 -5.432335967060837323e-01
5.655944843186250237e-02 5.199884188947760943e-01 2.093441843744966446e-01 -2.005619648398646558e-03 -7.351276030337079541e-04 -5.416708227702308198e-01
-2.276963035588460554e-02 5.343837410221214945e-01 2.101161256511846487e-01 2.088865635394530229e-05 5.542610289339782717e-04 -4.098275090536698251e-01
-4.346705136675516057e-02 5.286014603959687808e-01 2.093172600980249820e-01 8.257945457764952072e-04 6.157388227172391759e-04 -2.618176476082726412e-01
5.192926004095105297e-02 5.365324065743992676e-01 2.092433648655803169e-01 1.461483691136353192e-03 8.007196381704770501e-04 -2.995950764735998972e-01
4.799811882298885002e-02 4.065059092181730338e-01 2.098683538080900468e-01 1.477280377618971552e-03 1.903828750637644694e-03 -5.471465333494570510e-02
2.176408636731835822e-02 3.392879645055941196e-01 2.101133791479070645e-01 -1.927518118429127642e-03 3.662510098822515390e-04 6.261625427790198928e-02
1.356865932532197450e-01 4.465612792429739519e-01 2.094962377682075827e-01 -1.816949227677423350e-03 8.249731428767781210e-04 -3.395973590311160417e-01
7.826985158615155924e-02 4.944147559590881813e-01 2.088661453755432662e-01 1.724197956421233673e-03 -2.109027688134697525e-03 -1.981143505658854442e-01
8.839943683867038104e-02 5.073236332772419477e-01 2.098941241956904791e-01 -3.669625410371152432e-05 4.017953585871822299e-04 -1.682601148191674723e-01
7.516882929987822592e-02 5.121867293988333625e-01 2.093447233095592774e-01 5.554653547260089783e-04 4.005418434517074295e-04 -1.035135286909408397e-01
6.204445164034092658e-02 4.673340282846623062e-01 2.090428989151020267e-01 -6.192068270243111967e-04 1.011712225799330954e-03 -9.629053139379060988e-02
1.089363819227182339e-01 5.210701360065894683e-01 2.095908655553130329e-01 -9.537463972759357804e-04 6.408641098119228965e-04 -1.768990036884755535e-01
9.186707433274533818e-02 6.385612298576828216e-01 2.090482965056751907e-01 -2.194583617336524298e-03 9.585985100508376787e-04 3.012330852155472444e-02
7.897782150061422035e-02 6.597483571486151277e-01 2.086222709663628216e-01 -5.164724708023206564e-04 2.390086576768681514e-04 9.638647657057103357e-02
1.452234546989900343e-01 6.801608891291505143e-01 2.098638705156702366e-01 4.310090324377233444e-04 -1.219612840560873202e-03 1.880890528228816028e-01
1.250023130884584388e-01 7.675294114056216976e-01 2.093578249244662515e-01 -5.730178181193823451e-04 -1.276976905456074897e-03 6.705457385883729915e-02
9.843320531428613462e-02 7.116446293418303704e-01 2.106303371643200584e-01 -1.399204492087989526e-03 -2.879142515729380541e-03 -6.539851910170324523e-02
-2.854612442959180568e-02 7.680611072901070147e-01 2.097115959761947646e-01 -1.024606917823286294e-03 -5.546175160086158282e-03 -6.976529877429911153e-01
-7.127095733340008121e-02 6.992280305241955762e-01 2.085614055967285330e-01 1.609105434145877232e-03 -2.995445046503624094e-03 -5.981223090557257205e-01
-8.452627355196840053e-02 6.914364072779257686e-01 2.095308649017136315e-01 -2.366424419894110423e-04 -8.374249133000974659e-04 -5.194082178601552302e-01
-1.814869449182679451e-01 7.345697910235540196e-01 2.087469581935518237e-01 8.646891605454558099e-04 -1.727292922321166987e-03 -7.188538275911404707e-01
-1.412828630455610079e-01 6.081946310308034009e-01 2.096804548354476161e-01 1.537465189787681514e-04 -6.442770247719038865e-04 -2.919692618422506381e-01
-1.705713441134904806e-01 6.854859197646179236e-01 2.090340349902023442e-01 -3.695132466156521322e-04 -5.703890092877448659e-04 -4.707461930551041229e-01
-1.853197909231585616e-01 6.248923784578738205e-01 2.097361087018047576e-01 3.822674718337477906e-05 -7.016360420349689866e-04 -4.200721200117402132e-01
-1.875092609545759292e-01 6.729887472582889441e-01 2.090879103594352473e-01 -1.220869873012280329e-04 1.934245015068752362e-04 -2.366679153447480699e-01
-1.045211218583644297e-01 6.015130697815260774e-01 2.100016427293963650e-01 -1.101523646375726303e-04 -8.998764089499418372e-05 9.669285850651576641e-02
-7.530621485917535218e-02 6.772174639248759176e-01 2.092332564752611423e-01 1.153453279994361657e-04 1.180965553417000994e-03 -2.401477026875454279e-01
-8.847805347799256315e-02 5.712963324319546565e-01 2.099923381478390749e-01 5.814014684487828558e-04 7.883053754358252188e-04 -2.858841878144430249e-01
-2.568793556385842031e-02 5.753359035610521310e-01 2.093537468145398872e-01 2.946504708196441219e-05 1.940028808674888663e-03 -3.625820271157774166e-01
-1.328173131642956806e-01 5.007000131568724033e-01 2.097510872649616664e-01 1.074788553866015250e-03 -4.077364342522797657e-04 -4.281587716713304292e-01
-2.034169250262657658e-01 5.272828021547045774e-01 2.089298141386929930e-01 2.673517196304835055e-03 -1.117108585573930828e-03 -4.676187247810791314e-01
-1.682641129914559941e-01 5.211289645327844555e-01 2.100075878817836972e-01 -1.911213608335338198e-03 -7.518944814193383348e-04 -9.083736594381151830e-02
-1.942233659067977569e-01 6.150187112078621121e-01 2.093505175190268353e-01 -1.029901373078187434e-03 -1.509746180619258660e-03 -5.488658777542608780e-01
-2.414518016826106006e-01 5.778726330331128702e-01 2.098326214229852549e-01 -3.337766674478937043e-04 -2.168743189490309072e-04 -6.014223722077163270e-01
-1.261376590675854781e-01 5.451810642966029574e-01 2.083847531566422884e-01 1.102397904301470263e-03 3.835470362522476993e-03 -1.472192386414598597e-01
3.160826085038936223e-03 5.761433580423522827e-01 2.098904718605773545e-01 -9.211018494294627651e-04 -9.301067131049673168e-04 -1.050635697515369671e-01
1.344527817533568426e-01 6.086889969645661314e-01 2.088761416611030208e-01 -7.357427068852118277e-05 8.151987073844093462e-04 1.480519086662180628e-01
1.073013261693432363e-01 5.694014229129507054e-01 2.100959600809617633e-01 1.021318226341241331e-03 -2.503236599859913741e-03 4.554298941318518819e-03
1.572763731442760604e-01 5.666918996248169194e-01 2.103860969005481030e-01 -3.368038084017701498e-03 -3.319093003419450010e-03 9.771162796556176477e-02
1.198594912992904382e-01 7.268696058645974789e-01 2.099348896112830376e-01 -1.208286552528423227e-03 -4.554022736396169755e-04 7.987630623344917080e-02
1.032339613854129090e-01 6.072769010458389793e-01 2.094693852696365988e-01 -6.115709136440056941e-04 -2.673347426174611189e-03 -1.508091201677008164e-01
-3.449640619938509206e-02 5.565011433734111668e-01 2.098266324013979278e-01 7.770441886710770620e-05 -1.529802729687287617e-03 4.781224705090359600e-02
-8.883502041329122134e-02 6.499956630082703857e-01 2.090717982121079177e-01 -1.014493631350038864e-03 -9.701482731136123420e-04 -5.791822920859794610e-02
-1.828079594282547293e-01 5.704404600052045415e-01 2.100240689100039138e-01 1.726270882851730758e-03 -1.568066164127609194e-03 -1.388328963668591376e-01
-2.541740863951193474e-01 5.026971827518116331e-01 2.090920269051598779e-01 -3.830276213550281705e-04 -5.319157379118563938e-04 -1.895558544829256120e-01
-2.348984680601143848e-01 5.720024470234056357e-01 2.097556110375290994e-01 -1.012154251073322207e-03 -8.068496754836234621e-04 -1.875823096425595082e-01
-3.132674782867166940e-01 5.542631807897231422e-01 2.092266625976213490e-01 9.258246539576531165e-04 4.136745354639158393e-05 -3.728158500432041667e-01
-3.621713482090234693e-01 5.149261738466529570e-01 2.099263276007063972e-01 1.803208007270837136e-04 3.951777082923629809e-06 -1.808107049098768015e-01
-4.076778307502466614e-01 4.999326104232232337e-01 2.095238699152023876e-01 -8.248915712566976671e-04 -1.109343962928347350e-03 -7.667095685387782800e-02
-2.648698750767943810e-01 4.422788767706383184e-01 2.089625328640680180e-01 1.493133588588925866e-03 3.167899287443483574e-03 -4.040724159846852820e-02
-1.565102853746565548e-01 4.573073204017255589e-01 2.098899956311701120e-01 5.098361458461316421e-05 1.326596424104527954e-03 -3.234998492386109703e-01
-1.473224405918953928e-01 3.799468217006661819e-01 2.094857280167720659e-01 -2.489237016849200901e-04 3.351723533016478206e-03 -4.034135833403590943e-01
1.488543011983119863e-02 4.299755227820049597e-01 2.100790968429749883e-01 2.389930066618704981e-04 1.835739239808947300e-03 -6.175095125194776102e-01
-1.366656173850690562e-02 3.108794649191451431e-01 2.098455614944296777e-01 2.730068779075590056e-03 1.379467740754157989e-03 -5.901668452957842259e-01
-7.044617350662603361e-02 3.502009153533547914e-01 2.094107767881546178e-01 -1.513694130034496299e-04 1.378664257227998815e-03 -4.297969476149736123e-01
1.437899400686872345e-02 3.585270857423730195e-01 2.102596171668629221e-01 -8.799331961873461873e-05 8.809323114973031726e-04 -4.527152559105638852e-01
4.663724067611212110e-02 3.711077355640394759e-01 2.095755221991164596e-01 -6.023562093109349758e-04 1.888226380840432117e-03 -4.996230396569419918e-01
7.721074288270132757e-02 3.329396180906136760e-01 2.095719220997402932e-01 -2.697594810855401151e-04 1.175340504509706126e-03 -4.177792067185110980e-01
6.607002719735388663e-02 4.066172653664833492e-01 2.096902719990091368e-01 -1.479271781112424626e-03 8.457280492942617243e-04 -4.617789984126383085e-01
-1.909961970300605785e-02 4.205602139662159566e-01 2.091183157312976326e-01 7.809982246066190896e-04 3.476714599752549868e-05 -6.130739204297603884e-01
-2.429694461117129500e-02 3.944752410861692704e-01 2.099921298410221682e-01 2.878730759554479993e-04 1.150058831101464666e-04 -4.996365223069927364e-01
-2.805968819456652538e-02 4.167552849112939328e-01 2.100266448974094091e-01 -4.638627957927465850e-04 -4.569391877663212735e-04 -2.046629620405116812e-01
-3.341014725811061042e-02 5.140032793351961837e-01 2.097694737955678179e-01 -5.656228900035439530e-04 -1.722557569417730247e-04 -2.827117437189753946e-01
-3.717503923347477424e-02 5.243985091142540078e-01 2.094321987931298534e-01 4.158525771354581058e-04 -4.061119797082372407e-04 -3.122358354893226551e-01
-7.543344958894064589e-02 5.902735592607695203e-01 2.093950117584124082e-01 -3.927053405492689350e-04 3.963496235882595710e-05 -3.169930693113324760e-01
-3.619119618351582246e-02 6.700315441189522714e-01 2.091446184791223573e-01 -8.563294002161938104e-04 9.552452431450764126e-04 -1.906821987667390306e-01
-4.025923462053156154e-02 6.715258387040925481e-01 2.090293204301058583e-01 9.119385907952989086e-05 -1.080455567471115151e-03 -3.756089395059349356e-01
2.096151029230794785e-02 6.314710328184851562e-01 2.096569516525203514e-01 8.059108695467288516e-04 -6.769693815652159767e-04 -1.282000399424805259e-01
9.680442207461417703e-02 6.106053951795222812e-01 2.096114689417275523e-01 4.732260613707007699e-04 -2.579256858024123363e-03 -2.487314036498118885e-01
1.340139869498277458e-01 6.235914792462716738e-01 2.093373470119340718e-01 -8.478799340520699066e-04 -1.387283281768130318e-03 -1.786299903529112443e-01
1.163064613591047874e-01 6.155519988953002120e-01 2.085960942624779380e-01 -3.784301764230103902e-04 -2.199420834924074430e-03 -1.755862759856541000e-01
1.494970123413331686e-01 5.698785086867533822e-01 2.097108345787099259e-01 1.090989877902725884e-03 -6.987306386031660616e-04 -4.952207858073707364e-02
1.408933024988777982e-01 5.918599205293457732e-01 2.094677471889058729e-01 1.194027232584594635e-04 3.473081382886010590e-04 -2.226582148305218389e-01
3.029550782398092446e-02 5.916158477791944037e-01 2.090447070835094734e-01 -9.521523184719874432e-04 -7.471791546061948676e-04 -2.879482361222921449e-01
-1.948594714338530015e-02 6.276090904674462845e-01 2.099242095430767785e-01 -3.323513881432966816e-04 -1.009122388849657001e-03 -2.691939788895651997e-01
3.123673779968635586e-02 6.106447076410177477e-01 2.093853506259789055e-01 1.103844693331620724e-03 -5.574890416556100474e-04 -2.444554137167495589e-01
-3.319173463250544437e-02 7.274114836386320615e-01 2.086046696042046511e-01 -2.668444618097414031e-04 3.677590838253124686e-04 -3.230962059199228298e-01
-1.319370955795526323e-02 6.454921016708812243e-01 2.091246601804084837e-01 7.271411977885509957e-04 5.078021679271229596e-04 -2.447482853415877124e-01
2.139862849348551574e-02 6.445212427260804677e-01 2.086068069028000904e-01 1.428700174237401829e-03 1.078084304901956100e-03 -4.107756331612837930e-01
4.232998762009133886e-02 6.771259652581521626e-01 2.094100740736575261e-01 -8.463129801867134766e-04 1.318995052582200419e-03 -4.219179697394752626e-01
9.069178144744159675e-02 7.195884963123101441e-01 2.090621185068247678e-01 -9.256638063774963151e-04 1.240754040045664863e-03 -4.468127114913552633e-01
6.276134681862513554e-02 6.525059633798947489e-01 2.094492725773557940e-01 6.627302153065711210e-04 1.008213259603586449e-03 -2.875429738979242700e-01
6.547992263545242275e-02 6.740092805813497900e-01 2.088917416744834332e-01 -1.289824467185627548e-04 1.307617094254131911e-03 -3.008642816459681790e-01
9.036063687234903441e-02 6.483877128065947959e-01 2.098163764896758265e-01 -8.509379924021586751e-04 1.746463941774836466e-03 -1.161832564508895188e-01
6.476545589104640288e-02 6.895420633952625833e-01 2.087152220240931499e-01 2.754486909643658250e-04 3.424307036872317614e-04 -1.244895035542038092e-01
1.113656239441290080e-01 6.590804510019739881e-01 2.096312867489920628e-01 6.879114558985012767e-04 -3.643208557764282996e-04 -2.055664357845496948e-01
1.328990336580477549e-01 5.990223141468805634e-01 2.095693055544580741e-01 3.331375802112073728e-04 -2.802627414445266868e-04 -1.439154241737757578e-01
7.711635334678185183e-02 6.214965195099136919e-01 2.091878563430679683e-01 -1.038991526678557497e-03 1.036543321401072002e-03 -3.202717510358262243e-01
8.164333251090757915e-02 6.123732972581535927e-01 2.102621361479672935e-01 7.925282653352016713e-05 -6.750681791595204663e-04 -1.660204981026437154e-01
1.111691484789235906e-01 6.349400716804459721e-01 2.099271791045390634e-01 -6.453211864883553811e-04 -3.530558942731036945e-03 -3.184853093404506619e-01
6.140574517640076668e-02 5.944659153642780636e-01 2.102857143052117017e-01 -5.396677530747621314e-04 -2.664352467595805431e-03 -4.076879048951059237e-01
4.861475863118049079e-02 6.712900877698072533e-01 2.089414193021740807e-01 -8.901608842522058286e-04 -5.675498087571268988e-04 -3.923590593272160421e-01
1.999155820452545168e-02 6.826939345662962344e-01 2.092915340317852424e-01 -2.528510968438747795e-04 2.542383644824030816e-04 -5.244506753404165611e-01
6.153468786529495138e-02 7.217443480146129575e-01 2.099030733882232824e-01 -1.208902175306892586e-05 -9.074402746645910105e-04 -1.809130596962457149e-01
8.217254324401953441e-03 6.978568082825783447e-01 2.088430366996464893e-01 -3.363396207485558082e-04 -2.004342829774668783e-03 -2.130900564509275452e-01
5.030835130482212009e-02 7.149559544419480384e-01 2.095160132911922934e-01 -1.825225719016135078e-04 -1.242772370127118468e-03 -2.461316460715666787e-01
4.804390524978827820e-02 7.777804283629788928e-01 2.098437663956692623e-01 -7.117645993085485725e-04 -7.625418328815790694e-04 -1.784791561099565438e-01
5.094033658824618366e-02 7.301477164549033949e-01 2.090500210700326766e-01 4.723149347588402559e-04 -2.229790429473460858e-03 -2.655368328379233978e-01
7.110444290746999185e-02 7.221407817294640541e-01 2.094615267475641307e-01 5.204595535591455963e-04 -1.293181352413717801e-03 -3.560259899937634476e-01
6.545545292598119180e-02 6.748689924985934452e-01 2.099844088747240267e-01 -3.852962524511963191e-04 -1.619974363276401085e-03 -3.539683134006142984e-01
3.371469978475255536e-02 6.376717553338191458e-01 2.099865984636311023e-01 2.671784967661183893e-04 -9.331104055387863788e-04 -3.025542264411861804e-01
-2.136416045137182543e-02 6.758721767807152059e-01 2.087667972590404042e-01 9.041520731893886581e-05 -5.600779043179085048e-04 -5.558308163445840888e-01
-6.979863353497507694e-02 5.314242169061895726e-01 2.096612356932887056e-01 6.063960437417793359e-04 1.305595426733291062e-04 -5.034659042206364177e-01
-5.655107584697333101e-02 5.468453375185735599e-01 2.103245250406166056e-01 -4.397022717478771161e-04 -3.732560572873388593e-04 -3.406350742341819893e-01
-1.267990896185837713e-01 5.753886893588219253e-01 2.095625585489672149e-01 -3.166108511575570802e-04 -1.169055287123952144e-04 -1.646712556053621379e-01
-1.014540263690879782e-02 6.307021721200369857e-01 2.088424046603001294e-01 -6.730251574799306000e-05 4.386987412681363436e-04 -3.585174008188131145e-01
-5.137971979412314649e-02 5.424742992570359412e-01 2.099657822986117361e-01 1.038422242378139260e-03 -5.734815317065373400e-04 -2.220868844039849133e-01
-9.470567557264622516e-02 5.443024169833314829e-01 2.095279416199644640e-01 1.440440110544200826e-03 -9.681000943412674956e-04 -3.547689767931877514e-01
-9.149144408767373449e-02 5.132884738342067266e-01 2.094661561209829048e-01 1.007848234815765130e-03 -9.946333556871164543e-04 -2.536620436236440290e-01
-8.370511404300132186e-02 4.372519182757196865e-01 2.101391006832700747e-01 7.735267224770940673e-04 7.383792854606595043e-04 -2.587774470576855168e-01
-5.069430379219465321e-02 3.980261533934761342e-01 2.093352038381283697e-01 6.441178525974478692e-04 3.222951147450771586e-04 -2.582424648509850096e-01
-6.818275558473668729e-02 3.716361425289012588e-01 2.087140645930502525e-01 -2.849766586963739111e-04 7.505818650838452181e-04 -3.216700165422179403e-01
-6.536655894191004124e-02 3.891625814432272956e-01 2.098106701530699780e-01 2.313725274863615900e-04 3.320008022100002978e-04 -2.722109745307724760e-01
-4.746832283842231104e-02 3.242665364679912510e-01 2.091991855763833397e-01 3.612048778552098631e-04 7.164806212265472252e-04 -2.966239301274977147e-01
-4.691121244253645961e-02 3.321126807718664531e-01 2.090720881504969375e-01 2.605274869443719040e-04 3.862556386732640223e-04 -3.122233360287371973e-01
-6.146732559123846418e-02 3.219220299033483945e-01 2.099831711858916594e-01 4.001857285621308365e-05 1.071203991352636222e-04 -2.423133025621234116e-01
-9.815515369876351426e-02 2.638518282261760883e-01 2.099143318226844301e-01 2.370818084671387916e-04 -3.797626759200923175e-04 -5.682768017352813478e-02
-9.662588483851158871e-02 2.007372819937927322e-01 2.097031729807043443e-01 -2.704885762973132453e-04 -1.149365970819365854e-04 -8.916543134682550220e-02
-1.340291718223567963e-01 2.083323937455511532e-01 2.097025002297953633e-01 -1.665370236503301157e-04 2.896664024553395091e-04 -9.942091388543376762e-02
-7.680708292317767194e-02 2.641871872321209791e-01 2.101757676147772425e-01 -2.210904899021894662e-04 -3.625674581446205482e-04 -2.102552834252205960e-01
-6.955783092762418685e-02 2.273023360057515041e-01 2.102538535616448323e-01 -6.517276806889800650e-04 1.673208255772334928e-04 -1.406294683328041251e-01
-5.686201941266200155e-02 2.948341254039736903e-01 2.102256733863230864e-01 -1.996305990329955821e-04 1.476894854299726689e-04 -3.010690365029174975e-01
-3.224856338931107042e-03 2.818621222997968467e-01 2.099307083319069678e-01 -5.608458365393306429e-06 5.031588108335552828e-05 -3.970483208267740483e-01
-3.798884764861486241e-02 2.737469918941197178e-01 2.098828629745193575e-01 -1.292875966934522005e-04 -1.061377944908366760e-04 -2.282125268875061508e-01
-4.839564269295654197e-02 2.845513864271355109e-01 2.093683042346204948e-01 -8.597439035385748762e-05 7.633714185288266875e-05 -4.325531987520824240e-01
-9.073602388330496288e-03 3.365475360991124210e-01 2.099638892380626398e-01 7.972401803765136695e-05 3.890109771004725985e-04 -1.417485348122097533e-01
2.512366984889531640e-02 2.827643672061869728e-01 2.094757288165964848e-01 9.616016292581964641e-05 1.058311683948391342e-03 -4.720602049269539968e-02
3.846288428090894468e-02 2.786925217777155850e-01 2.097046039457751698e-01 -1.319572393479506528e-05 3.556701336877512326e-04 -1.856461109020671740e-01
8.708546199081478034e-02 2.416613515422972314e-01 2.098386150840095832e-01 5.732792426730857968e-06 6.949255108492872340e-04 1.230980523128629225e-02
7.205148186948980016e-02 2.440869674433171765e-01 2.100330220438783035e-01 3.088890303242042266e-07 7.917880554818747393e-05 -1.455995320445625241e-01
4.973508095206730789e-02 2.440210768733785396e-01 2.101111813668747330e-01 -2.033632976597741864e-04 -1.251934062526205795e-04 -2.144639539223129610e-01
6.533368430591904308e-02 2.707764611028938284e-01 2.099789601866637323e-01 -8.481889543897821473e-05 4.298798323795910707e-04 -1.456163222290865755e-01
8.327419300159633053e-02 2.802087957492898629e-01 2.100766077570582757e-01 4.713059889481983585e-05 1.933636661781185608e-05 -1.421128060304235885e-01
7.018418821133040608e-02 2.492110880745777024e-01 2.100453754078392965e-01 -4.158862714374627934e-05 2.992639957595878740e-04 -1.053500805530862977e-01
7.194247416893413682e-02 2.408806866794975243e-01 2.100301431406412234e-01 -2.135033639444209450e-05 2.711591332959348744e-04 -1.718301535596962193e-01
9.343343423739468301e-02 2.665941447291822475e-01 2.100614069955318297e-01 -7.138355568195644001e-05 2.764222861279501810e-04 -1.217020616800883609e-01
9.669762497420003600e-02 2.819216428078953340e-01 2.100438482415524222e-01 -1.020121281717459744e-04 2.239755389888107326e-04 -9.472699274002641112e-02
7.684122147126223878e-02 2.464044451129694113e-01 2.100819753820679092e-01 -2.697565559385425738e-05 -4.719935500250379992e-05 -1.447165813758007624e-01
7.483233068117239872e-02 2.948043562483377289e-01 2.100589624941817113e-01 -3.613663069733294284e-05 5.588091065167429450e-05 -2.257976414456192293e-01
5.553729320784141221e-02 2.606817646083947060e-01 2.100617142708384733e-01 -6.779788155672204706e-06 1.520394977006063128e-04 -1.696694659197424127e-01
5.757717069887246381e-02 2.156547115505678403e-01 2.100202318889571318e-01 1.494160783162606834e-04 3.082062059124140150e-04 -8.314718551379816913e-02
8.413413676965078580e-02 2.501906845654203182e-01 2.100022943736485348e-01 -5.241717804067535223e-05 4.495873427912689389e-04 -1.208308268302018401e-01
7.695846001685936744e-02 2.375941653699151779e-01 2.100675219952706230e-01 3.711129605125726433e-05 8.921351530158479670e-05 -7.656786579728103170e-02
4.666389836642220734e-02 2.092893587096601171e-01 2.100757786700385710e-01 7.570852610174012213e-05 5.108453285992095615e-05 -9.108063979187688841e-02
4.520673401375484290e-02 2.874223533758908378e-01 2.100474654125162877e-01 -1.164746358101552404e-04 2.075418004169658044e-04 -2.240323906028566514e-01
8.841123155827937397e-02 2.592511314335901318e-01 2.101176434639958623e-01 -3.158525786220919558e-05 2.774906025907726104e-04 -8.494821699555321626e-02
9.808047518642909468e-02 2.239938982790198596e-01 2.102316939074567181e-01 1.267891160134451971e-04 -6.329622532464910134e-05 1.400185244006495189e-02
2.036337167438584742e-02 2.228157753504954042e-01 2.092933923958440467e-01 1.786144697288124682e-04 7.396154015389882835e-05 -9.950380699087382763e-02
4.034838788279514893e-02 3.048181765555620371e-01 2.094348007573696435e-01 -1.638979430153068265e-04 3.037241501760091686e-04 -2.181277514758406255e-01
1.026684716427308727e-02 2.601846036409421470e-01 2.097518626315097445e-01 7.086874868574183394e-05 -2.656633609981907257e-04 -9.860823547174131509e-02
4.731610683606850970e-02 2.256592042310700819e-01 2.102094800116062756e-01 5.913373494025231700e-05 3.430754791000508418e-04 9.211841817115649922e-02
3.908998662752782849e-02 3.891284567165366748e-01 2.095777893542357107e-01 -6.354771933842777898e-05 7.879625414942915875e-05 -1.085957562417135328e-02
-4.315894217335204675e-02 4.574944733618218073e-01 2.091640388200473599e-01 -2.535267962258257895e-04 -2.537759626157516787e-04 -1.650857980642704004e-01
4.915017529133546698e-03 4.332983872422715987e-01 2.100107300722858228e-01 1.954553020949131224e-05 -3.354684226695130037e-04 -2.635944121713029165e-01
-4.252268723292963043e-02 4.090408251232734993e-01 2.098396019693581915e-01 -3.770753239584023308e-05 -4.641294933409644084e-04 -2.734043844383277078e-01
5.148253289865301757e-02 4.710392113396978941e-01 2.097191181009064875e-01 2.248599133414039145e-04 -1.035205578822902348e-03 -3.436056391461277393e-01
4.285836656528523719e-03 5.138535356132661880e-01 2.101305424586173975e-01 -4.087443283438712183e-05 -1.020003447540657540e-03 -8.020805650576522117e-02
-1.945804327858587437e-02 5.615858297818452360e-01 2.093190869280527333e-01 -1.258468851058920494e-04 -1.648235578403049696e-03 -1.891078157010936400e-02
6.366787329635022891e-03 5.952923196005208695e-01 2.095715271011207581e-01 3.702345599598221015e-04 -1.522369908796406598e-03 -3.323933498217586380e-02
-2.742453489744357126e-02 5.597017691110423021e-01 2.099129509495576973e-01 1.294321586818142009e-03 -2.200623008126939301e-03 -6.829918589487697644e-02
5.693199665788330199e-04 5.661188527606598742e-01 2.088620569316618214e-01 2.063070390378905978e-04 -1.250955116454385624e-03 -1.694487054507106127e-01
5.315265013587221199e-03 5.600872505868944584e-01 2.092837220423973688e-01 -3.929817318888514282e-04 -4.464081218166439293e-04 -5.535384842695017377e-02
4.534251019330749755e-02 6.165443898395100986e-01 2.095885497215416171e-01 1.027907199380648218e-04 1.713984091271326319e-04 -1.380270856962920456e-01
5.989022778074801212e-02 6.042853779523922331e-01 2.100813636773013471e-01 1.601329074626098076e-04 8.471204242768167305e-04 -2.442338386411397333e-01
1.241225703392545565e-01 6.537441328411849328e-01 2.086929776761204391e-01 1.541638674726173602e-04 8.190073791661873397e-04 -1.796573894963248152e-01
1.374218795965138351e-01 7.060600810272299466e-01 2.093386063328488977e-01 4.298999194461990662e-05 5.888822013016642388e-04 -2.560086213615155315e-01
1.149969967384046055e-01 6.830997977839634583e-01 2.100808301192272909e-01 -2.340877069853190937e-04 8.987719931041376941e-04 -4.362685193906936654e-01
3.690111581974257760e-02 6.607235567772242746e-01 2.087123719628171115e-01 2.031381399855903993e-04 9.045226804517301968e-05 -3.848516232037968998e-01
-8.795197824794345060e-03 6.626669557243541897e-01 2.091653036855766201e-01 3.134749277674857217e-04 -3.420474847109518770e-04 -4.546395337524172242e-01
-2.316421950703593038e-02 7.160796803001303612e-01 2.085517337692341933e-01 9.065261538691053375e-04 -1.035988043989789854e-05 -5.565422444317179584e-01
-6.294118884515408074e-02 6.254780521039950969e-01 2.095874227583631177e-01 3.282249893025484719e-04 -1.794266645166979609e-04 -4.836044126130253917e-01
-1.467655552610181435e-01 5.785895693714370180e-01 2.087537694328673865e-01 4.245159408941609610e-04 -6.004011974538768981e-04 -5.235820980300137650e-01
-1.112600584523441433e-01 6.890064092300887122e-01 2.093786595065876832e-01 2.211634731125593255e-04 -3.683714326006255020e-04 -5.583937916056230799e-01
-8.571937720168622266e-02 6.303386947150966257e-01 2.088240230312301549e-01 6.428614404717040293e-04 -7.882026171350558401e-04 -4.308417393204331258e-01
-1.256930257857971633e-01 6.564543454003171075e-01 2.098043878126157891e-01 4.288325332614502730e-04 1.830886693795563474e-04 -4.089946707249694779e-01
-2.333796172400675883e-01 5.699269481384199310e-01 2.089993372640529534e-01 8.307406888155143432e-04 -3.251336158362081656e-04 -2.196625359412703593e-01
-1.570663540599114838e-01 6.651693753681029442e-01 2.097260123089036421e-01 -2.511527570138625490e-04 8.489305503129802085e-04 -2.811352823585263061e-01
-1.812058297480636515e-01 7.349351253513619620e-01 2.092796469302759532e-01 -4.867427531129515819e-04 1.378812006444173196e-03 -2.882963957551784029e-01
-2.526503888299686529e-01 8.253917523124052469e-01 2.085276874071257391e-01 -3.232420329126255393e-04 8.347511685144049084e-04 -2.828507410577265069e-01
-1.403114447402628306e-01 8.984916637952639062e-01 2.095809901800664288e-01 3.942231163961331525e-04 -2.196569189995996037e-04 -3.722757834660269105e-01
-1.691654237874322397e-01 8.052287993340694339e-01 2.085522367640317842e-01 1.008654595682284744e-04 5.417970053536613111e-04 -3.041408951163000474e-01
-1.315579427613898511e-01 8.113428615406341748e-01 2.093039862537477980e-01 2.785376491346432614e-04 -2.261871748898547222e-04 -4.995274638296717806e-01
-1.492101118882420419e-01 8.554467703253861854e-01 2.089856731869343398e-01 5.812459077551308112e-04 -4.061381052611933096e-05 -4.726153497671432557e-01
-1.547149372818711066e-01 7.914661028326981373e-01 2.097176529291289726e-01 -4.319854014617006532e-04 -9.387870715071078070e-04 -4.021129863466316734e-01
-1.991932710029297726e-01 7.788636771025735372e-01 2.088681491947980140e-01 -7.943123499788840155e-04 8.211648921108156540e-04 -3.384456367132835375e-01
-1.487165824284701066e-01 8.376001163052708698e-01 2.093409098696718540e-01 7.110444783199088318e-04 9.956427443140350268e-04 -3.481676461078985207e-01
-9.212812299409324501e-02 8.665017629585395342e-01 2.086259013724528488e-01 3.871112132832561152e-04 1.626799007025746366e-04 -2.538195054510406501e-01
4.446073996923911170e-02 8.609709743986403430e-01 2.098506122216236558e-01 -7.163605671741822729e-04 -1.109482138738613439e-03 -4.285161840514191134e-01
1.182353886501958939e-01 8.627132339190466404e-01 2.088150960544729595e-01 8.117641472373635526e-04 1.000809425415905430e-04 -4.283722517752722170e-01
9.939790616023566616e-02 8.065392424807565908e-01 2.096866551164892623e-01 1.269130422136591999e-04 9.247263158255320230e-05 -5.313748111302093458e-01
1.061084650147351705e-01 8.049996208011116483e-01 2.090779502454119809e-01 2.813892743680047144e-04 2.515061966617504973e-04 -4.706634081725134533e-01
2.375549465584244069e-01 7.429217644388306230e-01 2.095865875790723920e-01 3.239586675249842940e-04 -5.879374862569889575e-04 -5.359848611820056119e-01
1.235189027564045638e-01 7.048535563828516315e-01 2.091858616171656249e-01 -5.078865255512374260e-05 7.556789911175909634e-04 -6.315662375333098710e-01
1.139263552167551624e-01 6.189659323164291571e-01 2.098589600138590638e-01 9.101928321854069453e-04 1.218616609699196298e-04 -4.765706996209048696e-01
6.278278236318246552e-02 4.813475442692979889e-01 2.104276673344582793e-01 9.796863913810536627e-04 -2.752940805790616901e-04 -2.588189054554917989e-01
-2.382079666788391656e-02 2.409726311621557260e-01 2.094045578965024745e-01 2.469307138473317027e-03 2.565673118772696408e-04 -4.564467596449766629e-01
9.213708328111325230e-02 3.237996547873098763e-01 2.092626817903758263e-01 -7.094625816413610564e-04 2.383318541191260852e-04 -5.323408624218258778e-01
8.171754837410095951e-02 3.224328033255697834e-01 2.101405033216886542e-01 -4.487448019479750388e-05 4.074930105254180308e-04 -4.359819138021004403e-01
1.145619048087118397e-01 3.845716573160577467e-01 2.093627471810521334e-01 -1.103559248740689771e-03 3.332500319031769819e-04 -4.817234204126255026e-01
8.160852600457013661e-02 2.939613979026554080e-01 2.098316700783234290e-01 -9.527176394271823787e-04 3.462848819943735662e-04 -4.826658754031564191e-01
1.048928677157015821e-01 3.402727252196549590e-01 2.103231544005491060e-01 2.868795697482638424e-04 6.342886324443745361e-04 -4.487921348221730611e-01
4.662909673501061669e-02 4.170691529551960319e-01 2.095613931116266371e-01 -1.351969574862756096e-03 4.554269874860209996e-04 -5.450685325680979521e-01
1.419159741504887884e-01 3.281885769461734270e-01 2.096726408853087364e-01 4.384292288489138856e-04 7.226486037813249557e-04 -5.627374411376995234e-01
1.841094717941115233e-01 4.121570501040531798e-01 2.089841438371976556e-01 -3.490373970133217666e-05 5.158246357767245745e-04 -6.065502423242933316e-01
1.463730895819516653e-01 3.325887799531515032e-01 2.097373194846977040e-01 -3.480798879662765706e-04 -6.869764131853746446e-04 -5.835929366103997928e-01
1.954528947041209719e-01 2.912169227125181448e-01 2.100697860718611087e-01 7.200038852276163998e-05 -1.631994303703796542e-04 -6.292016867106913214e-01
1.103031001653008991e-01 2.791728620064566901e-01 2.090683734580201514e-01 -2.513648240018019186e-04 -1.710544736823245578e-04 -5.989142661596801309e-01
1.490962776063577133e-01 3.224610671271067597e-01 2.096309044851468739e-01 2.520485728519255599e-04 6.328777381302652487e-04 -6.808300354531758858e-01
1.595358001791850056e-01 3.591044883296370394e-01 2.100266092773485638e-01 1.771823970757032221e-04 7.628631065581100096e-04 -6.912936455494012034e-01
9.463513999840812707e-02 4.271317080016420187e-01 2.089054880737366005e-01 7.467555070292069110e-04 6.703949434648738721e-04 -6.661312638639642625e-01
8.085599122478862033e-02 4.242582159425712374e-01 2.098740812144052614e-01 2.884185873454083685e-05 -6.667824975118123330e-04 -6.277716246067588379e-01
1.379419119848957626e-02 2.866451077151705995e-01 2.103469537857078353e-01 7.208854007447955501e-05 -5.775487487943593021e-04 -5.740766215224478719e-01
-6.567099469967714598e-02 4.150024773040836279e-01 2.095672762831692348e-01 -1.256857434864816795e-03 -1.040327366272631436e-04 -6.403411286143247949e-01
-4.202127534730982356e-02 3.725833350414382017e-01 2.099141530206877215e-01 -1.543132377100116931e-04 -9.814494066864051618e-05 -5.990681565115276719e-01
-1.265091124609306686e-02 4.061830825836023062e-01 2.101188696945111567e-01 -1.022405917245291325e-03 1.416540837050209731e-03 -4.652217655244041961e-01
-9.709163750773741608e-02 3.236512055153097922e-01 2.091626080522154263e-01 1.208891316170272170e-03 3.100396467391408834e-05 -1.790521176077445042e-01
-3.678293494390186269e-02 3.887617949009817830e-01 2.097827650406446365e-01 -4.275925360803584032e-04 8.865114246048701272e-04 -2.307024825118299260e-01
-5.518636318982150790e-02 4.873697272787645418e-01 2.087678562318539544e-01 -3.027038955410041245e-04 1.243539411253103398e-04 -4.694684834004034246e-01
-7.503136763754952865e-02 4.145525429030681996e-01 2.094004368622862100e-01 2.791892248040692804e-05 4.317931358604130661e-04 -3.410830406788371572e-01
-2.384064865255956789e-02 4.363034796289624317e-01 2.100271192737960257e-01 -6.684963719238661397e-04 -1.364597139657392204e-04 -2.647429699508062062e-01
2.802305244923244607e-02 4.237726911610956715e-01 2.092625604929267413e-01 -1.510060793740331626e-03 -5.277819813430048579e-04 -1.926098837974233868e-01
2.924721129785038537e-03 4.737861920813560834e-01 2.098575412815589236e-01 -1.232776447820093605e-03 -3.284742752327474949e-04 -2.575980582104011596e-01
2.656865704580565340e-02 4.900146675873934266e-01 2.102128469008721079e-01 -2.561822578171561683e-04 4.120812314066778372e-06 -8.427826111227594563e-02
2.192727424617383139e-02 4.934143044070759543e-01 2.093343435847120904e-01 -7.383950117475005220e-04 -2.814608240074453174e-04 -1.312480372612721546e-01
2.973691409029970145e-02 5.244275104679105848e-01 2.101263905469344939e-01 -1.316796051669448736e-03 3.227787893773595039e-04 5.796960826465411692e-02
5.002540464770911105e-02 5.804407475821194984e-01 2.093883271234868726e-01 9.820449416963596221e-04 -6.879023023555904358e-04 -1.161028931475370785e-01
-3.826587244475286587e-02 5.180834405983389956e-01 2.099279210134809559e-01 8.237556101429705608e-04 -1.921153581931085014e-03 -8.066202089754863358e-02
-4.215211280267809613e-02 5.168348688651631662e-01 2.092357805360959833e-01 1.186134379907658430e-03 -1.789299615972937641e-03 -2.766033930244175543e-01
-2.503603677833261126e-02 4.745139855675200580e-01 2.100899400149124907e-01 -5.412141877920795610e-04 -2.225651610231533638e-03 -8.132620019256465993e-02
-2.405488330271674316e-02 5.188953546163798114e-01 2.094361226002078302e-01 -1.816007067046530128e-03 -5.798423390756314057e-04 -9.328279046194250246e-02
-6.897775788118272466e-02 6.050489174137032578e-01 2.101519151639910099e-01 -2.140106796801464779e-03 -6.700161994897708701e-05 -1.099956282481149294e-01
-7.658372555400161374e-02 5.778794336217131233e-01 2.091240823320365538e-01 1.715967539907353815e-05 -2.856210806073224747e-04 -2.338901954542416950e-01
6.936854569726348674e-03 5.565756475558917282e-01 2.099378749834194813e-01 -6.603319909419540397e-04 1.374579889159345666e-03 -2.243822242002709300e-01
-4.532872837629121215e-02 7.063771404853642633e-01 2.094850218222866212e-01 -9.700147423708050743e-04 2.887621418170553569e-04 -3.590023157843069690e-01
-7.702107642586286662e-02 6.146531059828524990e-01 2.099285651345087489e-01 5.835728340652445801e-04 -5.050790267014107970e-04 -2.164690869966529041e-01
-5.857077831512288307e-03 6.407946321590410887e-01 2.094069505022382871e-01 8.966811604098656231e-05 2.686785294545252574e-04 -4.413621480519703821e-01
-3.661574392825095448e-02 6.006493673928550159e-01 2.086369797081616406e-01 -6.726088934937454571e-04 7.420857633782321217e-04 -3.537785397618947170e-01
8.555489154425441334e-02 7.810523976113440403e-01 2.097160932571063841e-01 -2.674847388641038676e-04 -2.217928260812649234e-04 -3.224900642801630801e-01
7.891876562944177831e-02 7.748886450677968663e-01 2.090608040378368337e-01 -8.340700611337555168e-04 1.282615494724461238e-04 -2.768034668071688853e-01
8.721226178239410709e-02 7.837075415090353214e-01 2.087382785234158100e-01 7.105872985592814016e-04 -7.097250080828034142e-05 -2.669982402916437070e-01
1.250236863107213325e-01 8.026247932316700195e-01 2.097886444276562123e-01 -1.875799869640247769e-04 -3.364303281627154018e-04 -4.445742933042476919e-01
7.784603709577558872e-02 7.346225073611593048e-01 2.099092774394373806e-01 1.732249587053398890e-03 -1.745850597502862471e-03 -2.104399793109592853e-01
5.146229598742141365e-04 8.173801309431409923e-01 2.094343593051925523e-01 2.599952640964868942e-05 -1.225039406452873994e-03 -3.737334474056920319e-01
-5.869630383286847386e-03 7.714607615041469968e-01 2.092068067503909390e-01 3.319179786522742778e-04 -1.897863460539499832e-03 -5.991639603902548794e-01
-2.242524685141098623e-02 6.582206156583781942e-01 2.087709101544893975e-01 1.240771960553781368e-03 -1.162392530088883101e-03 -1.848241138273838680e-01
-1.139462119834733222e-01 6.547820800885036929e-01 2.089873420242384094e-01 2.287264959333961344e-04 -3.922129049913190444e-04 -1.458005162579991687e-01
-6.692835260970458888e-02 6.473749077421268039e-01 2.089384444753664138e-01 -3.520755839292945993e-04 8.265423259827779775e-04 -3.971614326733985401e-01
2.244689000281589741e-02 5.915145029727597592e-01 2.086050794113599172e-01 -1.020406062598012644e-05 -1.988169188419156280e-04 -3.386255524723323362e-01
-7.618203199604009490e-02 5.320907392017990567e-01 2.097977205977324400e-01 1.331149111989102674e-03 -3.573673559717530871e-03 -3.250194226427856048e-01
-1.097833922190906419e-01 4.706938808846504174e-01 2.091868885252356480e-01 -3.187986292806718074e-04 -1.759413572979487840e-04 -6.658953369820107548e-01
-1.667536150515389892e-01 5.140829220073953598e-01 2.092538053358398153e-01 3.935477089588850928e-04 -1.950265896252467279e-03 -5.096615494340266395e-01
-2.197227224395941758e-01 5.410115155664443343e-01 2.096302048569650966e-01 -5.841420213768593674e-05 -4.414327086123886676e-04 -2.691464436577272190e-01
-2.854604378717274238e-01 5.657281258671658097e-01 2.089976354444584850e-01 -2.682407490796573455e-04 -9.079361102106854424e-04 -1.891939975606205526e-01
-3.569498676117325853e-01 6.345051224351746511e-01 2.099042758218420679e-01 1.141908835375608794e-04 3.396954178941501529e-06 -5.238642858048079276e-01
-3.429147956010911713e-01 5.309210901799883420e-01 2.088836601826667416e-01 1.130151370860218649e-03 1.315538119702374742e-03 -4.918419901351336887e-01
-4.674688006616218305e-01 5.718791153039552988e-01 2.083230346138055800e-01 -2.241795469339544753e-04 1.168845043974307439e-03 -1.992246080363481442e-01
-3.532677872629356175e-01 6.615195739741834835e-01 2.094932051894985436e-01 9.355687792629564748e-04 1.949787650372620260e-03 -3.381360039196690259e-01
-3.129736734267504761e-01 5.383106172761621400e-01 2.092367176497548775e-01 4.212153504365322078e-05 8.472539166654462000e-04 -2.440471888936874834e-01
-2.654452039260882246e-01 5.744792390150682548e-01 2.091802543893995225e-01 2.357060206979055166e-04 -3.451479815228414858e-04 -1.432333824099773778e-01
-2.460256449624921293e-01 5.083718534989669635e-01 2.097315685721403145e-01 6.387764703104245817e-04 1.133908676220593721e-03 -2.212388570979819391e-01
-2.992616576374982906e-01 4.950284403724048432e-01 2.094206346771588789e-01 7.379577132353290015e-04 7.937794063130050419e-04 -1.891150037306626730e-01
-2.275479662681480497e-01 4.295856252403000286e-01 2.092667650407936675e-01 3.781952605735822495e-04 1.596600943636273390e-03 -1.462961818808916070e-01
-1.832951298807117269e-01 4.174180121610040484e-01 2.092132435846922323e-01 8.195044263387455362e-04 4.310286965628561898e-04 -1.522608758357755498e-01
-1.385090725695464764e-01 3.690875704344723229e-01 2.100479043914955657e-01 2.639264613587611924e-04 3.480931235537256300e-04 -3.791129420867077604e-01
-1.257020075555665140e-01 3.411350561234320899e-01 2.096446572502024819e-01 -7.339054231852807373e-04 6.673503225792737706e-04 -2.957035099722560845e-01
-1.207379123054797276e-01 3.342106866855512615e-01 2.096756231666169756e-01 9.145145885954231125e-04 2.134553791575341270e-04 -3.766293542232205804e-01
-1.677598754796719160e-01 3.029285296492891244e-01 2.088685495752949928e-01 -1.943049898454255367e-05 -8.490258184381642426e-04 -3.203788742227129394e-01
-1.332454075847659125e-01 3.600221953592966928e-01 2.094748862664484457e-01 3.199459711227452350e-04 8.655762633261387343e-04 -3.286035213227653240e-01
-1.509000129016905833e-01 2.740254780987084748e-01 2.096954075151202801e-01 7.018064877922373978e-04 6.616534748479539286e-04 -3.453351102447541621e-01
-1.367469477653602550e-01 3.290365046620172262e-01 2.100047893901764717e-01 4.725051463939014128e-04 7.858099047466844157e-04 -3.079419722327251807e-01
-1.039175942941316169e-02 2.294693881629854271e-01 2.102042066334070536e-01 6.425178884149288644e-04 9.196711408723821706e-04 -2.671844682902287382e-01
-9.974843943791768253e-02 2.537396558003093272e-01 2.091914880641723706e-01 -2.736951982042333683e-04 -6.805672459233228075e-04 -4.579726485524819868e-01
-3.033531460020915879e-02 1.953667338741352510e-01 2.103462855067532167e-01 -1.267796360696958266e-03 6.883886856463568120e-04 -4.531496653796549534e-01
1.337206908706253805e-02 1.987613005884390771e-01 2.101200449588914720e-01 -1.543939236250772287e-04 2.258006864191178752e-04 -4.325109802837179829e-01
5.227686681132066165e-03 1.047527492515803460e-01 2.098888468982956224e-01 5.326987892809186188e-05 9.651664971401152562e-04 -6.936560660191610772e-01
-2.553228696166677872e-02 8.949514335620561978e-02 2.103661475323681529e-01 -4.655925014389583594e-04 -8.259079452835702023e-06 -7.354657472139035645e-01
-3.720848945453955614e-02 8.915596575154022263e-02 2.098555889367708649e-01 1.684974395606014146e-05 2.484303557066225277e-04 -7.537924582280964847e-01
-5.017199600917131991e-02 9.675457274393975404e-02 2.101925040930439637e-01 -3.158699783235842883e-04 3.442959582302933404e-04 -7.415887440820552179e-01
-6.536696731858766818e-02 3.655861252143707135e-02 2.093495335338489416e-01 9.239619931657824152e-04 2.407852718262182246e-04 -5.354151357381423670e-01
-5.784255927734498898e-02 -1.752922764435151798e-02 2.095864935103202153e-01 -3.769711605769832216e-04 -5.184463196617922377e-05 -4.006881595232590909e-01
-1.047229683602154404e-01 -4.437134463133637213e-02 2.095810111882235871e-01 1.226328180633045847e-04 3.183069165081768852e-04 -3.697268377958472518e-01
-1.034309230106273403e-01 -1.252225048614996894e-01 2.096330264473095228e-01 4.363334663370020661e-04 7.275387695197428617e-04 -4.291602591800223743e-01
-7.370746298629347881e-02 -5.374760626888695769e-02 2.095278129525472433e-01 -2.768392545184426411e-04 4.419125155820092491e-04 -5.201437097984751290e-01
-8.285579396396229590e-02 -1.023608274196588508e-01 2.095623951909529881e-01 -4.545181696475169555e-04 7.823493042962292735e-04 -6.110492025449870690e-01
-2.615182219102244951e-02 -4.636779617678416648e-02 2.097060228262376258e-01 7.846163852812521034e-05 6.175742648689043360e-04 -6.001941198951453726e-01
-5.367871259355221081e-02 -1.744690319093200603e-02 2.097886981951919694e-01 -4.839391686520965906e-04 -1.019296961461446286e-04 -6.539886692069684093e-01
-5.405950957599385542e-02 -5.246984856515988366e-02 2.099151439855858059e-01 2.013825295937055906e-04 5.327688753278617129e-04 -6.406285160979088289e-01
-6.908243546451306449e-02 2.749150294008856008e-02 2.102080015876346408e-01 1.422796651472491936e-04 1.126713442408780812e-05 -7.697095638542414964e-01
-7.505896567846288836e-02 8.452420727084677954e-02 2.093768866621427138e-01 -3.510291754363617706e-04 6.366707463522071299e-04 -6.626099393559224948e-01
-6.551280662239088171e-02 1.191694446000184926e-01 2.099907449302689244e-01 1.062865957235537711e-04 5.228810885875492939e-04 -5.443373316684646523e-01
-9.185165559398612845e-02 1.707272299198900889e-01 2.097395021073463761e-01 -9.345153415870371592e-05 1.047030182942138376e-05 -4.988850672799397534e-01
-8.595607430520380010e-02 2.688132952978226076e-01 2.094351264387691036e-01 -1.626478387190383700e-04 4.357127892805297601e-04 -5.461813652637192984e-01
-1.272510074213842601e-01 2.241161242628856853e-01 2.090923736415072343e-01 3.008957410583932234e-04 4.803571356213037335e-05 -5.280856552091587330e-01
-1.712104435701856942e-01 2.317732152082932762e-01 2.094046585258541038e-01 4.749634020346831182e-04 1.432541172520907999e-03 -2.071956842812130439e-01
-1.226699276508869951e-01 3.123584919481815492e-01 2.092239796334392499e-01 -3.496748743585728083e-05 9.000576147074483601e-04 -3.321300322438147656e-01
-1.064119827828066550e-01 3.710938867402406305e-01 2.096797256174728896e-01 1.399578443059339118e-04 1.001350477187636871e-03 -5.566954082448916097e-01
-1.611830338692718800e-01 3.541427724176082203e-01 2.098911344651797628e-01 -7.449695350107311408e-05 1.078967563779122899e-03 -4.845636278799071439e-01
-1.451405877141407341e-01 3.683219149894781386e-01 2.102218100332612916e-01 -2.677772023851122713e-04 1.353800857000389546e-03 -2.375757622020011617e-01
-1.475550678706265273e-01 4.927482585648280122e-01 2.089356421479134918e-01 -9.495208972396234487e-04 1.284165634114737154e-03 -4.026126345628977532e-01
-1.756383022647383385e-01 5.019770968451414683e-01 2.096986231990219940e-01 -9.018835844211007310e-04 -1.882072594108122440e-04 -2.385974451725879908e-01
