-6.676870521301331296e-02 -1.066413498619444705e-01 2.101030300103878812e-01 2.284053743318882601e-04 -1.382709285017191033e-03 -4.752949977946146487e-01
-1.471587757934962881e-01 -1.235804078158437014e-01 2.092973573250602737e-01 9.380097719395038116e-05 -1.067045548651937440e-03 -4.834148966706803829e-01
-1.162387052116413966e-01 -1.090036308055858105e-01 2.099370211135899167e-01 -2.314000903757956198e-05 -7.900063299628896918e-04 -2.081263489460303262e-01
-7.896548866786370913e-02 -1.005723624385453097e-01 2.092977415046289313e-01 6.264326399146249601e-05 -8.632261488725816124e-04 -3.185599144315262587e-01
1.694655324266729907e-02 -1.425853269819514491e-01 2.102713271758904767e-01 4.923149313690366796e-04 -6.539937049240115898e-04 -3.468794440701519766e-01
-3.492400702438835242e-02 -1.434656829230963326e-01 2.095149186057032042e-01 3.477458168738769298e-05 -9.800728565980819807e-04 -3.149399468229172050e-01
-2.325060178472271311e-02 -8.640774071332701922e-02 2.103607030225387309e-01 -3.677734188975726663e-04 -1.158874913116952768e-03 -2.692321836098522381e-01
-5.320210795103187673e-02 -1.693230879761311314e-01 2.100110534302406795e-01 -6.017147830555357433e-05 -9.915139467950204958e-04 -2.751099839259397717e-01
-1.283939264890695819e-01 -1.294339481966937655e-01 2.094421971306579255e-01 -1.287303984437843368e-04 -9.483316590771817848e-04 -2.069580262344194732e-01
-1.140414457628783351e-01 -1.394587786050677514e-01 2.106482148233593810e-01 -1.656358744615517222e-04 -9.008412116489120363e-04 -2.249389350961492340e-01
-1.101399252830622399e-01 -1.236018696145015222e-01 2.103222804958824188e-01 -1.526943863846669225e-04 -7.248476068007667864e-04 -1.998881891591183790e-01
-6.909060156775148620e-02 -9.452828276937609575e-02 2.099669920785150468e-01 -4.850156285779518321e-04 -7.567298670978753108e-04 -2.498149415787583871e-01
-1.451194713522070967e-01 -1.625131109623647319e-01 2.099850272449242938e-01 2.256287314531360316e-04 -4.038799214486523521e-04 -3.041069409867642737e-01
-1.450273635079550871e-01 -1.495057743882513279e-01 2.096912824372213491e-01 2.103899687909199781e-05 -4.791552212384178741e-04 -3.663964206765980558e-01
-1.076849197739429831e-01 -1.645719567070162426e-01 2.095689837779947107e-01 6.871290118108250506e-05 -3.009701847671782961e-04 -2.941007764039996752e-01
-8.737074379011863789e-02 -1.501279226919084997e-01 2.095707419004295136e-01 2.110533509631821818e-04 -5.574489820303189677e-05 -2.501766378580345118e-01
-9.073774942459406079e-02 -5.239458081601665318e-02 2.094511640508385231e-01 -2.064576261249673899e-04 -2.276931536663292577e-04 -5.020353314336274408e-01
-9.892304620880949806e-02 -1.506388619194742873e-01 2.096016571495870062e-01 2.887747640624775637e-04 -6.652663079328738848e-05 -4.206845094917947558e-01
-1.296441050807317918e-01 -2.291819294543023799e-02 2.092155143814176110e-01 -3.918411087762458007e-04 -5.148333887011416086e-04 -4.591006938753464106e-01
-1.822642449320080182e-01 2.530582444781121279e-02 2.096066990364745530e-01 4.696918314481379861e-05 -4.117926130523239295e-04 -5.278530723239831524e-01
-1.919395747706255095e-01 1.120342666950307174e-02 2.097253812533640405e-01 1.733947140536518396e-05 -6.499358985216604535e-05 -4.746879866114080415e-01
-1.580681701683286922e-01 4.044695987247200891e-02 2.096445370113941831e-01 -4.155768911338429531e-04 -6.162359976387773866e-04 -4.866834336437719233e-01
-2.043267100713506979e-01 6.736431858696664832e-02 2.096617199895725592e-01 -7.460101942632127968e-04 -9.982964160701488995e-04 -4.332665576625429060e-01
-1.591313814158414053e-01 1.239875824457900427e-01 2.097492800474715091e-01 -1.178093141330796253e-04 -4.895705271889619088e-04 -5.944799305340512374e-01
-2.101911226181368553e-01 9.749670677522838391e-02 2.098500493661537569e-01 1.004942380329138044e-04 -3.684297073353235926e-04 -7.293331117294704624e-01
-6.773664039575214013e-02 7.046309105407012885e-02 2.099618714878509484e-01 4.640224807117668032e-04 1.543800095076324836e-05 -5.957888835786230297e-01
-4.078017603972512034e-02 6.876611536972773719e-02 2.099603853186574609e-01 1.294773439525632563e-04 -4.697379728093482729e-05 -3.968801493611887610e-01
-4.753657525633271652e-02 2.666656632935526794e-03 2.099178758890647423e-01 1.338438940457608445e-04 -3.285598668921880486e-04 -2.777129294923096348e-01
-9.098084456959779076e-02 8.840905626429584885e-02 2.099998229458148180e-01 -9.272315554421090142e-04 -8.814597261907959917e-04 -2.873243291173453728e-02
-9.051558403132156649e-02 5.048350853759218937e-02 2.100318866586850519e-01 1.005878713614206715e-04 -3.244013458740581130e-04 1.195065311060198796e-02
-1.050356970428269199e-01 8.098857216434726669e-02 2.100453973754087267e-01 -3.717993162122259685e-04 -5.121718886476106427e-04 -1.972025402270523031e-01
-4.259386868795251441e-02 1.090410975732100107e-01 2.101165151060386815e-01 3.074914815153592293e-04 -5.228320378732660310e-04 -2.642347117059655748e-01
-4.270819165188820266e-02 -3.515531641870421956e-03 2.101023680017301554e-01 4.638208155263158993e-04 -5.291913258754773553e-04 -3.038044491630480515e-01
-3.307543574658666774e-02 5.237880442859022337e-03 2.101540251268740889e-01 -6.841280171580527494e-04 -8.851815660653619775e-04 -3.072002617847049977e-01
1.173719690243662031e-02 -1.711979326058868031e-03 2.101255008427727611e-01 2.043764910193041106e-04 -7.178329465004566323e-04 -3.104736954836869733e-01
1.464740137959820790e-02 9.069360850053125381e-03 2.101040182416081259e-01 9.747362856744151401e-04 -7.474407285744623028e-04 -1.578337335799723518e-01
5.808349520713451675e-02 -1.532129200145577325e-03 2.103908657586979203e-01 2.875569998012287415e-04 -9.040216150905958309e-04 -2.092388654328492803e-01
-3.050645264363189418e-02 -4.535814870757221007e-02 2.105065189729303787e-01 2.425800028990844810e-05 -1.434818732163783842e-03 -2.512835666856105821e-01
-2.116314574755839145e-02 -4.479337291111139263e-02 2.105613905941445263e-01 -7.076699183690906441e-05 -1.409971174693501516e-03 -2.931440987167332479e-01
-1.442466074093124058e-02 -4.522768051719870674e-02 2.106501743054527420e-01 -1.807187101042773407e-05 -1.501716209397666903e-03 -4.272550661360662860e-01
-4.441018231042159758e-02 -5.826058962063932270e-03 2.107435013990247574e-01 -2.291748064385996941e-04 -1.741757410009916020e-03 -4.203535328291336248e-01
-2.241315410331279692e-02 1.909976787126058118e-02 2.109246870421876974e-01 -1.510389136535578527e-04 -1.642298335816901348e-03 -4.272730933770934603e-01
-4.236874276619614910e-02 6.233451809016297973e-02 2.098399131534964823e-01 -8.275111975804828033e-05 -1.190013090798740019e-03 -5.266120699353887824e-01
-9.100695187883024034e-03 4.676949030364074833e-02 2.097972600302191459e-01 4.437728058437354425e-05 -1.157771489823209050e-03 -2.853047628185570450e-01
1.841558837511147323e-02 3.025968254759330012e-02 2.097798299538196076e-01 -2.292231843562088782e-05 -1.011012399812694822e-03 -4.591025755790930085e-01
-1.034386830508791932e-02 3.719537719529907027e-02 2.095506441407272713e-01 3.953932111647660255e-04 -4.012050127468405484e-04 -5.316808913103056033e-01
9.261578255670233073e-02 8.108783318035851784e-02 2.097515095133007934e-01 -1.528355867276469255e-05 -1.902775308198573700e-04 -5.410111967407720268e-01
1.312219624330877299e-01 4.858699659575740210e-02 2.097125213236049057e-01 3.618914808163453515e-05 2.708606226362123286e-04 -3.657897290861195638e-01
1.027373597284029355e-01 1.783040542186964950e-01 2.097995727471684835e-01 3.612163815210027570e-04 5.177276757128189758e-04 -5.901053455891386301e-01
6.316469856712875197e-02 2.284697465143255002e-01 2.095858789924713306e-01 1.169046590283146582e-04 1.177794734548180547e-03 -6.182938568944265079e-01
4.476420332003830382e-02 2.138874343653313359e-01 2.096047990894515101e-01 8.871346359846224764e-05 1.100792540494481163e-03 -4.692954057533679224e-01
2.222190707099980234e-02 1.812980981577727579e-01 2.095779315987242319e-01 2.917653141179884249e-05 1.670532168100767210e-03 -5.616667436674418479e-01
7.398617656388950525e-02 1.530043469302493631e-01 2.094225298994337736e-01 4.531311918784674425e-05 2.109072054559907837e-03 -5.580872580625759749e-01
2.438038455699946191e-02 1.857450691811316779e-01 2.092492540387435596e-01 2.686332165108740091e-04 2.156586283775077922e-03 -8.373182858697859610e-01
1.775000772968812757e-03 1.275427051613371721e-01 2.093053013909465521e-01 -1.006763578630387321e-04 1.847283175313896124e-03 -6.345449156795428536e-01
1.819900494574160435e-02 1.126004352430090005e-01 2.101919886100698243e-01 2.488841586712086567e-04 1.881847867995517986e-03 -5.990687104690903819e-01
-1.306811071886842396e-02 6.194702568421309175e-02 2.100332491675021007e-01 1.354232420765124213e-04 2.274467900847197254e-03 -5.846486357181838178e-01
-1.891288258235754999e-02 1.036003931278959081e-02 2.097529901907791983e-01 1.334572439690446394e-04 2.351179934945538640e-03 -7.082239879279408346e-01
3.286704253215534666e-02 -5.109504116074620184e-02 2.106346795046384890e-01 -1.186777944380546635e-04 2.088444610689458268e-03 -3.939921628425091527e-01
1.276561435219521201e-01 2.286348064247306633e-02 2.100549256531871745e-01 -2.907664503986458703e-04 2.786083636536315807e-03 -5.059409171978657138e-01
5.877741531996921731e-02 -8.685872558625763740e-02 2.099231474267868047e-01 6.479504312507394391e-04 1.280263884659221330e-03 -3.212443604809564479e-01
5.881004473951786243e-03 -5.992782873995075588e-02 2.096335298374940037e-01 1.587575267681351184e-04 1.403199174014312664e-03 -2.538989931846957759e-01
4.115104717573615789e-02 -7.044722396543436072e-02 2.102499420585743350e-01 4.038380167950714693e-04 1.849149317825812995e-03 -4.215906892479309720e-01
-4.467085773217951278e-02 -1.627378964843124998e-01 2.100945590929341189e-01 4.073744657723279397e-04 4.194385650730149146e-04 -1.953938942919913602e-01
-1.606718773503357234e-01 -1.094752177268167731e-01 2.106133688451745645e-01 7.063199019828626418e-06 1.132513300553573054e-03 -3.838465024780778334e-01
-1.986329838743607634e-01 -1.453754236545384548e-01 2.097223955647267712e-01 -2.938949577146631647e-04 1.680210480482191701e-03 -2.566578341457491086e-01
-1.590746060297421605e-01 -1.171020273223638830e-01 2.105872173968934002e-01 -1.828375526686025444e-04 1.536796051022979023e-03 -2.676487875179722198e-01
-1.802323895250266816e-01 -6.417915050247277597e-02 2.100962103953024629e-01 -1.577296232124377178e-04 6.919160676349067835e-04 -2.812368007572319528e-01
-9.195924217836227987e-02 -6.580615835815885328e-02 2.105592504322871816e-01 2.407708102170155631e-04 1.302819075084049420e-03 -5.597193747213914383e-01
-7.977762295011386895e-02 -1.459038730227069369e-01 2.098960084135900739e-01 3.789383059817162517e-04 1.264183120384517562e-03 -4.181312741349477724e-01
-1.062166622061419125e-01 -1.657469942054198286e-01 2.105334686943691747e-01 1.307305460298402021e-04 5.233372827769965010e-04 -4.830008246638498037e-01
-8.441402974883616128e-02 -1.215884983850893802e-01 2.095938524740901254e-01 -8.660595371860437723e-05 7.288265214818027450e-04 -1.977179621903230045e-01
-7.176324325027137740e-02 -1.683713168400421956e-01 2.101612177007505800e-01 -4.634955682598780298e-04 2.218198816554588161e-04 -2.609602173210612275e-01
1.313657929643385902e-02 -4.358578076051349698e-02 2.104546571032985258e-01 -5.213402076617530473e-04 1.337335328075599553e-04 -2.019074782166756232e-02
-1.439501913140267819e-01 4.700984896017900566e-03 2.098093541023969277e-01 -1.181278470073009613e-03 -6.930673442762865259e-04 -2.703461892233097186e-01
-1.250132295677131022e-01 8.585882408723688464e-02 2.101865357119707678e-01 -6.198254091484982397e-04 -4.944060842158378311e-04 -3.321219580650423553e-01
-1.833964989821080527e-01 6.131313087467838568e-02 2.104378971058986636e-01 1.896543349923351788e-04 3.869562520410727859e-04 -4.324524982077939117e-01
-2.312630236256650040e-01 -3.407529539057883861e-02 2.096661168059332780e-01 1.598476466138366555e-03 -1.758584831419692310e-04 -2.752861129186485178e-01
-2.029334965415305614e-01 -3.670784765203818217e-02 2.098907825325762588e-01 1.758793325538276977e-05 -2.067563831672316103e-04 -4.260092449926173863e-01
-2.575668506092096965e-01 -2.871695634167411443e-02 2.103471860904736479e-01 -7.932694363615382766e-05 -6.326186155321264016e-04 -2.608993310200041771e-01
-1.857118168259617730e-01 -5.646086481393211565e-03 2.103075413545388295e-01 -4.614096315785110882e-04 -1.627656126001450813e-04 -3.428926829738889182e-01
-1.887407322868545623e-01 2.566717539787246455e-02 2.094986679700975296e-01 2.616546040315706370e-04 -5.935702018845343420e-04 -2.684624083027501440e-01
-1.740173885942996046e-01 6.293134183095551448e-02 2.097628815533632562e-01 -2.336408422867480177e-04 -6.487609531650930395e-04 -4.179450308863456587e-01
-1.843186386700530754e-01 1.124508719541044977e-01 2.100519126112664892e-01 -1.187906106485048718e-04 -2.881182079948704268e-04 -3.233143100862090336e-01
-1.681970411236302088e-01 2.186226043303898803e-02 2.104242559154331782e-01 2.139578391809153208e-04 -4.374897199212501083e-04 -3.883933459594023363e-01
-1.178764307286639251e-01 1.378677120058549310e-01 2.093534209698884041e-01 -6.825220424258811628e-05 -2.835232945782749565e-04 -3.439263393015747905e-01
-1.056445867384403908e-01 6.366684552946068332e-02 2.098824091389316915e-01 1.407260913530401845e-04 -9.063323701514389413e-04 -3.797482615709484866e-01
-8.776536424507934420e-02 9.950908495146655597e-02 2.102220362636138540e-01 -1.762884434660636792e-04 -6.809999352366590073e-04 -3.614891933964906046e-01
-1.113904977584118661e-01 6.743141740163137443e-02 2.093076768999119208e-01 2.761053644375419526e-04 -6.755003468767563704e-04 -4.004148563945121864e-01
-1.145988478942837063e-01 -3.824331185521284704e-02 2.098816244650217322e-01 8.091698583327560442e-05 -7.876101794327702941e-04 -5.767666081340320217e-01
-2.169244928197409661e-01 -3.913734868343936996e-03 2.103162810252777182e-01 2.886145392215075855e-04 -6.514739217894708863e-04 -7.157122994007534267e-01
-2.405114957293340294e-01 7.382036734135307039e-03 2.106991892951478595e-01 5.041078364087624034e-04 1.439902036149519682e-05 -3.990596837335809721e-01
-2.310244552972474386e-01 -6.699882526518755044e-02 2.096105957286367727e-01 2.927597129392357170e-04 8.555446865466497918e-04 -4.017090884831100994e-01
-8.589860874439933514e-02 -7.002799639598632220e-02 2.102890500358520764e-01 1.663689547167125778e-04 6.146062595319297644e-04 -1.281457279948033101e-01
-1.116476706957997833e-01 -1.546661927599774812e-02 2.093999544083371411e-01 -8.718901645745519595e-04 8.462647102435379197e-04 3.648841806953306843e-02
-6.851699576092673549e-02 -1.008997545296482640e-01 2.100156307203738248e-01 2.788078844860250932e-05 6.536594376638660969e-04 -6.785933602150878707e-03
-1.593950001581612153e-02 -7.007233115666547385e-02 2.107949303936532681e-01 5.033608789045777030e-05 3.166161247575056286e-04 -9.985466452679743476e-02
-8.773216426600190243e-02 -1.074334278543885163e-01 2.099979751228113756e-01 -1.051889074018832023e-04 7.750069649819456817e-05 -2.153061179299651795e-01
-1.901996632509489124e-02 -1.909706893939322747e-01 2.107438690814886217e-01 4.199160584367463774e-04 8.511654747191091559e-04 -3.605048930574221155e-01
-1.146992569394524597e-01 -1.656643593031587591e-01 2.100180922935592220e-01 -2.906822158849650759e-04 -1.619188726605790972e-04 -1.547658106485446938e-01
-6.653543269783371295e-02 -5.628510833264824265e-02 2.104778858502348027e-01 -6.234311408353691115e-04 1.480374508194535295e-03 -2.585840814703780355e-01
-3.552226740297718954e-02 2.499247139638585691e-02 2.099211721902895511e-01 -2.024862343973009792e-04 1.048694278642222331e-03 -1.250758046235690701e-01
-5.693541582182670008e-02 2.478473376468907918e-02 2.092538079125574324e-01 7.233674513328812667e-05 9.133763723264016208e-04 -1.175609408631356906e-02
-1.606445902056305094e-02 8.911721544983987331e-02 2.100567266746678485e-01 -3.602696441921219845e-05 1.073513952785808915e-03 -1.050940596152220297e-01
-6.596993206214752520e-03 7.803471571822112596e-02 2.094099728592814236e-01 -7.313126156722401800e-05 1.066237089549164135e-03 -7.115162789937609644e-02
-2.265307784120745502e-02 9.615686351329252868e-02 2.103292179330160661e-01 -2.879377486461391048e-04 1.014139018855638461e-03 -3.057800814214687787e-02
-8.614331599182872834e-03 1.887939510164426266e-03 2.097277959611072440e-01 4.244276859778210492e-04 5.156891996484574362e-04 -2.279636395876026844e-01
-2.937266791640791297e-02 7.001674476032339334e-02 2.105716426779764006e-01 -1.480448288660779596e-06 3.192779898694324877e-04 -4.492547350382531390e-01
-4.369576298230723466e-02 6.938982071599827939e-02 2.099396694531420193e-01 3.265796494204870775e-04 4.220780669259687205e-04 -4.438969725598538307e-01
-8.918264268728170324e-03 1.096213209130409705e-01 2.095167478154462137e-01 -1.379509527358063639e-04 1.459678345889673301e-03 -6.230989715334913637e-01
-1.117405027494410980e-01 1.349925483229798551e-01 2.102233300212468792e-01 -3.500275831363557598e-04 3.387396704499911083e-04 -7.265821292995090497e-01
-1.976180413855510576e-01 9.630348782580619438e-02 2.095054802277128148e-01 -2.166561389229318814e-04 -1.042336209443427814e-04 -4.551950695782401857e-01
-2.531999454324129761e-01 6.781823214675533618e-02 2.105224217188897962e-01 -4.985446564163504635e-05 1.642859487973559116e-04 -5.293073074144195589e-01
-1.206006072602852086e-01 2.859502107334761095e-02 2.103452381617251787e-01 -4.731328228029465133e-04 1.299504705217940405e-03 -5.015159273025486808e-01
-1.520587514003123586e-01 -1.526652144745488902e-02 2.093809333517263616e-01 -6.362030925570308403e-04 9.010018984075085589e-04 -5.627833221637750238e-01
-6.585830842676260177e-02 3.878837293845333045e-02 2.104421957076352823e-01 -1.585016830987302967e-05 7.306665321906271118e-04 -4.162275706385362706e-01
-8.843749991356897322e-03 4.344558918655819224e-02 2.097920361397413447e-01 -3.097369541351236290e-04 7.713170258576138895e-04 -4.827141749504274548e-01
-2.563582138693118809e-02 9.132597909838113814e-02 2.108483766280577765e-01 -6.917074239291217969e-04 5.822110690487762585e-04 -5.302496435212691317e-01
-3.529040435729987463e-02 7.444329715441978801e-02 2.102038240058570207e-01 -4.918019134633243392e-04 4.439780339013552307e-04 -5.879036755822247828e-01
-4.598601961859185433e-02 8.727465906205825186e-02 2.096085722207527424e-01 -3.409286790051036886e-05 3.455071501430877928e-04 -5.978766642552343358e-01
-1.761957888251536319e-02 9.286900938760875301e-02 2.106491029812027627e-01 2.555470473439485871e-06 3.931310907967736513e-04 -7.128338075342799396e-01
-7.095402453818122623e-02 1.225173407694516159e-01 2.101470675085038708e-01 3.616021671551481603e-05 3.550766049297023725e-04 -6.360833508909513601e-01
-5.585926958420996818e-02 1.047608182866119897e-01 2.095248433244316644e-01 1.570566691583863438e-04 5.671901289319353006e-04 -3.622466603586741996e-01
-1.134343542263926280e-02 -4.237751027184225028e-03 2.105695461481185138e-01 9.679735135593126266e-05 3.651110940745108712e-04 -4.143762579821307912e-01
-5.323807882421807691e-02 1.209968176435041315e-01 2.100268585398600285e-01 -9.071953341981268449e-05 1.624814402529197236e-04 -4.340646374324432233e-01
-1.164202733310476801e-01 8.695119419496050162e-02 2.094337363219496706e-01 7.812747276184165693e-05 1.596257500345359343e-04 -3.500608996838083242e-01
-7.353073131927495565e-02 1.855633166264353540e-01 2.105129543562984651e-01 -1.728427011288772696e-04 1.338926715372862396e-04 -2.534387049764810773e-01
-1.029135578521094135e-01 2.229461339534377362e-01 2.099945912878114496e-01 -4.473551238764709998e-05 -1.488002761481653816e-04 -2.325747846298453214e-01
-9.362619397492516482e-02 1.296523391747975151e-01 2.096288149675983870e-01 1.802350953236701522e-04 2.287422982031917266e-04 -1.049217806463524083e-01
-4.108354430595673179e-02 1.152929097415975879e-01 2.107065417059844625e-01 1.325608554505782041e-04 1.682013715273141875e-04 -1.654141194903533674e-01
-1.910078705790625719e-02 2.603329234209393259e-02 2.102191981017523248e-01 3.312377704578568696e-04 1.764909779498446529e-04 -2.519340149611003499e-01
-7.183246928397454822e-02 3.330078825318297242e-02 2.095865756245173239e-01 1.151542105290312731e-05 -1.518895084912285298e-04 -2.546557073596244503e-01
-4.974897149552674064e-02 5.991364814038395437e-02 2.106681628124688066e-01 1.734046087093914606e-05 -2.215258379370060410e-05 -3.142928577014794111e-01
-1.005035080265881536e-01 1.312817554859236069e-01 2.101606441214810550e-01 -4.154011554034308626e-05 -9.521704491583109805e-05 -2.509683352935718759e-01
-1.061370130100644515e-01 1.643505726951958734e-01 2.096826481648050300e-01 -4.970213891186613889e-04 -2.152506755451511779e-04 -3.679989051068612849e-01
-1.986883920483787924e-01 1.716714770423788117e-01 2.093905380204739708e-01 5.823574174279001151e-04 -3.127516695436936009e-04 -6.149401710232286211e-01
-7.147315521864197607e-02 3.834756378272981270e-02 2.105625270490106837e-01 2.244672260494020200e-04 -2.433652809617391157e-04 -6.010964633617194020e-01
-1.268634236651315639e-01 -1.632889910486983939e-02 2.100666983941417154e-01 -1.171406690320955725e-04 -1.036502077516498989e-03 -4.356280407421021517e-01
-8.590311274507614336e-02 -5.241325439188088825e-02 2.098835298183894249e-01 2.946111876601075754e-04 -9.231536574555616881e-05 -3.640823019595828547e-01
-1.093592090564614594e-01 -1.462967715680216219e-01 2.097032931127294497e-01 5.734030004163362349e-04 -4.323767852556353051e-04 -8.863361271549099474e-01
-2.608845968057458414e-02 -1.080418080084371568e-01 2.106502276109890048e-01 1.269197417700113767e-04 -1.156981978816192284e-04 -7.127356191946412345e-01
-4.838176593557108607e-02 -1.748572881788599542e-01 2.104308255419085616e-01 5.095748121131208350e-04 8.298758406400254912e-05 -6.952169119588634816e-01
-3.149809195864866629e-02 -1.457287968843664072e-01 2.099604147647715635e-01 4.421471082869236381e-04 -3.421665627285644059e-04 -4.950801930965936792e-01
-3.526582476294769231e-02 -5.360552905357862663e-02 2.097543733008992439e-01 3.032477678176472230e-04 8.490005947213543128e-05 -4.298722264862554487e-01
8.074015055302610766e-02 -1.592549504631181612e-01 2.096313292347596891e-01 2.281587613883290190e-04 5.395609645923151116e-04 -3.598546709770660268e-01
1.035368775050050788e-01 -1.910875212827927716e-01 2.107987868885008442e-01 -1.963811237351953236e-04 6.116037750587296042e-04 -2.816060060846158897e-01
5.545996545661306676e-02 -1.270512588464530745e-01 2.106717625023121210e-01 -6.962177601164375445e-05 5.090805056079282173e-04 -2.094156864422190845e-01
8.129725192671506673e-02 -5.857615420652149962e-02 2.106042558991538249e-01 1.409464883908467824e-04 3.377579372627360086e-04 -3.248289869410743158e-01
5.908164590502759661e-02 -6.374912410218645797e-02 2.106149325268276695e-01 2.536537911992699517e-04 3.515371787323238279e-04 -5.272966840126162014e-01
7.292726575708349812e-02 -2.862806118772688591e-02 2.104220551871985312e-01 -1.088641376559149125e-04 5.075824030072812127e-04 -2.977341954447156325e-01
-7.460772834414633459e-02 -2.568527527701497393e-02 2.103559319629702551e-01 6.346155444098678213e-04 -2.449156592358064152e-04 -4.771613484846988218e-01
-9.192309709381760174e-02 -7.681074447585441167e-02 2.102009910787350222e-01 2.795127063433392226e-04 7.535032531121008711e-05 -7.494345859058966219e-01
-1.858739450388724734e-01 -6.289193207009370623e-02 2.099894011723560383e-01 -5.330843839822994824e-05 4.760541022373260874e-04 -4.519135054823165132e-01
-1.997633663877083632e-01 -7.200416965035161265e-02 2.101815789058361639e-01 4.921675931074545943e-04 7.580859541752061085e-04 -3.920200040936389074e-01
-1.402743197809649123e-01 2.754503011688008013e-02 2.100382719296383649e-01 1.272288674307136386e-04 9.712078046470808178e-04 -3.881905443039727066e-01
-1.462861328877254341e-01 6.932115709080890337e-04 2.096889884005772586e-01 -3.785998534676595262e-04 6.025482433075258788e-04 -3.571094772049142607e-01
-1.257470866456702474e-01 5.315393144188245572e-02 2.097378497108845496e-01 3.096127917908248709e-04 3.210171009753220637e-04 -4.257531426010659481e-01
-1.236140544873845087e-01 8.023514865177405753e-02 2.094075326316341412e-01 4.111114639272844752e-04 2.623570119302036331e-04 -2.648658640536011855e-01
-1.040013804529256597e-01 1.075661869037124740e-01 2.092654772235092997e-01 1.069563501389755769e-04 1.592799173742696656e-04 -2.224216526110397718e-01
-1.074920256244892014e-01 1.280570342702193054e-01 2.094197761201685992e-01 5.031472304838333119e-04 3.511424637250210902e-04 -1.917347129982575338e-01
-4.017541704449802825e-02 5.659690023007541565e-02 2.106268794173988268e-01 -7.734523854764943326e-05 5.377939816481774101e-04 -9.983184603658257217e-02
-1.189589551984320120e-01 1.362644925076423041e-01 2.105630275146648800e-01 -4.817416984681077274e-05 7.333780115354794106e-04 -2.570906718701697069e-01
-1.064944199105607031e-01 1.962097823766832672e-01 2.104301723198399032e-01 3.159385774489698625e-04 7.616346870872259473e-04 -3.652362764328164757e-01
-1.064476439249948808e-01 2.907122224432035495e-01 2.102516591523519440e-01 5.272822479400581441e-04 4.800952839121654147e-04 -8.431126348197598083e-03
-2.297039117387128793e-01 2.390264904021328907e-01 2.097894437835622350e-01 -2.485334890256676713e-04 4.767421212438422741e-04 1.677850868333209955e-01
-2.276952238620769120e-01 9.720175534714678434e-02 2.096174970569074647e-01 1.463764511555725589e-05 -1.014455045812100414e-04 -1.408699758530867763e-01
-2.227501705106094132e-01 -3.351186315368244462e-02 2.107420023101226891e-01 -9.764948580250831792e-06 4.020315036624174504e-04 -6.151503427254382400e-02
-2.958540664096895867e-01 1.128715825633972922e-02 2.101776371539065824e-01 5.843638188210043428e-04 1.124276707280371214e-03 1.209837049289852612e-01
-1.975439982198012867e-01 1.106794904158300841e-01 2.095423740786886424e-01 1.632297629298112645e-04 1.297745616851966096e-03 1.818107258615414557e-01
-2.100638578555708014e-01 1.812880922972578412e-01 2.098575978114363139e-01 -8.400844875789570832e-04 -1.252225823827545447e-04 7.232546588172049373e-02
-1.696005949511448785e-01 1.450932855629206986e-01 2.109143644983264010e-01 -1.023191675291702232e-03 -3.412767288335756348e-04 -5.919286343352830188e-02
-1.952596703707439596e-01 1.258072393450408721e-01 2.100345708102776543e-01 -3.840850623197531919e-04 2.372851414350470804e-06 -6.627491989631476010e-02
-1.396491673256790023e-01 1.381351736814131481e-01 2.095310982648579401e-01 -4.051333056189063337e-04 6.738670126329763480e-04 -4.718695145255786816e-01
-1.397977648100305614e-01 1.431412154607547282e-01 2.102742133361910626e-01 -7.665861985805902943e-05 5.389449838480493303e-04 -2.784987887325113265e-01
-1.349603211501914646e-01 1.712701716992078571e-01 2.095604477578985603e-01 -3.772070026978466750e-04 4.842756330634677441e-04 -1.806838421481970491e-01
-1.454714379705035476e-01 1.228914452071074442e-01 2.092203037708255109e-01 8.351588559079000718e-05 1.020590713828246985e-03 -1.759686203791940295e-01
-6.285713351764551926e-02 1.512410682411134966e-01 2.099968438987984132e-01 4.118647210836944901e-05 7.200351363417458904e-04 -2.061206743098965566e-01
-9.570797271775566273e-02 1.272484678745937625e-01 2.094748757741500822e-01 -5.020675392602937841e-04 3.727638045083491217e-04 -2.602574641821563950e-01
-4.029402602397000321e-02 1.365786574888534222e-01 2.102116485667090418e-01 -2.278918563250289565e-04 4.978709561725472559e-04 -8.510174597473103841e-02
-5.959120718605474820e-02 1.981779829328860487e-01 2.097254503089564515e-01 -4.396170993577582973e-04 1.400641936802645544e-04 -2.683636467442366280e-01
-8.325781437820713171e-02 2.078191141311844514e-01 2.092295146125140448e-01 5.630445451572887490e-06 1.710640152368808088e-04 -2.246455307827008030e-01
-7.699211940652363195e-02 1.978146087942359577e-01 2.100175727699016837e-01 9.624162454752268247e-05 1.430270653209825347e-04 -1.992602179283312624e-01
-1.209658988805559776e-01 1.192356805277329235e-01 2.096010535813533915e-01 -3.151929904445515426e-05 -7.286711422278938132e-05 -4.453152579311399628e-01
-6.680435562257835969e-02 7.905027101943011558e-02 2.103933468979537480e-01 1.346099374380749182e-04 2.526646459323541997e-04 -4.623480410639376759e-01
-4.285964151253190968e-02 6.060443397202903981e-02 2.099986616871212242e-01 4.291480911134113222e-04 -4.543985085545338478e-05 -3.873981370083540154e-01
-6.702112730596397616e-02 3.022074594512393075e-02 2.094834579955828779e-01 1.740574107989007054e-04 1.092599055346296671e-04 -5.432396995777541981e-01
-5.695396837365896553e-02 9.572652236148829208e-02 2.103112430014981715e-01 -2.696127125503065391e-04 1.506575095501255410e-04 -2.602585092814219681e-01
-6.169166509719005431e-02 1.132786742107893541e-01 2.100699181013901962e-01 -3.928558480192271651e-04 -4.202898250323710487e-04 -2.856560667018250288e-01
-3.612268661512227363e-02 8.211970965020901070e-02 2.097550907704883172e-01 2.702498119327736395e-04 -1.229552849852183982e-04 -3.492916166898489272e-01
-9.793813890925436028e-02 8.994032865559835332e-02 2.096240148848180773e-01 -7.157738609502919134e-04 -2.004145505608187407e-03 -4.362877259948635400e-01
-6.571883087799808287e-02 9.697350446813451930e-02 2.104692472014983995e-01 -2.744148244642499149e-04 -9.627681606587425167e-04 -3.641884835334101567e-01
-1.294298895082634515e-01 4.047432164534124632e-02 2.102776006004613563e-01 8.743090045839527452e-05 -1.379111074488888937e-03 -3.551731197345948665e-01
-5.985015608930226161e-02 2.273154631036230708e-02 2.100184767269909214e-01 -6.945179219522288261e-05 -1.278596479844448146e-03 -1.993506257239953117e-01
-1.399747640204453414e-01 4.529370518760651720e-02 2.098066620873980104e-01 2.673049491808872978e-05 -1.203226502354144776e-03 -3.947779834834072021e-01
-9.028032055928696120e-02 3.792073078224354049e-02 2.093417028443066985e-01 3.239922013988743004e-04 2.137592022807487081e-04 -3.746574921180745865e-01
-1.314152940381477230e-01 -4.884424093367137343e-02 2.092830873320543073e-01 1.222421299000970478e-03 4.104252680236123254e-04 -3.176908580810580141e-01
-1.661213132439388063e-01 -4.220537143760352133e-02 2.094506909868379396e-01 -3.063687048584645147e-04 -1.522603642474466184e-03 -3.450373092009307308e-01
-1.723398911609083650e-01 1.244799220406298326e-02 2.091945061931926308e-01 -1.830762917246514683e-04 -1.074419773555913837e-03 -2.591916185473925327e-01
-1.923170197101344570e-01 -1.411720438890472565e-02 2.091985955800216290e-01 2.758505428061647723e-04 -8.423189409770463851e-04 -4.053616758791386832e-01
-8.694372971591723953e-02 -6.744238643898262109e-02 2.107873447336476302e-01 6.014459625439202593e-04 -1.049343728673222996e-04 -3.253067160225084353e-01
-5.451387032249826320e-02 -1.318973587078478282e-01 2.106846802600110258e-01 4.637498518492741244e-04 -4.965516238188816657e-04 -2.746475234333871640e-01
-7.417579312672416270e-02 -1.100649806496392241e-01 2.105915575203494705e-01 1.453457078043074999e-04 -2.862085044492196275e-04 -2.593733844568373859e-01
-4.150365793634357148e-02 -8.982337757466091199e-02 2.105684336620827213e-01 1.960297534012518021e-04 -2.140291429032261110e-04 -2.108031051985026216e-01
2.780098257495482866e-02 -1.142865614232462246e-01 2.104866345849662479e-01 1.723779681069521679e-04 7.803763625219993147e-05 -2.186179146683538410e-01
-5.018191103232689382e-02 -1.788005206110767076e-01 2.103671072326632197e-01 -4.878821454786241851e-04 -3.231449754498325424e-04 -2.264914398434402232e-01
-1.113604780998618954e-01 -1.652772018399329412e-01 2.103369289128309561e-01 -4.563652142451627607e-04 -4.623663705939091008e-04 -1.435449514846511010e-01
-6.739765689410508187e-02 -1.634057954786367617e-01 2.100092038569529307e-01 5.779865764298245051e-04 1.083851401147961678e-03 -1.186051119268348997e-01
1.662662118786968624e-03 -1.599441306699952159e-01 2.098604520808008411e-01 1.075426520565870236e-05 7.182019583918639342e-04 -6.057563999956368239e-02
-5.334987529583790078e-02 -1.564633057913223935e-01 2.098644476165524297e-01 -6.176196770371958616e-05 -1.743143327047020098e-05 -3.159090073463829973e-01
-1.888957461354529715e-02 -1.460553281892130184e-01 2.095577825841795083e-01 2.400256328877584697e-04 9.638795346199599068e-04 -1.967780785713416358e-01
3.654512838295997240e-03 -2.013432904626894504e-01 2.102587547744911300e-01 3.597851327874155561e-04 9.283266931321924181e-04 -2.645758932353040604e-01
2.816833571163438257e-02 -2.285942565989075026e-01 2.095978090206616073e-01 4.453053657065056663e-04 8.083774647503949497e-04 -2.120441923436685860e-01
1.103184780326531972e-02 -3.004753986880347449e-01 2.104945423686686024e-01 6.284572098353946286e-04 4.629994071856277887e-04 -2.923359646973924808e-01
-4.226681185351909009e-02 -2.851999482001130182e-01 2.098556749041681768e-01 -5.984171098410743465e-04 -1.852709799670287146e-04 -2.809299554349993788e-01
-3.162704554297381121e-02 -2.564164298770545969e-01 2.106390158285798564e-01 -7.498061684179022340e-04 -9.313613907036391625e-04 -2.910310479243678472e-01
-1.320257038144599486e-02 -2.126987733858503316e-01 2.096439584976585446e-01 1.454291274620095949e-04 8.185814140752925832e-04 -3.687149802557314615e-01
-2.901415766716818057e-02 -2.825447292507056174e-01 2.101716666057285021e-01 5.270719021238249105e-04 8.823119761406716466e-04 -3.288173801715217337e-01
6.628100486079487041e-03 -2.461466661862788952e-01 2.106436951307747996e-01 -3.205217117925012723e-05 8.915582600081024822e-04 -3.430420578518631469e-01
-7.759253268565360906e-02 -2.614728074049569306e-01 2.099892273244448604e-01 -2.376972997269828820e-04 5.841617657467461019e-04 -2.508992518849361697e-01
-5.103022928242440664e-02 -2.078528059642980041e-01 2.103935813847745973e-01 -1.199198935571397405e-04 1.099360208081035873e-03 -3.980543462676990885e-01
-3.973946177942901115e-02 -1.451016714706897248e-01 2.097407169813927386e-01 -2.526163164030060040e-04 8.981511445097766768e-04 -3.867673881616127685e-01
9.835825465005226809e-02 -1.566200543396994160e-01 2.101000739839080644e-01 1.814251123756202891e-04 1.810126921612449126e-03 -2.374301459784816382e-01
1.049141058534331095e-01 -2.359704966649482927e-01 2.105410010448455771e-01 1.100265233027864864e-04 5.566053051730782695e-04 -2.168118565468261927e-01
6.333626025752789324e-02 -2.703383589774270845e-01 2.107450179007372970e-01 2.263000028504833839e-04 1.299460082256621114e-03 -2.331646890749068668e-01
-3.024427205665447191e-02 -1.536408837736000510e-01 2.096336601591159421e-01 -3.810098574913529587e-04 8.346066555441509702e-04 -3.465597525369872867e-01
6.973133889755171733e-02 -1.572607531731717301e-01 2.099826009367579127e-01 2.351843031228190444e-04 1.529148575097336211e-03 -3.105303943884972773e-01
-1.029749184873405415e-02 -1.055443652223897050e-01 2.101817653627253701e-01 -1.086916394386964330e-03 -5.322023027882773726e-04 -2.157686539014141425e-01
-6.004112011780109170e-02 -1.232242203918313822e-01 2.103780100567828604e-01 -5.873647988080585953e-04 -9.523698723040412303e-05 -2.651344129856864629e-01
-4.335733357793172815e-02 -1.535106823158004785e-01 2.103056831191290610e-01 -4.847465247462658458e-05 9.897181023236732971e-04 -3.322617175673329148e-01
-5.301417814762331843e-02 -1.554592884290302290e-01 2.103733094596045294e-01 4.189837688194140395e-05 9.205140403179267209e-04 -2.946139314447092095e-01
-1.289837244981365330e-02 -1.531348664021329187e-01 2.102086718958144917e-01 2.688648363787597673e-04 1.444778642063498366e-03 -3.412634737441885280e-01
-1.195499989076191996e-02 -1.448047489809219379e-01 2.102571061052598278e-01 -3.138190601576614435e-05 1.114274082900259524e-03 -3.627294636378745052e-01
4.003307766869387829e-02 -1.899447664915635825e-01 2.103496373411399278e-01 4.932101172325138467e-04 1.419577657005025679e-03 -2.658559423490360896e-01
-6.197082927210731396e-04 -1.389671576828920563e-01 2.102827678189646554e-01 -2.727816419656030073e-04 8.900427877261789505e-04 -3.277861241661918501e-01
-1.633985931983597539e-02 -1.800973598118125185e-01 2.104615373970690206e-01 1.906825058565182014e-04 5.102611088442922209e-04 -4.500482066034371953e-01
-7.427680639795885414e-03 -1.260594954234451059e-01 2.102168963611172892e-01 -3.543286296782528983e-04 1.034501402655874092e-03 -3.878337392230777336e-01
-2.965013248305149035e-02 -1.325527752536165282e-01 2.102879593171786965e-01 8.954736150753320667e-05 9.509631050654286698e-04 -4.409517370327676877e-01
-5.168546542503436869e-02 -1.547755125298892198e-01 2.102700001383492334e-01 -1.735547530977144987e-05 1.170773987608803935e-03 -2.611346366570247990e-01
-5.337349866896257816e-02 -1.538390811201590380e-01 2.102574824997248126e-01 -9.976500017856274906e-05 9.605083684357549950e-04 -2.177824873715002163e-01
-2.711887237398303424e-02 -1.888259581900380291e-01 2.103161999252418091e-01 5.834030323151117659e-04 1.577399599890924207e-03 -2.199136802774228627e-01
-4.661775243302322680e-02 -1.404538188423085920e-01 2.103405918560742327e-01 -4.005525938111589726e-04 4.851155644801039284e-04 -2.438731295266313437e-01
2.359947190441028658e-03 -1.820253423480339139e-01 2.103039047857618304e-01 5.549634892071840997e-04 1.619100895606995954e-03 -2.855620268905110781e-01
-2.565503217418768980e-02 -2.130494080166686066e-01 2.103452377718500466e-01 -1.164287034556777492e-05 6.175257749749761809e-04 -1.581404315532788651e-01
-4.674804193041476319e-02 -2.064299944704348078e-01 2.102418162682362368e-01 1.536025326855005517e-04 1.359200083923944695e-03 -2.446693566064992165e-01
-3.968506031343891488e-02 -1.734150696434871020e-01 2.103244955239709224e-01 -1.214523377154628288e-04 8.999704561868537454e-04 -2.655436323961351541e-01
1.181102429059324374e-02 -1.523815995026006342e-01 2.102046007981683284e-01 -1.438233671148898200e-04 1.358009204866521399e-03 -3.188214915785054782e-01
-8.606822929327594129e-04 -1.303992966483094040e-01 2.103017741973229882e-01 -2.446844573551677391e-04 5.810603652441846114e-04 -3.602484751288543285e-01
-1.437943774884391061e-02 -1.445256214758487701e-01 2.103033122747844930e-01 5.479404854392782003e-05 1.278446348441532061e-03 -3.262482972287077954e-01
-2.219916595666169765e-02 -1.484975094698131326e-01 2.102326953761784467e-01 -1.779600654404254415e-04 1.027799452036013035e-03 -3.703568239025809561e-01
4.541619539968566599e-02 -1.524411079986683903e-01 2.103001667434576394e-01 4.803453950436440334e-04 1.695047943441321467e-03 -3.313992930827674432e-01
4.894570867295545968e-02 -1.481226143011762364e-01 2.103695849063183521e-01 -9.293031413082129637e-05 6.837129400610254988e-04 -3.547278475145885235e-01
-8.140397755057038331e-03 -7.869622673813511660e-02 2.102331920427578105e-01 -6.841118651167600725e-04 3.089484737409352311e-04 -3.987022719625993306e-01
-6.614681111669112185e-03 -6.163127141491288319e-02 2.104381411037412053e-01 3.228203050983767682e-04 9.611646450322176632e-04 -3.384553656115403264e-01
-8.387963801211706372e-03 -6.879738486209703574e-02 2.102080051696532115e-01 -1.544515229521317961e-04 1.111918572538803194e-03 -3.017248148184117906e-01
2.853750907751483740e-03 -1.076857412607445802e-01 2.103621508355638103e-01 3.178074109768154335e-04 1.224119627940751555e-03 -1.918312698763733615e-01
5.496303127545329459e-03 -1.490084881052752275e-01 2.103068149722681079e-01 3.325425134442066546e-04 1.454847038500535440e-03 -2.606089419651961836e-01
3.917301562310160357e-02 -1.415010281861686370e-01 2.103382633510513799e-01 4.014885762303763779e-04 1.341366774220336148e-03 -3.517708298869145489e-01
7.039618624400170721e-02 -1.649053697562395393e-01 2.102957523113978544e-01 2.878281621142368663e-04 1.562390700228517403e-03 -2.956367877122125787e-01
3.439238574460479203e-02 -1.978592566909800343e-01 2.104681996823890566e-01 2.278325391655433986e-04 7.594133911339896867e-04 -3.328539389251795599e-01
1.464457566366107050e-02 -1.774566724901990022e-01 2.101572323543154930e-01 -5.911259605428810905e-04 6.311062129010167878e-04 -4.003449245224561248e-01
2.644477381846156022e-02 -1.774689827854532553e-01 2.102490859036154625e-01 -1.367754476537557566e-04 9.384101518118042121e-04 -2.177696899064695824e-01
-1.506316494472639649e-02 -2.011552542039793390e-01 2.104565167975041007e-01 -5.255435935088997884e-05 3.972884049974160104e-04 -3.200577755607870722e-01
-3.184564197394360030e-02 -1.775674698980931054e-01 2.103453926175197775e-01 2.048992578969740174e-04 1.127627711766001576e-03 -3.350169709442605837e-01
-4.202427820558463090e-03 -1.347204227023716672e-01 2.102092161650782609e-01 2.096110277196672965e-05 1.451397890009542297e-03 -3.340912975132908080e-01
2.675905093346281349e-04 -1.088247517097503531e-01 2.103242942965917739e-01 -7.287001060678495305e-05 8.665627595953714945e-04 -2.814738352904754826e-01
-1.407909446671893466e-02 -1.156458766493476953e-01 2.102624555419362329e-01 -9.653036602517234223e-05 1.037144886321055655e-03 -2.597915255241536880e-01
5.585534970779604258e-02 -1.399269014063062866e-01 2.103113065223264355e-01 6.167246310287791697e-04 1.658594692092804287e-03 -2.366666131539630624e-01
-1.242636402174087523e-03 -1.476642643099777830e-01 2.103560894559383110e-01 -6.281307360221622359e-04 1.669969010139243167e-04 -1.557218231574485634e-01
1.065561125827218028e-02 -1.771988532483201595e-01 2.104167870919667060e-01 3.067222852273543171e-04 1.091473850420696242e-03 -1.636014975154806150e-01
-4.911060660868789979e-02 -1.443933197861557161e-01 2.103266942164006559e-01 -7.300216424239259821e-05 7.445795055819005512e-04 -2.648257785243419704e-01
-3.152871630293734018e-02 -1.397966812261010328e-01 2.103055088613627333e-01 5.307678380062622785e-05 1.002092327738345577e-03 -2.194077394041827056e-01
-5.172190323873060436e-02 -1.182861130546056933e-01 2.102565286059834282e-01 -1.949653750691217444e-04 9.470361450581193290e-04 -2.393096117642770637e-01
-9.067534002364339984e-04 -1.641771839588920534e-01 2.103044207713611335e-01 3.002295188160231305e-04 1.392259304706243601e-03 -1.964155730554316970e-01
-3.993599935044486737e-02 -1.230209693628443179e-01 2.102158174144869718e-01 -6.631795053777475319e-04 5.485269297583573534e-04 -1.469041341453464766e-01
-1.871420415127858505e-02 -1.175146161381210863e-01 2.104151373734330366e-01 -1.297277520941096332e-05 8.520704740183462954e-04 -2.292974661214674803e-01
-3.711523927893092129e-02 -1.548749023252835866e-01 2.104778148125361903e-01 4.108490435634183581e-04 1.268817544144367794e-03 -1.565543412811841797e-02
1.448637400221535615e-02 -1.922797551257123538e-01 2.104838812286413119e-01 2.902766954573919892e-04 1.274684274662844872e-03 -7.310987000994521867e-02
2.097147733756903054e-02 -1.105339262897065827e-01 2.105052252982098082e-01 -3.052918140577476585e-04 9.690375793573488376e-04 -1.786045472974154835e-01
1.373769247149751738e-02 -1.159804172183000470e-01 2.105237036828026542e-01 -4.669376886441925110e-04 8.554628667008756489e-04 -2.486594246441392597e-01
-2.150120664344423033e-02 -1.041838347701033035e-01 2.097080451490505038e-01 4.288731966235563497e-06 1.042235064524502141e-03 -1.783906774480204238e-01
-2.669707280764797158e-03 -6.363263133319259357e-02 2.097399165733189186e-01 -4.389110126363954018e-04 1.229275175750324609e-03 -1.872719457860123893e-01
3.324561291289913900e-02 -6.070810042127637585e-02 2.099047730071523232e-01 1.483686080916712957e-04 1.078338725666283873e-03 -9.993555011321428316e-02
1.006163007176754109e-01 -1.357045737963667453e-01 2.100299895245195114e-01 6.890337039551124379e-04 1.371279896330877563e-03 -1.027096289093065301e-01
7.759043904602777597e-02 -1.346268818973394565e-01 2.101254292974077398e-01 5.046155421061248480e-05 1.124812135042713981e-03 -1.935409548635292909e-01
7.973777261383502291e-02 -1.432562595674393424e-01 2.101971211438429243e-01 -9.011682744745273506e-05 1.146703703653392716e-03 -2.677165695918513541e-02
6.346231636340117499e-02 -1.262975711182997840e-01 2.103515361977338904e-01 -1.482693244706550964e-04 7.999339902156658248e-04 -9.491862192923522512e-02
8.538559956202110279e-02 -1.144996872548523642e-01 2.104194414066333230e-01 1.385950122816972355e-04 1.365530515126039913e-03 -4.952443540673087674e-02
9.556994728356438262e-02 -5.788325797990030025e-02 2.095962724812379663e-01 3.038612483196442016e-05 8.172138572619542509e-04 -1.832774956662785171e-01
7.190657410014822393e-02 -1.124049592125166419e-01 2.100073599205866115e-01 5.445765532399252920e-04 2.275403906414889441e-04 -2.287953421298092593e-01
8.382519653101636048e-02 -1.346266864835554689e-01 2.096517047490559227e-01 2.039817529765956502e-04 2.143141713241061581e-03 -8.752732899854934537e-03
4.255150479228832217e-02 -1.540840385728443063e-01 2.102626248289701794e-01 -2.000182461029553923e-04 5.105937867748263281e-04 -3.967299060659925519e-02
5.502321263827299191e-02 -1.741610654667790081e-01 2.102736749446978970e-01 2.250018410580004354e-04 1.696831911822505295e-03 1.888620477990317174e-03
5.696971098271803174e-02 -2.096996193267677000e-01 2.103639570909563994e-01 6.097838413717424316e-05 2.493013800728696543e-03 -2.176684640083794905e-02
1.160949492515381959e-01 -1.649697405512670634e-01 2.107065960141095151e-01 -1.595443352430454915e-05 2.199859965610069957e-03 -8.868386213775207583e-02
5.880937029416932055e-02 -1.909433893708589458e-01 2.099214259225185009e-01 8.615872851259365900e-05 1.979049585426398850e-03 -4.752441218784293764e-02
5.484534619453367704e-02 -2.177967586284277057e-01 2.100861380201121675e-01 -4.018593205725273071e-05 2.232062685215048265e-03 -1.516474280709321776e-01
-1.865033948889226190e-02 -2.599142129242261179e-01 2.103781268236946111e-01 6.987673254235239975e-05 2.730110681110583300e-03 -7.195178473872651526e-02
5.704708400336162832e-02 -2.174767648183334734e-01 2.105255571269425974e-01 -2.460186660478642429e-04 3.686042786046811025e-03 -5.773080402766663649e-02
-1.656593299368283936e-02 -1.081048978581266584e-01 2.099286699362870046e-01 -1.273587969777133125e-04 1.852277437909580172e-03 -4.783986258789982987e-02
3.810437304238675077e-02 -1.020387688607529569e-01 2.099459418540707834e-01 4.373037931442062885e-05 3.348734464816329869e-03 -1.609723406566650750e-01
1.044593658279567919e-02 -1.084028757608773291e-01 2.093964199031879692e-01 1.290913420084546120e-04 -2.735678916235535318e-04 -3.487810268594133956e-02
2.542876265703390010e-02 -1.153794502301425384e-01 2.097903820980584477e-01 1.882949820536276918e-04 6.968711656825947627e-04 -1.207294974345139438e-01
-2.382398166816330695e-02 -1.764126593067146809e-01 2.102222939891584264e-01 1.447758667081240885e-04 1.744278839800154912e-03 -1.885563428744765901e-02
-2.270249099860825390e-02 -1.321878492956226891e-01 2.106221609767929270e-01 -9.522292387610213095e-05 3.285101036536008066e-03 7.867489837847480016e-02
2.083389868365646824e-02 -1.196079948252835312e-01 2.100270878450504197e-01 -3.805793977147181095e-07 -2.896087373278627506e-03 4.944877557642630289e-02
5.713324418678338013e-02 -1.930452790745524339e-01 2.106145529860108390e-01 3.724975471115642318e-04 1.474966107824212205e-04 1.058418953417464975e-01
5.133281537359508234e-02 -6.848227049474490957e-02 2.098793693149222372e-01 -8.942370828081364163e-04 -6.075129926227980891e-03 1.316054578734396352e-01
1.033048217735720170e-01 3.402392223434578741e-03 2.107089129508742942e-01 -1.568081694771517205e-04 -2.431501009796621388e-03 1.450105523445334998e-01
4.936706236338286174e-02 -1.059299901270364941e-01 2.103003441928089634e-01 9.241717892206937875e-04 -6.767753409962830660e-03 -6.217647269004976385e-02
5.800573253119055417e-02 -6.512587001853023527e-02 2.112053421315486790e-01 -5.893389436576174480e-04 -3.835960582825544574e-03 -1.139435378005216881e-01
6.346714445308668240e-03 -1.354162549914551539e-01 2.106569751674747248e-01 7.831502681694224675e-05 -6.095458260697075685e-03 -3.822919048776035611e-02
2.508945522125440031e-02 -1.129652764695650013e-01 2.103238272729697211e-01 -7.636962687556015554e-04 -8.813730595959972866e-03 -1.509995827999125739e-01
2.454863716105099014e-02 -8.726910959978281812e-02 2.111361540209664711e-01 -8.615034088309945115e-05 -4.586202280626798869e-03 -1.545113617536244544e-01
