2.550680119477491403e-02 1.676397872698955419e-02 3.656238406057368273e-01 -8.086080422629434101e-04 2.909316623575297959e-04 -3.962546874270740649e-02
-6.606442707741091991e-02 3.668059181099991156e-02 3.646514481225989757e-01 -6.241908193857141716e-04 -9.847107694526562906e-04 -7.748097732827283202e-02
-5.986126919376118238e-02 -3.827552903445573251e-02 3.650745189706442462e-01 5.166120505491917378e-04 3.083711204617641454e-04 2.575202188914887599e-02
-7.975462418418311286e-03 -1.473948876171288745e-02 3.650558298376802568e-01 -2.391231395136437143e-04 2.960267653356519102e-04 -2.951579332751062476e-02
-3.842607886576053511e-02 -2.570214279045008460e-02 3.648550238653369138e-01 -1.000230052768746360e-03 -1.424885806047334993e-05 3.042167284786332845e-02
-3.247652928218728446e-02 -1.288079857527333130e-02 3.650580957739739674e-01 8.555137200238578307e-04 -3.891556640498055101e-04 1.582809382591816860e-02
-6.820208909639811912e-02 2.618625090956958838e-03 3.648245985110903922e-01 -4.409042274541341870e-04 9.532903893728036958e-06 7.798623112875043006e-02
-1.050035201275108243e-02 -3.819611124818858561e-02 3.652463390762833439e-01 2.157200971426416047e-03 -5.057543850497932616e-05 -9.374668342875673577e-02
-2.749311649536622174e-02 -3.876053609981276737e-02 3.651209609723702343e-01 8.490536870998582420e-04 -2.119732905718330656e-05 -2.073109501444095892e-01
-5.542327562917798850e-02 9.675929542827885199e-02 3.647346933839307748e-01 -1.056056971934537505e-03 -5.658885646247273577e-04 -4.771994453812393455e-02
-4.967737655360129206e-02 6.821736863450582333e-02 3.651403112702897302e-01 8.585086742963568291e-04 5.969654844989565534e-04 -3.214904213862675164e-02
-5.075687801362833290e-02 6.387315246535282820e-02 3.648652534323608698e-01 -3.394479397506352646e-04 -6.126124062383592585e-04 -2.248490254485548401e-01
-9.637197497240714006e-02 2.800168860549281935e-02 3.649990954481676653e-01 2.224684146011305253e-04 -3.462585393136221397e-04 -2.150180160286286057e-01
-7.699230961705083587e-02 6.537685023434811060e-02 3.649056318751322525e-01 -1.086229652752446033e-03 -2.154465737961265494e-04 -9.277707792784692375e-02
-3.635968559238617059e-02 1.078907330537586667e-01 3.651081410814031036e-01 -7.129659324736265002e-04 6.857156955597826665e-04 2.108935280803706826e-03
-1.630406614078864710e-02 9.090741942984625901e-02 3.650575460642067060e-01 2.895680221822240783e-04 3.389738485926901577e-04 -6.172946399056637029e-02
1.507501031816528038e-02 8.295563503650318915e-02 3.650399317729796089e-01 3.746886496334861393e-04 1.770117961881364198e-04 1.245128513464830063e-02
-1.390450451218142600e-03 8.495390995357028630e-02 3.649119965424492129e-01 -3.271457778927614759e-04 -7.573381047502629937e-05 1.483652349752275501e-01
1.143694601291205502e-02 8.356557115643288569e-02 3.651315555105851263e-01 9.651037882167131775e-04 6.891465051504196138e-04 -1.052361402077047099e-02
-5.344260591377431036e-02 5.974768686460533301e-02 3.648563052048285349e-01 2.601938075791401512e-04 -8.559509800664629516e-04 -1.328698575302494078e-01
1.588109132432823437e-02 5.823745532977531864e-02 3.650959933014381598e-01 -7.595487364309638171e-05 -2.549548321492343996e-05 -8.565217506685003646e-02
1.884624613435614132e-02 6.646666915909424378e-02 3.650756435077655015e-01 -2.423138115705175449e-04 4.170058712794493276e-04 9.576874940416615911e-02
1.631735950473971490e-03 7.841855941133914210e-02 3.649548020768288437e-01 -4.515763126419270611e-06 2.020032449216521567e-04 1.627450645444147859e-01
1.971056636929527026e-02 8.136092978908728013e-02 3.652019861044838445e-01 -1.733175554606370547e-05 1.330752991903850439e-03 2.977493531849311204e-01
-2.440261235152053898e-02 1.075852688779008193e-01 3.648041636704614232e-01 -1.642322879647027786e-04 -8.285801025817193625e-04 1.247874218069595503e-01
-5.984066995821307917e-03 8.655293589575843716e-02 3.650752507776259814e-01 4.712950960650970594e-04 9.444976327322111961e-05 5.694090653281315417e-02
-1.229372012746849166e-02 9.528518444978685553e-02 3.649747121776220071e-01 9.077284086443964588e-05 -4.044451541501882410e-04 -1.179285595282398291e-01
-1.289709100092715707e-02 9.346716157393764046e-02 3.650795227155304579e-01 5.723479643482765403e-04 -3.858002795793089219e-05 -1.138183868833794916e-02
-1.648397502070424528e-02 5.007583720571812114e-02 3.650117686267256301e-01 6.633206429678622324e-04 4.267023742158892959e-05 -1.256046940669362615e-02
5.160669692829981427e-03 6.549091678950307027e-02 3.650672122063599589e-01 -2.648452367735819584e-04 4.978682559548935080e-04 9.760235404738978882e-02
4.249283711540945835e-02 6.196708058546875064e-02 3.651156823081028735e-01 5.293430613888305868e-04 -4.937762536441503577e-05 -4.087997719849306710e-02
-3.367121696071979919e-02 5.554508150116408555e-02 3.648472906386932557e-01 -6.670759512182599131e-04 -2.624000861332352911e-04 1.522145937507787816e-01
-3.999761274161862945e-02 9.669578960070575324e-02 3.648050682255205013e-01 -9.852566865693639705e-04 -1.585173893847123267e-04 1.980435678442129255e-01
-2.465223112479733580e-02 6.978153431194036860e-02 3.651448080452727174e-01 8.068076712670715391e-04 1.444950516392304806e-04 2.329566056063747670e-02
-6.608008576255253175e-02 5.915197979420077495e-02 3.649778150359216378e-01 6.221116208607704087e-04 1.702240674693596503e-05 -2.228637499058315832e-03
-1.881511545340058475e-02 6.333207707058220726e-02 3.651173133514037383e-01 -1.817690409236856377e-04 4.390442342720955174e-04 -2.063599978177877922e-02
-2.465344519504620788e-02 9.174017868612886761e-02 3.648673453556954271e-01 -9.025549650034064668e-04 -3.008544877435469157e-04 5.621746950691194553e-03
-2.052830804515247062e-02 5.316569319993077330e-02 3.652340266320734941e-01 9.052170847891674848e-04 6.235215644494313501e-04 2.487523553675021967e-02
1.545806363041236052e-02 4.073409394865439015e-02 3.650872275487341279e-01 9.305944485661611859e-04 1.747107980351940315e-05 4.170121967988747042e-03
1.557776085254955305e-03 5.860862364479008796e-02 3.648268233516480108e-01 -6.749436946994935745e-04 -3.181544529955136758e-04 3.379985312859121876e-02
1.251996662237060990e-03 7.625500253868086609e-02 3.649310287940377151e-01 -7.951923165446496628e-04 -3.704698980047051389e-06 1.547844359775577550e-01
-2.955685227304693033e-02 9.025537642806101546e-02 3.648734856344211241e-01 -4.393317222706612474e-04 -5.112755775353882738e-04 8.717603411804034086e-02
-5.113494274652900795e-02 1.280121264306978424e-01 3.649344758368464614e-01 -7.423030020729308410e-04 1.923004783462290942e-04 -1.517977248736580376e-03
-1.796458991806695882e-02 1.038162490165097651e-01 3.651089930103430525e-01 9.269898009254934866e-04 2.047961330642095691e-05 -5.889172523787711971e-02
-3.729762811741340472e-02 8.747828351995567964e-02 3.650441702721750614e-01 7.964094705303687753e-04 -3.128331749353164409e-04 -3.102256537456231367e-02
-6.815108024617966276e-02 1.019326199041862002e-01 3.648082084614293619e-01 -1.190066786106847843e-03 -1.198202188735032666e-04 8.937129330250118131e-02
-1.609468231311892913e-02 9.285194333516202936e-02 3.651270583303679595e-01 7.557082977439961340e-04 4.844430647481236208e-04 -2.479480769533564874e-02
-3.618196647770832025e-02 7.062782898934286124e-02 3.650332950822542388e-01 -1.326298604677370681e-04 1.588353441246816183e-06 8.338335137559184373e-02
-2.539047518819770310e-02 6.748385948795367073e-02 3.650180656691591752e-01 -1.752085945134461092e-05 3.914079910663800603e-05 -1.987755669970136252e-01
-1.361511995133883775e-02 8.712728512449094409e-02 3.649683134543713070e-01 -7.324524693681513064e-04 1.109072797008022197e-04 -4.212825139703534755e-02
9.343403730054008691e-03 9.955574803980779541e-02 3.651040198535331349e-01 4.112041469793628460e-04 8.121367752128244122e-05 -3.293842769827397543e-01
4.636740323415333015e-03 1.048139093536247929e-01 3.648669885677314761e-01 -7.974394112693344991e-04 -1.065010141430462959e-03 -1.770425840740113554e-01
-1.020729140617507129e-02 9.793994274183789872e-02 3.649842044792849238e-01 2.964117363231211330e-04 -4.692502780082839775e-04 -2.131196850326985415e-01
-2.558745781316279846e-02 1.053736536117149125e-01 3.650557504207231352e-01 -4.722962919242604057e-04 4.219506595450996708e-04 -1.075651911224285856e-01
6.524213028343075343e-03 7.493432368622769679e-02 3.651427475709951853e-01 6.970130232846602405e-04 2.696862029621152602e-04 -1.414885782916813772e-02
8.835640137844874911e-03 6.818357338053669670e-02 3.650874929144168890e-01 8.707785306770620846e-04 -4.527770241035513135e-04 -8.096232754315130231e-02
-4.002320813793234372e-02 7.476414169592741910e-02 3.647248788314579881e-01 -6.674546226312969401e-04 -6.104951524310166635e-04 1.209972704352891421e-01
-2.984083317987120537e-02 8.450340349960350217e-02 3.648498376770661356e-01 -4.670935348864832721e-04 -4.446469341987331126e-04 1.521255113610201770e-01
-3.557027069572509664e-02 7.526009921065426878e-02 3.650005261316920935e-01 5.870778700785274319e-04 8.836283096258159978e-05 1.186226829759783469e-01
-1.136974215408804653e-02 7.584589578302511348e-02 3.651239801896842274e-01 3.394519909098411598e-04 6.932771522691839796e-04 4.730774726611444714e-02
-1.191554895229422241e-02 6.570048468354074134e-02 3.650996684652138002e-01 1.392687021948567404e-04 4.704010308157652071e-04 2.871243593263431843e-02
-1.591770053481008501e-02 9.159298801937829082e-02 3.650022466291647505e-01 -3.546174623123889971e-04 2.814231083702714077e-04 -7.347936950854042082e-02
1.262209113875219051e-02 9.131422025760299599e-02 3.650714016437943688e-01 9.516725894774966869e-05 6.281528324967660347e-05 -1.175671676639017480e-03
3.017906471567245209e-03 7.927358170379696090e-02 3.648841409234467870e-01 -1.961889751413683147e-04 -2.613336473202773906e-04 2.897061659805609882e-02
-2.198561453341939947e-02 1.168911469807284165e-01 3.649055493552215701e-01 -6.430435474069362296e-04 2.047317003523842021e-04 1.419626711436111632e-02
-5.440258106118273790e-02 9.442550158696530471e-02 3.650165143300279635e-01 7.648023358795862699e-04 -1.617030299611472988e-04 8.954356299526838869e-02
-2.878430395999840435e-02 9.021490983124177965e-02 3.650472476033134184e-01 -2.043922302611482467e-04 2.861006034910802036e-04 1.527800737553489975e-02
-4.194675863872298488e-02 1.141527955889005963e-01 3.649260174158039938e-01 -6.367371668664490022e-04 -7.436757594026890180e-04 -8.674463727493204879e-02
-3.860147268484492161e-02 1.062023980510553856e-01 3.649635409917517670e-01 -5.928279665930882110e-04 -1.660485055418807845e-04 1.284814597903012057e-01
-2.953919133121038834e-02 1.109002050051964838e-01 3.649996964495474394e-01 -5.001969576150427433e-05 6.926269532592256031e-05 -4.576453912669493224e-03
-2.917080261082330428e-02 1.341167912440337229e-01 3.648980690265046234e-01 -2.640213388184258153e-04 -4.937779935251658233e-04 -6.398377088764178877e-02
1.101138300043917259e-02 9.307356093999893942e-02 3.652251324586273107e-01 9.665599044922747792e-04 6.311966652336677315e-04 -1.008189953420646212e-01
1.290852706952123723e-02 9.294597581998111091e-02 3.650077030184200044e-01 2.371726439985259868e-04 -8.748163748177245950e-05 -6.169596442061481278e-02
-1.364054192607996527e-02 1.071254240442501560e-01 3.648749449557309177e-01 -5.336219202751246249e-04 -5.527841296218918453e-04 -4.765456650896215951e-02
-2.287722319547590491e-02 8.660791187875846453e-02 3.651218686799899138e-01 5.299195223710086514e-04 4.612414218915119441e-04 -6.482059427463218726e-02
-3.639096970070100634e-02 9.388315974071301251e-02 3.649363669899753360e-01 -1.565696701600821704e-04 -2.322984362379755161e-04 1.554461776290981187e-02
1.443802490644947346e-02 1.035959805944016571e-01 3.651808462331368466e-01 6.635476420981578551e-04 6.044388535264452701e-04 -1.805103928697507354e-02
-9.592296890297807854e-03 1.130431635796752543e-01 3.648271531018969505e-01 -1.654545124105331042e-04 -4.744041808718930855e-04 -6.096663104794116522e-02
-1.682459988268265871e-02 7.936039877860583125e-02 3.650137342512804750e-01 5.752751020038680092e-04 1.077277595128779854e-04 8.231605112639818478e-02
-1.953733961879935629e-02 5.903990086646335178e-02 3.651458423392938135e-01 7.220969805585088263e-04 1.642167901872359712e-04 -1.042379260825630066e-01
-4.765823741141782255e-02 4.895182142209113935e-02 3.649702358124953250e-01 -1.727569948315444651e-04 1.457635822720747065e-05 6.797505488167639165e-02
-4.366302375468798097e-02 8.267763490810903226e-02 3.648644985171941024e-01 -6.336745197575155419e-04 -5.164574695552877782e-04 -1.351725898675104898e-01
-1.022822020728311396e-02 8.040285336680773332e-02 3.651197486381692059e-01 -4.039440618443654242e-05 2.117667416121253121e-04 -3.708376905349059643e-02
-3.429438757395702943e-03 6.638935696637239536e-02 3.650733079971407724e-01 4.582135360567359591e-04 1.737646242164448147e-05 -1.296804088751010997e-01
4.657251837792684458e-03 7.570736474023131990e-02 3.649379716606296897e-01 -7.771845173418871484e-05 -2.532430450134463677e-04 -8.931749666920978104e-02
-5.098883348555635631e-02 8.910149324350095934e-02 3.647584736880014056e-01 -4.625128668837151405e-04 -7.220343167411408898e-04 -2.834330887083794104e-02
-7.099138217654910044e-02 7.496637362629576806e-02 3.649869670147986023e-01 4.208850501575610672e-04 -2.085089567572923595e-04 7.192834414702141410e-02
-6.774692882963899432e-02 8.798652400171085020e-02 3.650881505482534983e-01 -3.083457530353440586e-04 4.105347591092901806e-04 4.588476229226396558e-02
-4.201976632229204034e-02 5.147083748817078003e-02 3.651048841437805059e-01 6.046679216555812027e-04 2.003217950455780873e-04 7.078865292049012214e-02
-5.749162155339451047e-02 4.558004737133208167e-02 3.649991955006643973e-01 -8.333520399275743350e-05 6.687503491254926410e-05 1.670425879637873756e-01
-5.656549758908283737e-03 9.102099840659313990e-02 3.651095844528138290e-01 -4.584242138439539112e-04 1.018887400830953719e-03 4.555011198800161532e-02
-1.564548261117357925e-02 8.270981753664050085e-02 3.649823366073466357e-01 -3.624536858900535553e-05 -1.007734886500629372e-04 -8.126720165006175167e-02
-1.400919209121339638e-02 9.390052066321420698e-02 3.649836758766843436e-01 4.572714366424597717e-05 -8.384157449858107138e-05 -1.092985682423269628e-01
-8.658020601791683105e-03 8.604483461545524292e-02 3.650461627693455391e-01 1.843813870576606979e-04 1.307186738280582017e-04 -3.203093249137312776e-02
-8.743553180426811774e-03 6.965184430978280106e-02 3.650259032253185820e-01 -2.050385203383395521e-04 -1.377232635621520793e-04 -3.856586895384739398e-03
-2.572990334708949098e-02 7.911364252783861795e-02 3.649828284607991580e-01 -2.994671863738697175e-04 2.927161835963546389e-04 -8.902724059413281987e-02
1.996759945803244091e-02 6.944216893026990134e-02 3.652133347999895197e-01 6.646287289938025049e-04 8.445122751177558959e-04 -1.072693153145018313e-01
-8.056594926637315746e-03 1.063955987481733090e-01 3.645813461134022604e-01 -1.000760264726693318e-03 -1.074977831729722168e-03 -1.677893129060856539e-02
1.006475877639623900e-02 6.598881107139659141e-02 3.652582829549323451e-01 9.758533854966804175e-04 7.228388769605639070e-04 -1.293669884177098828e-01
-4.360849245814910763e-02 7.981368506170162525e-02 3.646799555361243117e-01 -7.614978430428066564e-04 -9.423500718913351178e-04 -5.821727072470649078e-02
-4.278543679815427492e-02 4.918047471191228093e-02 3.650888168507366860e-01 4.421617796741854540e-04 -1.022679943213671336e-05 -1.397352666036548730e-01
-5.243705265514148062e-02 2.364292610357482394e-02 3.650407086765800058e-01 3.970144973571024466e-04 -5.377947457053803334e-05 -7.767798284397976760e-02
-4.296239870748481265e-02 5.982654463489488206e-02 3.650362211754915043e-01 -1.970648292131270049e-04 2.908947251469944095e-04 9.087774768673689829e-02
-4.204076954237272179e-02 7.924851503617481863e-02 3.649920837587101730e-01 -4.255676439558781637e-04 6.091358207569023443e-04 5.502588202668400041e-02
-3.232005233085653243e-03 7.189759457850843083e-02 3.652369374193711882e-01 7.056167941577853788e-04 5.020370655943466771e-04 -1.842139521764443177e-01
-1.642441849375301730e-02 6.006450373887523703e-02 3.649293046633904081e-01 3.992128940193069618e-05 -3.063201758899432433e-04 -2.157942840268614170e-03
-2.676397332413806354e-02 6.176500574814607764e-02 3.649249742280894493e-01 4.234639937472163052e-04 -4.629314122317710473e-04 -2.445548317026521867e-02
-3.540619752089525091e-02 4.452459818856451673e-02 3.650868618031084534e-01 2.391702771321772077e-04 1.690141900017323024e-04 -1.206913075107148847e-01
-4.584438157356246490e-02 7.550829102170963925e-02 3.647980967117211981e-01 -8.391102404564286478e-04 -4.872766234168972354e-04 2.536204901343756812e-03
2.317605148266242698e-02 8.241339844542776294e-02 3.652555644117105871e-01 1.725504380162836099e-04 8.856318010284745671e-04 -9.277567490120691707e-02
-6.165127248191900472e-03 7.563597142294020692e-02 3.649263995272530314e-01 -1.990537794916726993e-05 -2.375518807494514145e-04 6.107219556042437630e-02
-1.931057792069606691e-02 7.994786013808213854e-02 3.649706217078896309e-01 3.018047227574580755e-04 -2.696073355537739985e-04 -9.152683467387756969e-03
-1.627766290782757183e-02 1.025372766411111053e-01 3.648794417442859928e-01 -5.875211303150193291e-04 -1.252501563434699715e-04 -4.514234185106769798e-02
-3.130412225428720781e-03 7.614580875608570332e-02 3.650973098169194575e-01 6.421615606204246832e-04 2.771458171590245728e-05 -7.280688263533424687e-02
-2.826278945976079190e-02 7.534881055718554987e-02 3.649752495851844580e-01 -4.197857176912882823e-04 -4.053819996221635143e-05 7.963461408605647385e-02
-4.390473101262774847e-03 5.786990917613019786e-02 3.651379501153911855e-01 7.664603926903599965e-04 2.269157803246448304e-04 -2.822959907442020369e-02
-2.433033481571708276e-02 1.045455227458500641e-01 3.647786659063932957e-01 -1.106863427207109129e-03 -5.739882805971703843e-04 -2.771386528908974592e-02
-2.985774164387702129e-02 1.057451627932010085e-01 3.650314548746230181e-01 -1.070968898919448341e-04 3.797129335453401384e-04 2.454880898437919109e-02
-4.017362172766183320e-02 8.053339182712358768e-02 3.650319553639456704e-01 4.496073282811073016e-04 -1.064208170096982180e-04 -7.320049898789283971e-02
-3.772889927341677857e-02 5.035257905736231776e-02 3.651038108293152007e-01 6.939710693302550111e-04 5.552733798588077737e-05 -4.019850745163116440e-02
-1.879552548547287413e-02 5.339649031821566694e-02 3.648853427653944159e-01 -4.087352121994619635e-04 -3.410516430819790371e-04 2.264778662566237569e-02
-2.713748472232490119e-02 8.656232421095634566e-02 3.647933919702849304e-01 -1.156712253018654483e-03 -7.078325068841872202e-04 1.004923038698652370e-02
-3.697856482783962867e-02 8.847826631069642678e-02 3.649488487859293140e-01 -4.520844050008507309e-04 -1.163194108421936079e-04 -8.721934524694735513e-02
-2.646500312739570246e-02 7.901978241461841967e-02 3.651527029697542170e-01 5.578373673296397337e-04 4.288069774319164923e-04 -4.700502262561921663e-02
-4.683641018191755934e-02 6.167425636847020942e-02 3.650861447743614097e-01 6.247728035342672284e-04 1.146695724201124184e-04 -4.038619291979835685e-02
-1.690806179518330662e-02 8.050146772199621992e-02 3.650673316889674336e-01 -1.556443397016099702e-04 6.649085701039273615e-04 3.346850547941213755e-02
-1.848131971101165533e-02 1.137048120027087800e-01 3.648188796165667824e-01 -9.414376923877000635e-04 -5.763699241120921572e-04 -2.029507320013846650e-01
1.351639084398384948e-02 9.038035105247514689e-02 3.652408520053025409e-01 5.054213537826057886e-04 7.632389857206079613e-04 3.054699902006364001e-02
1.848880231742413248e-03 7.322772254489592902e-02 3.650374578177778551e-01 6.663585201287364462e-04 1.538751530271802149e-04 1.145647676742306276e-01
1.228140726995244347e-02 6.171795441969660928e-02 3.650291769081742688e-01 1.767352181461824274e-04 6.358297329820510860e-05 -1.509416732178050780e-01
-3.729488935426699542e-02 7.818478955841139111e-02 3.648611683383413129e-01 -6.058823374874694728e-04 -4.784216801279698181e-04 -3.730589797342611647e-01
-4.134888683780783142e-02 9.488544758612328656e-02 3.648592704303280643e-01 -1.143716958928196747e-03 -6.457515623292534382e-04 -2.948416001860262869e-01
-6.058694532922962589e-03 9.023732987001745198e-02 3.651430941926214757e-01 -3.543933888597685430e-05 4.565118796456382245e-04 -2.723035936799114015e-02
3.064300258294890000e-02 1.080752230788662727e-01 3.649868049889434252e-01 -5.681711353992997555e-04 7.954988871829496693e-05 -1.541383919648967316e-01
2.027485358273763832e-02 9.163080760921661627e-02 3.651323891672017541e-01 1.022568270718059256e-03 1.151597323371958360e-04 -1.132669659822742453e-01
5.806231432742647164e-02 1.011046399715014310e-01 3.650407646314302590e-01 -2.562232741117125793e-04 1.703303322300552653e-04 -2.318003069022819829e-01
1.943957987449009342e-02 6.785189726841743540e-02 3.650022608228530308e-01 2.984790388764683826e-04 -5.455587477679466534e-04 -1.343194725889191865e-01
8.147088254806984786e-02 8.196389470216082496e-02 3.651297802913908153e-01 -9.518173869114854736e-04 4.290968581594955720e-04 -1.069028892569807848e-01
9.641519712194991654e-02 8.136750541793691394e-02 3.650339569305183218e-01 -4.830830606171582616e-05 7.711525357844933154e-05 -1.551292198497541443e-02
5.706057937110005363e-02 1.113249982254554127e-01 3.647260187830345668e-01 -1.143755855875396151e-03 -5.063685521872630241e-04 -8.882764545516330656e-02
1.157311040728952085e-02 7.966036737712160753e-02 3.650942306480179922e-01 1.219167798119382600e-03 -2.600226188971501611e-04 -5.733620107636044211e-03
1.146662965821725055e-02 1.225194980623757063e-01 3.648764126408842179e-01 -6.131860415336050536e-04 -2.324828482010712026e-04 3.221334518241597816e-03
4.563272179698058678e-02 1.219550704078089381e-01 3.651174742291284359e-01 2.591930210009681188e-04 6.410437442470280417e-04 3.753192304516674710e-03
3.290619009776068332e-02 1.128847872078348191e-01 3.650818422544044317e-01 7.038390857726452201e-04 3.555267550703821930e-04 3.706483222117348125e-02
4.375569524467382010e-02 1.399267075472103439e-01 3.649127467780537426e-01 -7.707169200279817079e-04 4.336480842452732662e-05 -1.253242878350337708e-01
1.847096913881288854e-02 1.411997194554594492e-01 3.649945527842525239e-01 -2.944429024888008790e-04 -1.619996469109465423e-04 -9.205900900902500017e-02
2.632721289844793325e-02 1.428757493198635486e-01 3.648873520974593165e-01 -7.147039740822707944e-06 4.018765756102507200e-04 9.909287804040409209e-02
-4.889698864769128316e-04 5.244478519667087474e-02 3.653004442278613428e-01 2.739197115442252510e-04 -7.102278519140612289e-04 -6.260499743980647847e-02
2.830996234360419472e-02 -2.044305396368851016e-02 3.649028303343078150e-01 2.467572381413655775e-03 -4.016239592559835516e-04 -2.843940807208220067e-02
5.911803735267911336e-02 1.102229676648031759e-02 3.651350701471504090e-01 -4.806237695648915304e-04 -2.367045389921894924e-04 1.881992936271714711e-01
8.946631065813276731e-03 7.585793728420564541e-02 3.655436313136034010e-01 -7.614611184515874664e-04 -1.593453625252141395e-03 2.340301190172470458e-01
1.761038247091607778e-02 4.683914733481742837e-02 3.647144165154428963e-01 6.268840139129525741e-04 5.752785852866092479e-04 3.238219470314049331e-01
5.704582357340207827e-02 -8.502726149621999199e-03 3.650774481174687836e-01 6.673986774460925319e-05 -3.617083077828039906e-04 2.096835008081814333e-01
1.674993175395020351e-02 3.787308509813714329e-03 3.648403275136588575e-01 3.470207673257563416e-04 -3.817763892854958863e-04 1.340747474593007860e-01
-3.596818555751104401e-02 8.910721049490061274e-03 3.650702080505465741e-01 -5.975378763368052954e-04 -8.515111312462278611e-04 -3.585583816460729406e-02
-8.586855035271473424e-02 -1.056667496390921272e-02 3.646654021689516023e-01 5.827162272086073387e-04 -4.559648138170981839e-04 -2.615586182997441111e-02
-1.139769788341392504e-01 -3.302947245211354348e-03 3.651266185406554787e-01 -4.635198348921716919e-04 -2.830042902660903008e-04 -2.038687024047609042e-01
-1.009422433542796482e-01 3.061753195679466424e-02 3.649577588284474983e-01 -2.485014842788011813e-04 2.630588532588195986e-04 7.339598948650365162e-02
-8.874090740710086078e-02 2.221564875489135879e-02 3.651670422422229612e-01 -1.229779893245825414e-04 6.663455086131122836e-04 -1.593419154600246856e-01
-2.987807037675763167e-02 3.876035975134817235e-02 3.646311765454587905e-01 -1.398220395865304444e-03 6.662063084912390890e-04 3.512080123737271881e-02
-1.846719441434746534e-02 5.614661984506407605e-02 3.651005424789470766e-01 -2.159802636500084843e-04 -2.636510055874979669e-04 -1.606897828946097506e-01
-1.363107612657031564e-01 6.289694543903227852e-02 3.638021806213305176e-01 -1.492924457876286005e-03 2.530573536741124140e-03 -8.145665050071697333e-02
-5.916780069879467446e-02 3.321298135971393478e-02 3.649317203101167806e-01 5.648683183586729198e-04 9.075072930268393350e-04 -1.444558908372239603e-01
-4.142088640285471191e-02 1.249921566098363170e-02 3.649438978194676220e-01 -3.720374917142024794e-04 3.505926844642648279e-04 1.485766157437327581e-02
-1.310526117826223830e-02 2.929173373634473554e-02 3.650297765572010356e-01 1.986439863445345604e-04 -1.324653103414856774e-04 -1.730364289577390399e-02
7.845325205441603181e-03 -2.995898499053610900e-02 3.651363733677375212e-01 3.017861246031485053e-04 5.538940065499028519e-04 5.925246926342851023e-02
-3.118803576066489155e-02 3.564068459524240284e-02 3.651496538019328719e-01 3.839019050374148801e-04 1.374190773595439620e-04 2.915872061908845320e-02
-3.436362892017372911e-02 3.033952858290848292e-02 3.650375500087642000e-01 5.594972484626142524e-05 -6.629357833215088073e-04 -5.954936231466896948e-03
-4.781639799706955546e-02 4.737174252481380493e-02 3.649557372483593909e-01 7.367560286599337518e-05 7.921471398831941022e-04 2.199833446336225268e-02
-1.335451748335936099e-02 4.271806157258384307e-02 3.648577982027026989e-01 -4.513005584363493196e-04 4.191948330277387065e-04 -1.151087967490967666e-02
-3.516101414090645749e-02 4.717548883748618610e-02 3.649887077926267653e-01 1.431047390123895871e-05 2.583381980567711709e-04 1.349336972230041620e-01
-4.885905561269949203e-03 8.589940364776958714e-02 3.649749706246146475e-01 1.017295788775691041e-05 3.796104322521948724e-04 1.296447375815800718e-01
-1.336267304502546972e-02 9.658410648184198588e-02 3.648418966435014177e-01 -2.130145428797967846e-04 5.371912225919925950e-04 9.200115799502638081e-02
-1.218636915117282324e-02 1.378274007502540144e-01 3.648261761109805046e-01 -1.364203437772925437e-05 1.119487943884454493e-03 1.924473449966173921e-01
-3.759551511238825444e-02 1.308985032786017522e-01 3.648018383809787379e-01 -3.698546202034352394e-04 4.785303281087944480e-05 2.564050644063679552e-01
-6.711751909110043497e-03 1.672369555532230156e-01 3.650608465816955750e-01 -1.372846574420957951e-04 3.399830872069081722e-04 2.251360918532440136e-01
-2.161548263505927783e-02 1.100092261959838835e-01 3.652085546654093573e-01 1.095963542655871339e-03 -6.906943240410072949e-04 7.911119421065045121e-02
8.889203466811827076e-03 9.406112573814025268e-02 3.648717967328687917e-01 -2.085732280965188425e-04 6.952440113542783301e-04 1.879566489995342649e-01
4.615438175547130484e-02 1.398869791572849852e-01 3.650148205449539884e-01 -2.968787870061425868e-04 4.056248205014792235e-05 1.371870622235413506e-01
5.462386088769380366e-03 1.685726022005404889e-01 3.648946076244061754e-01 -3.106016971337681150e-04 3.105275838968226060e-04 1.831274775425119350e-01
-7.758000067874733750e-03 1.507976697489973594e-01 3.649944179740066685e-01 -5.738876230563449369e-04 -8.086959918770122817e-04 1.840554841462355429e-01
3.543601040682619469e-02 1.479818586226635813e-01 3.651023002613645319e-01 1.846684737817449573e-04 1.479100635864299702e-04 1.886163742867205673e-01
4.678364016476344034e-02 9.580073783707340751e-02 3.650415809822095126e-01 -6.620126278963007528e-05 2.669230662868947207e-04 1.052223802167787103e-01
4.945384350506515890e-03 1.239927292362860839e-01 3.652190808529434118e-01 4.490653659271995226e-04 9.098479308073039330e-04 1.438347507956029281e-01
-7.838733332088353850e-03 1.780404835664809726e-01 3.648829968023279413e-01 -9.628525978613132344e-04 5.476153612850638986e-05 1.977361587974010571e-01
9.329847131696496210e-03 1.927837244152817708e-01 3.648042530930053484e-01 3.089927348429487102e-04 6.393670411735133353e-04 1.891426155805202847e-01
9.162357440028724709e-03 1.538099631432627012e-01 3.649254067982982130e-01 1.342611910132455793e-04 6.116855640453513826e-05 2.240100872370572593e-01
-2.893743748455243972e-02 1.231191641577884521e-01 3.648881413545034258e-01 4.146276115711666332e-04 -3.662352583242308953e-04 1.474678175991722129e-01
-1.774652919545429905e-02 9.125881839522426153e-02 3.648804315500302486e-01 -3.711150045359772119e-04 -2.798525084662646743e-04 1.551080176353566709e-01
1.265937564601858634e-02 1.240386566653322725e-01 3.651273288000884687e-01 5.690906057480876095e-04 8.626388437594094448e-04 2.162820500193296525e-01
1.175105428632490165e-02 1.175634574551456951e-01 3.650245895741121016e-01 1.799336081635133778e-04 4.096308869514717608e-04 2.735063553417003135e-01
8.807483699463801441e-02 1.024551601971351311e-01 3.651005116611306667e-01 1.066833540476974694e-03 1.773400302226567945e-04 3.338641886956225102e-01
8.840400269187852211e-02 4.964941547902664010e-02 3.652610115939009527e-01 -5.761289158222995853e-04 -3.701703613661149438e-04 2.744010618045836236e-01
1.245981218212175723e-01 -1.951074591771015387e-02 3.648502337931120998e-01 3.260872076744988511e-05 2.186596385055357785e-04 1.883176965802170755e-01
1.057899653993385064e-01 9.500454836435215378e-02 3.650545990397947582e-01 -6.786344131238540361e-04 2.906929936034475127e-04 1.206004841893729279e-01
9.294107644683712033e-02 7.614016150115204828e-02 3.649673605709278790e-01 7.212686788381468886e-04 1.098979461763406140e-04 1.294247818592720797e-02
5.211030151131931798e-02 1.124400347484688090e-01 3.646253743525551538e-01 -2.297482268800471624e-04 1.674031316305307987e-04 1.289718812441370197e-02
3.388538757771885485e-02 5.477965449525783181e-02 3.649417337665005756e-01 7.461138610302534609e-05 2.069837294364468663e-04 -2.967878648169503530e-01
6.584733786984797721e-02 5.942480706663835766e-02 3.645206519944208523e-01 1.931020642536175613e-03 2.631176589954741787e-04 -2.070510100846509605e-01
7.173364465392902123e-02 5.223786759706788158e-02 3.645893032560365565e-01 6.546082661064384165e-04 8.786117564975749316e-05 -3.383091127363822836e-02
1.203003968903778587e-01 9.402096355323043275e-02 3.648710890858679612e-01 -1.754510430929497251e-04 -2.223932542132678780e-04 1.102782400450472711e-01
4.938442607700350984e-02 1.867410128955113158e-01 3.653924618417269121e-01 8.423215431243085089e-05 -3.197057624801450380e-04 -4.623134474903910912e-02
9.935573327583333003e-02 9.755725778737041332e-02 3.649404674630015721e-01 -2.707679597468441501e-05 1.839220024232364080e-04 -5.544054948544820116e-02
1.006925313873816702e-01 1.565997495311759746e-01 3.649071886178145152e-01 -5.899056861422955660e-05 -5.667393740795896611e-05 -8.803966384899601649e-02
1.526686095170152468e-01 1.707247002960335103e-01 3.648447601276638697e-01 3.153684172433584144e-04 2.746070880261572813e-04 -1.135617744923041322e-01
1.252215553739917109e-01 8.114349952338294203e-02 3.649606894646857391e-01 7.202239597067337665e-04 1.379343972558792178e-04 -1.239824263926265074e-01
4.601397263192983506e-02 9.231405085129062993e-02 3.654045576125444228e-01 1.749540415769363440e-04 -5.897734058748644584e-04 -2.615756710423324805e-01
8.178193894215379789e-02 1.834184801206796278e-01 3.649923326389452605e-01 -2.799641834551430631e-04 -8.553024371796122047e-05 -3.822475740862696370e-01
1.122082290927829407e-01 1.372630011205438760e-01 3.647587520372082004e-01 4.425764652322963441e-04 -6.523016432280301802e-04 -1.944118756555624494e-01
6.715439212371759892e-02 1.119214279914742816e-01 3.651301443768074639e-01 -4.250059957058835761e-05 -6.559810566497198880e-04 -1.620661033548633501e-01
5.588123059689413530e-02 5.612417936904320892e-02 3.649377834022216605e-01 1.953928351116043967e-04 -2.150345101029785624e-04 -8.172386842097081883e-02
-2.832486339314001927e-02 7.125117877756374785e-02 3.650188924781802013e-01 3.140027327098341781e-04 -1.901728866571145453e-04 -2.740175088803476489e-01
5.861040683955786451e-02 6.000443959489643042e-02 3.648854923636125624e-01 1.822175980474802629e-06 8.458969504421928103e-05 -2.265206380315637757e-01
-3.848015038391045754e-03 4.700155935545712732e-02 3.649680926569678352e-01 1.355281535462350061e-05 5.231102012160794676e-05 -2.487440859746615218e-01
-2.084675538651097060e-02 9.097286353685393734e-02 3.650092289687804081e-01 3.719153072140978221e-05 2.951205006228215452e-05 -3.338398868206222114e-01
4.663473319409273954e-02 1.332712956712973351e-01 3.650633465657947552e-01 3.765045598268641725e-04 3.228524719439123135e-05 -3.291677678218883352e-01
-6.944268641495357497e-02 1.650530060436925794e-01 3.649967771983006481e-01 -2.430303750737007856e-04 -1.444047991949579828e-04 -4.147961519553389209e-01
-7.603700754682408969e-02 2.126003579811324151e-01 3.649424556290050692e-01 1.236954750070443055e-04 -7.620605185352307093e-05 -3.072607578820792940e-01
-8.802576767887093645e-02 1.994893686678622380e-01 3.650512546334052089e-01 1.345008674300033854e-04 -9.188219638825565925e-05 -2.453576728733912748e-01
-1.201067458886121986e-01 1.901252418947980138e-01 3.650401766002142612e-01 1.418644412992073366e-04 2.405240618575279598e-04 -3.054494565681642460e-01
-1.398305234572995159e-01 1.340104981002973039e-01 3.649927131027153049e-01 5.734396573681005020e-05 1.152807701606722233e-04 -2.325115998840554532e-01
-1.815193299401561267e-01 1.616514886467232126e-01 3.650046221384868339e-01 2.947225777461926041e-04 9.046738586506743694e-05 -1.218150607063031576e-01
-1.622348791080331920e-01 1.055762455449816700e-01 3.649967691191698949e-01 1.547890383273702877e-04 1.195461842958958968e-04 -1.063412206555317818e-01
-1.506325197861138887e-01 6.134284068002172213e-02 3.649816492678815139e-01 -2.862547610539820694e-05 -1.823361858264106663e-04 -4.363638040613398300e-02
-1.092668257429721401e-01 1.398526797275708167e-01 3.650050406001471570e-01 3.055648141450994446e-05 2.156112458946768528e-05 1.118166182338729692e-01
-9.984375713048369849e-02 1.170839783578605797e-01 3.650554260758503977e-01 -1.388700732306761755e-05 -1.338684115611662908e-04 3.854837080138250049e-02
-1.116147341996225617e-01 1.243311224735517556e-01 3.650300858536807969e-01 1.198684842904771986e-04 7.741678255104074441e-06 7.184077146223945276e-02
-1.251447072917766246e-01 1.290846906664977201e-01 3.650035276489016489e-01 2.658118657769507147e-05 -1.556952520916656500e-04 1.610135366016288497e-02
-1.013586140670597324e-01 1.251885078558761522e-01 3.649715806283284070e-01 7.806030329361288882e-05 1.535999870491847681e-04 1.418941535911772550e-02
-1.168277696735983973e-01 9.347443110983590098e-02 3.650365907870911641e-01 5.407380108064881223e-05 -5.996495829759839656e-05 1.832830389093096368e-01
-9.498133584615869873e-02 1.064757599050265152e-01 3.649557003522083676e-01 9.406948250109055149e-05 4.385351922762697368e-05 -5.275483864785419225e-02
-9.771844519658817729e-02 1.089080978127599936e-01 3.649964365994321502e-01 -4.020771051686555016e-04 5.736990562047016972e-04 1.478149213933934725e-01
-9.965848200897141351e-02 9.923486791685637298e-02 3.650345887554140578e-01 -4.663341940575833140e-05 3.154482688443032031e-05 1.432549642039496751e-01
-1.334732537147291787e-01 5.936627155424361452e-02 3.650534470975723700e-01 2.687082402602115633e-04 -6.315968095556876794e-04 2.104083117552874721e-02
-1.043713793136597789e-01 6.130257343079779930e-02 3.649724886568173066e-01 1.059431429659405983e-04 1.278066780753455496e-04 1.948601378807497675e-02
-9.364261909937000861e-02 5.368688582890182581e-02 3.649782515770955693e-01 -1.018555990850450064e-04 1.237993637582406362e-04 1.011135363874372944e-01
-1.963439748024269418e-02 5.910636393746813988e-02 3.649116694986140885e-01 1.224045430436111390e-04 6.927935908702669184e-04 1.660497512381133300e-01
-4.513312181979974719e-02 4.800133444367638696e-02 3.650510853461123029e-01 -3.555974773465866599e-04 -7.235103038946410223e-04 2.209068719444597650e-01
-3.425864917311525343e-02 5.925919400696118278e-02 3.650755129143598010e-01 -2.439824906551400622e-04 -4.316704729537055966e-04 1.127136484028945368e-01
-4.806251015489730605e-02 3.362639762704023455e-02 3.649573165341319370e-01 3.238829600237767294e-04 4.807512979562285024e-04 1.013306806398002746e-01
-5.323515308755510933e-02 6.654558548499568682e-02 3.649752391693120712e-01 1.123926390990866853e-04 9.226072272691432678e-04 -5.603677626261645978e-02
4.018672666770421731e-02 4.225640985309283421e-02 3.649451658749706118e-01 -1.017759997471759349e-04 3.177822916386383294e-04 -1.229552320889026745e-01
4.076622427230602690e-03 3.248761603325386188e-02 3.649517033084866968e-01 2.061371361444357944e-04 -6.294271338937197093e-05 -4.903083724516897612e-02
2.002036157959343615e-02 2.971911473197225498e-02 3.650330308455771444e-01 1.511543539739013207e-04 1.358519480262872854e-04 -5.505517266316604930e-02
2.194924843015294211e-02 4.085810808204493050e-02 3.649853697954343890e-01 -1.138353151286181840e-04 -1.381958657877700367e-04 -1.189367056478197043e-01
-9.309335198920652699e-04 3.595266669047797372e-03 3.650217881527927366e-01 4.426876836474152611e-05 4.198494221517199646e-05 1.306600677600251725e-01
-8.150547863270947435e-02 -2.689894818590707771e-03 3.650052169441776462e-01 -8.932844715077725717e-05 -3.424084445325381587e-04 2.114101369305291245e-01
-4.951285070017886342e-02 5.824101360087207378e-03 3.649900944560497962e-01 -4.776098794530917591e-05 -1.351648007339208287e-04 1.925112418048214868e-01
-3.812056289431249578e-02 4.641734735734874551e-02 3.649834920895720369e-01 4.008399922300098138e-05 -8.761951197214117081e-05 6.917093618978950587e-02
-5.938922617999740222e-02 4.912498085599686232e-02 3.649832742909454031e-01 1.125625632320807637e-04 1.792107229741510461e-04 1.617884046574133081e-02
-6.445178532584604214e-02 -1.660845700448368781e-02 3.650420789883172534e-01 -3.048811237176162538e-05 2.793595682957893535e-04 -4.016865367777581325e-02
-1.073308444296135894e-01 2.926464101290458114e-02 3.649356625995932024e-01 -1.297832282500698735e-04 5.462166889633901122e-04 -2.052566109366333880e-01
-6.482160133283303149e-02 1.407038153752227481e-02 3.650129729377489807e-01 8.824011104498555302e-05 8.713063575827512737e-05 -9.399439854418796536e-02
-2.314889222652036574e-02 1.405448199633776291e-02 3.649290294361564602e-01 1.927868896202307198e-04 1.691091507626706005e-04 1.049969010537138148e-01
-1.849412394842467680e-02 1.082197607544243927e-02 3.649596687699532271e-01 1.019723470636916342e-04 3.789169245623837676e-04 9.559951941549521548e-02
1.215291339514860437e-02 4.368542706356116218e-02 3.649418902519907526e-01 -3.629582888987033983e-05 1.723656464438608508e-04 4.733942555525957885e-02
1.148722763994713611e-02 2.162216798699969147e-02 3.650565493948382256e-01 -9.096701272587376559e-05 -3.909523576938338420e-05 -7.540473034099737237e-02
3.722687820767721367e-02 3.765337093225772785e-02 3.649845733594432873e-01 -1.555752221255539804e-04 -5.219997224564124034e-05 3.338507837995467048e-02
3.996395140003833335e-02 5.976188797029177019e-02 3.649913519705172971e-01 -7.055407262851991343e-05 -6.047422841675900170e-05 2.727868241931853399e-01
-5.186865475240463007e-03 2.758128359688707953e-02 3.649822737171728448e-01 6.214712783884215950e-05 8.838817947367638012e-05 2.182180365156589918e-01
1.249930894664838012e-02 2.875410413379582419e-02 3.650189865903388786e-01 1.784001994247951340e-06 -2.708248152098174781e-04 1.595572950697490833e-01
-4.025538759969601518e-03 5.530950193360308770e-02 3.650013162363843211e-01 -5.729864772283907491e-05 -1.102851044287494532e-04 1.269555305048261917e-01
-7.318324745863207317e-04 4.867742898990871231e-02 3.650273642825392351e-01 3.669608197139665281e-05 -2.702547149988608361e-05 8.264225039003647577e-02
1.013252173334895818e-02 8.160266368687510430e-02 3.650532759413784301e-01 -7.834145068322207958e-05 -2.186661205906762894e-04 1.535284196794383348e-02
-1.366205408688776768e-02 5.271118983456135609e-02 3.650328712984809432e-01 -1.261084520091899103e-05 6.035646422148354258e-05 1.442823129249116154e-01
-5.761815095059243108e-02 6.477000659559360718e-02 3.649259639934082089e-01 1.065184317981121982e-04 1.438891841532688779e-04 2.115507152012074347e-03
-5.457873662014346011e-02 9.224776829460062944e-02 3.649667494127257772e-01 1.591671819353907870e-04 1.066994444654609394e-04 -1.061479031023817576e-01
-4.017140416028718020e-02 7.672144402732512802e-02 3.650269485667319014e-01 -1.150373919577181098e-05 -1.862073065688894975e-04 -1.721057880142682628e-01
-6.029776203232473097e-02 7.534029971875402798e-02 3.650331339457928426e-01 -9.150428581541279706e-05 -1.740486284688573298e-04 -6.699078756300951010e-02
-4.884851357503157410e-02 2.557577306472229653e-02 3.648426579360996569e-01 3.110442046264944721e-04 7.149206674971520263e-04 -1.187507186780533824e-01
-4.791068637937097308e-02 5.165810219639904201e-03 3.649380788121856511e-01 -7.508863894566243462e-05 2.488652273690858765e-04 -8.895733959030895088e-02
-2.118752223036093549e-02 -9.182629418854837411e-03 3.650404222765880613e-01 -2.085025446554190497e-04 -1.108758896493327434e-04 -1.020798616942773795e-01
-2.463739015116607825e-02 3.590948425889017859e-02 3.650951474799120078e-01 -9.807523765909234212e-05 -9.019880734347955143e-04 9.206581508687107507e-02
-3.223906627245818474e-02 6.225227624231832041e-02 3.650958379119580988e-01 -1.435202883987593905e-04 -1.010735002419111588e-03 9.540499173395880494e-02
-9.165296458039340344e-02 4.406744405232508599e-02 3.650113905427499472e-01 6.682618524601534554e-05 -6.044153508176097365e-04 1.601697997929755202e-01
-5.424772931533006909e-02 8.309948581517186128e-02 3.649250271522418432e-01 3.322805682949424191e-04 2.294622071659608924e-04 -1.371011566551959548e-01
-1.022809286672989593e-01 8.444496299871573353e-02 3.651564955467485052e-01 -1.104604602319855339e-05 -6.977472199294858365e-04 -1.073101776468284724e-01
-1.290396907176454000e-01 7.549002509724957177e-02 3.650938231307200854e-01 -4.893951645156252974e-04 -8.367952690780263401e-04 -1.282885825158557869e-01
-1.312251720654198373e-01 9.831390160757103036e-02 3.650562775159897910e-01 -1.635746243284064811e-04 -3.854761581257962910e-05 -1.855077791075764315e-01
-1.087935039293386752e-01 1.063259946662963307e-01 3.650333192970429685e-01 -1.470650703828454552e-04 -9.229511822149701430e-05 -2.851796589891050782e-01
-1.141189998365230857e-01 1.013202139222373205e-01 3.650101289442500563e-01 3.149884172494710720e-04 2.537580272659807927e-04 -1.263402840294068075e-01
-8.968058513128719655e-02 8.823012679790399881e-02 3.650427034200047771e-01 1.968546785426349447e-04 3.976392628040653263e-04 -8.673179935214173075e-02
-6.271064112802383905e-02 1.071958548019768670e-01 3.649361475575330083e-01 1.221469321046192978e-04 4.659410703088548515e-05 -7.607293907486722961e-02
-9.283139626990367932e-02 1.005229905571892596e-01 3.650243272487890822e-01 1.196364886381667530e-06 -6.142822909857655782e-05 -1.604677143415501328e-01
-6.503418535271174306e-02 9.251873563960813507e-02 3.649377337321345061e-01 2.243894196243211806e-04 1.320906687010742675e-04 -4.230862103345903180e-02
-9.877612824044640361e-02 6.671911788057738324e-02 3.650366159847977521e-01 -9.051689749016356612e-05 -2.668238886456165480e-05 -7.547513404516485724e-02
-5.435446986556221292e-03 5.921082460480346643e-02 3.649428694214721380e-01 1.579044381152668280e-05 1.547795608638082672e-04 -9.715017584846374898e-02
1.701509918551145223e-02 8.414398998418018416e-02 3.649422652755256458e-01 1.176786005760758981e-04 4.307506010956240481e-04 3.440359649903945022e-02
-5.021849115463369179e-02 6.654103587653321938e-02 3.649582664269648280e-01 7.428758531520323564e-05 2.015751552253296133e-04 4.154582237556829483e-02
-2.726908084480072353e-02 9.553317559463708752e-02 3.650219307439904193e-01 -3.935668387423363222e-06 -5.539442995008998777e-05 2.978162500702622503e-03
-7.678897855539247586e-03 9.393667736448393923e-02 3.650024530331807404e-01 -9.271471924769186183e-05 4.142284596151941354e-05 -2.025802536341088367e-01
2.686183701314582076e-02 6.401219885518416586e-02 3.649632271806813044e-01 1.973461335432171923e-04 1.315372989890962151e-04 -5.842388685144711546e-02
-5.818201799264413610e-03 7.759744748992328245e-02 3.649827116476808131e-01 -4.296854604264948397e-05 -8.382699553978413456e-06 1.520800590783743210e-04
-1.026365327579529564e-02 1.044576521528940982e-01 3.649655434448053626e-01 -1.366587246671094194e-04 -5.199226219210369409e-04 -1.179840300288305527e-01
-3.531442508387875180e-04 1.044053759801285286e-01 3.650171851142750556e-01 -3.392689966451390167e-06 -8.256550149669056261e-06 -9.738290934864640702e-02
-1.215636735106810249e-03 1.411369914346355114e-01 3.650147939108254191e-01 -5.544232926470126079e-05 1.884031521918490401e-05 -1.483849213767019504e-01
1.353924628098593722e-02 1.026429939987901913e-01 3.650240867020536628e-01 9.478304789325709941e-05 -8.189290720832115571e-05 -1.141541601626812896e-01
-2.309140361725272803e-02 6.846949742863704669e-02 3.649556646402984939e-01 7.515637967407295310e-05 -1.357614393186615308e-04 -1.277285387626686530e-01
-2.928002875601610003e-02 4.861798655087726240e-02 3.649912826994045068e-01 1.757219048192551453e-05 -1.891888269209815508e-04 -8.705043241876565807e-02
-2.956433220408808890e-02 4.493987526152876805e-02 3.650137881964428122e-01 1.823302938889332877e-04 6.369682637286853922e-05 -6.880825906491468136e-02
-7.559525877685867312e-02 3.688424789597034154e-02 3.649561032387750314e-01 -2.053631239794765251e-04 -7.021162044069873193e-05 -4.474777814560983863e-02
-5.235105880431593917e-02 2.626305842222187784e-02 3.650094334979177013e-01 1.289959260684556922e-04 3.526448631209387282e-05 4.519007462629710120e-02
-2.739529156519613165e-02 2.218483316938424030e-02 3.650125240882000632e-01 5.217085101861822954e-05 -8.268582624423753713e-05 3.415913253536172201e-02
-3.168914715042154412e-02 3.517844200487189876e-02 3.649613318462987532e-01 5.404875651918060806e-05 4.489328886343548934e-05 2.872011133098219954e-02
-3.477571597094699513e-02 6.848896042303571907e-02 3.649779987156532846e-01 7.011714152686205422e-05 2.242199673703873495e-05 -1.305056335561016745e-01
-3.310409133209402111e-02 8.791524810767910314e-02 3.650075369448408380e-01 -3.185765051221976438e-05 1.152396868978146279e-04 -1.663929049388758186e-01
-4.383161443246443023e-02 5.244418427755133394e-02 3.649487277207941194e-01 5.268168923050856202e-05 -3.649757810490387804e-04 -1.342563703644800710e-01
-4.029894791651601749e-02 9.426402793571041216e-02 3.650056672776498257e-01 -8.583873413046529490e-05 2.138793678254997574e-04 -7.826329002637075205e-02
-3.991707109294219402e-02 7.085898432853078577e-02 3.649807168263985990e-01 7.363795399726596352e-05 1.647506142258069010e-04 -4.325853351234110189e-02
-5.176157609235564061e-02 1.056319999936406601e-01 3.649895546437024185e-01 -2.165753732442314466e-05 3.781000685764905709e-05 -1.154801463979246955e-02
-1.344644855885112136e-02 6.576154174213005854e-02 3.649852890700667207e-01 -1.423117180692199161e-04 7.426549060524785496e-05 8.006979029760356859e-02
-2.877652331785018913e-04 8.634916021232849626e-02 3.649553321769856140e-01 -5.290020822403436056e-05 3.575745635953262130e-04 6.083580709419065397e-02
-1.057941338239667961e-02 4.228854331320752030e-02 3.649533937808888684e-01 2.889690186128396538e-04 3.641101648263685457e-04 1.728536066203569810e-01
-1.073095452442301631e-02 5.155427577385491428e-02 3.650365670774584070e-01 -2.078394852833672290e-04 4.442582848913776339e-05 2.257855445086525970e-01
1.747806038245024521e-02 3.720794494338724306e-02 3.650156452741935564e-01 -1.218934758123287396e-04 -3.935704037344279165e-05 2.261107339315626408e-01
