-1.887248447348096603e-01 -3.194078995841405366e-05 1.396620098466178073e-02 -1.527113767362696939e-01 2.182827924436778200e-01 5.791588537497065897e-02
-1.714793249008448595e-01 -4.560293228936321275e-04 2.681037522728590972e-02 -2.025889250788459051e-01 3.213066535397554047e-01 4.411398143075688505e-02
-1.536692922136828066e-01 -5.646404231806886886e-03 8.702934562439312849e-03 -1.066367164579492821e-01 3.901267406623758482e-01 5.369000464403167472e-02
-1.407289791198237938e-01 -6.900683798462781474e-03 -1.221342363915700613e-02 -3.025005657736575329e-02 3.781053798844721259e-01 4.325309035972152438e-02
-1.225493348906910029e-01 -5.449569043231943660e-03 -5.520863256033459177e-03 -7.431742289254654465e-02 3.300917074850078237e-01 4.730847190555928505e-02
-1.032037916977302794e-01 -5.115084888905305910e-03 -8.857238975368386669e-03 -1.791550429284713142e-01 2.773407460858934859e-01 4.091597752857520365e-02
-8.685812134471465606e-02 -3.089434853223407135e-03 -9.322728163804250290e-03 -2.318246826869478361e-01 1.922498410455444340e-01 3.646204368550137742e-02
-6.987662007353331872e-02 -7.582614678527608773e-03 -6.812791070088031198e-03 -9.337667146406260221e-02 1.221748926880855401e-01 3.925235535290242522e-02
-5.196999629133318421e-02 -8.130333189194918417e-03 -7.913831640242119381e-03 8.067127563465903428e-02 7.277789893179256731e-02 3.725079079926830322e-02
-3.105091486432017336e-02 -1.043570022626951789e-02 -2.123286720268391381e-02 2.681325225237032872e-01 6.088459633968817258e-02 4.155198651774405505e-02
-1.642649957266738292e-02 -1.273819398217481726e-02 -3.714910528372428189e-02 4.438574039941575178e-01 -2.862143606750804370e-01 4.313684264021933751e-02
3.338227865588627719e-03 -7.712919770438461664e-03 -1.741687489229587493e-02 3.667812050573863170e-01 -1.226014374281599456e-01 3.381397099874374618e-02
2.571640510167828853e-02 -5.019826103745869336e-03 -3.788012488644015852e-02 1.588339312844062046e-01 -6.308248945365038662e-02 4.109753249526650054e-02
4.714966945451275204e-02 -9.276712157646476928e-03 -5.169519554033563669e-02 3.765793480249296629e-04 -1.207988443674260226e-01 3.066458086524414053e-02
5.616327326294169586e-02 -1.192641234009870002e-03 -5.613004217466482926e-02 1.056945558911120790e-02 -9.079519549366239783e-02 2.489023348165908534e-02
6.977465304726976347e-02 -5.636848750236195943e-03 -4.219034992010262108e-02 1.110103238054386821e-01 -5.697420065164460895e-02 3.751774136090189893e-02
9.039489757029126049e-02 -3.766297472412480710e-03 -3.961742040783633456e-02 1.417155829241213139e-01 -1.000015235593032167e-02 4.373329256466759740e-02
1.062335884386320789e-01 4.560017928723208991e-03 -4.586675084887414933e-02 1.166043123834992340e-01 6.866541111078452303e-03 4.137337578273403427e-02
1.253107394374895212e-01 7.201101075505578035e-03 -6.654778888028339834e-02 5.791084455797683439e-02 2.077105193437044084e-02 2.691663619077737379e-02
-2.511513127651217037e-01 -1.969714899305394923e-04 4.446281299341076076e-02 2.606543693005731327e-02 -3.797651655241995883e-01 3.333381006609961728e-02
-2.260735113280751829e-01 1.214004252855262200e-04 4.427701644675574588e-02 -1.641708194707230256e-02 -2.870810740068122091e-01 4.410012522131365881e-02
-2.137219645508755816e-01 1.930129975475111323e-03 3.227355635310269477e-02 4.468933173385808769e-03 -2.681011276798694332e-01 4.006505170460340770e-02
-1.947654266516946064e-01 2.703954436898291583e-03 -2.558446134414021911e-02 1.072047164449365098e-01 -2.912982705308468923e-01 4.356800181008589623e-02
-1.729651326386645316e-01 -2.216071846349761121e-03 1.197689752476416292e-03 2.394064314446515684e-01 -2.938898855657151032e-01 4.989877390208313085e-02
-1.608738387187447494e-01 -4.056725439406780667e-03 1.047015830098924072e-02 3.942209645001328727e-02 6.749906674800822820e-03 4.244146582027976539e-02
-1.330833944501590704e-01 -4.196395509552572345e-03 2.201876905721322775e-02 -2.820116614855003867e-01 1.110107522822072618e-01 4.431316501206725156e-02
-1.178101422344238342e-01 1.368922060095331336e-03 4.568848028031269326e-02 -2.919405570280684259e-01 4.778635205136363279e-02 3.390438348402897983e-02
-1.020304654636676189e-01 -1.283913857048228635e-03 2.285716520736652546e-02 -1.442638239788274386e-02 7.177132480272471748e-02 3.891777677743637337e-02
-8.733146876766016697e-02 2.947042245346667005e-03 1.167166855699741657e-02 1.284489869773280390e-01 9.883495003812230173e-02 3.870480929474653248e-02
-7.268696212081762753e-02 4.775022464059841196e-03 5.365473611809667975e-03 5.495480499940393060e-02 -1.041405544888670230e-02 3.465874748055725735e-02
-5.120449371098952096e-02 4.262776528405235604e-03 1.311812674741841267e-03 -1.107776538211148465e-01 -1.242854501619946178e-01 3.106917754635580772e-02
-3.398908443716977534e-02 3.161930501254468784e-03 6.618297366045022834e-04 -1.717990639024688793e-01 -1.846205952723344312e-01 2.789477170186542912e-02
-1.367080262853852778e-02 7.926518959505284706e-03 2.176300924204843668e-03 -1.194325565461507310e-01 -1.787758039923043885e-01 2.590990984903505934e-02
3.570458739677023069e-03 7.389588110962371989e-03 -5.141291945115422646e-03 -7.955049331382213484e-02 -1.022000698935146279e-01 2.219302174390507323e-02
3.311396205118057740e-02 4.143940966449665558e-03 -1.400941713951125989e-02 -1.098520392597265444e-01 -9.939226809567994897e-03 2.449713804499233788e-02
4.359288866370507332e-02 3.463881828639957250e-03 -2.277827466461002093e-02 -2.079721346608769950e-01 3.734652916635662623e-02 7.538718550903451138e-03
6.183962980166324286e-02 8.821853597117106788e-04 -3.163560790707975467e-02 -1.962189944238455219e-01 6.643392146395865616e-02 -1.716913129635448242e-03
8.320791009195650789e-02 3.103680488445278302e-03 -3.553141659807412811e-02 -1.531165308139215975e-01 9.825178790807159723e-02 -6.944897608379537943e-03
1.043211259829478488e-01 5.248521643432930983e-03 -3.668637161000676272e-02 -1.511329433029285352e-01 1.500520916657217818e-01 -1.307488454622788600e-02
1.226748216714135808e-01 -5.550102339650204997e-03 -3.004719710595060711e-02 -1.307374851675531247e-01 1.239936275783102559e-01 6.748690221084374663e-03
-2.419963731223877534e-01 6.043355819949572036e-03 3.337599291135812107e-02 -1.186609622768447503e-01 1.038856912503481333e-01 4.748695657040771095e-02
-2.291073590558298789e-01 -2.517893924615498963e-04 1.318680101347269318e-02 -7.112342085451348050e-02 1.810193024321138933e-01 4.004417695546384770e-02
-2.063168404038631110e-01 8.978217881069030376e-03 2.302208809034067549e-02 -1.794118954452588177e-01 1.741594179689922861e-01 4.465256517645327383e-02
-1.905939474222387575e-01 4.071053604540396734e-03 2.420697974643448713e-02 -2.717431423450958339e-01 2.135560956886373984e-01 3.079615199786152335e-02
-1.717900970627555812e-01 6.460597644015875565e-03 2.519474529753951142e-02 -2.564540708890917231e-01 2.195224604239583155e-01 4.362902780439993633e-02
-1.523978918714853914e-01 7.654763301061775528e-03 8.595799446870722171e-03 -1.702914638447313722e-01 3.667824529461840566e-01 4.177986395494369398e-02
-1.355556749215655332e-01 8.371532048109567650e-03 -9.552901520540280078e-03 5.710498557523781098e-03 2.693231132761551017e-01 5.185392153192620174e-02
-1.148200030713811964e-01 1.314817700759480547e-02 1.146644199628493732e-02 1.146374649401027401e-01 1.891996985392846997e-01 5.129519500418761035e-02
-9.169474029005919569e-02 5.552720751561076099e-03 -2.363124718834280769e-02 3.056060509103170411e-02 3.064112822190966368e-01 5.877410987616797644e-02
-7.227398241862792450e-02 3.030678513232366519e-03 -7.084684430405163713e-03 -6.803581009372586252e-02 3.089375452827451407e-01 5.157712172630223024e-02
-5.622789896541049298e-02 1.920670914501553667e-03 -1.083533490973209723e-02 -2.374614040496835637e-02 2.216066086659010115e-01 5.188924278632103121e-02
-4.225308958940091064e-02 4.669315889127192282e-04 -8.782487098407287807e-03 1.653661495136486415e-01 1.980942281765463997e-01 5.462386337595375591e-02
-1.859695754661779346e-02 1.838214284110857577e-03 -1.388473350939595230e-02 2.837366999851401173e-01 3.518929816971185787e-01 6.484687163804198073e-02
-1.094229210853892194e-02 2.200957868515708918e-03 -1.243508542547555606e-02 3.553256753927659939e-01 2.979434578360787289e-01 6.240058659915052874e-02
1.464445965131099675e-02 -3.819391058394844621e-03 -9.770347376240329229e-03 3.555425051912756707e-01 2.771126558176074117e-01 5.809688951680337665e-02
3.571396550690593419e-02 4.846002372602894147e-03 -1.866922560970785128e-02 2.416619495429093156e-01 2.821871992016343200e-01 5.022731180562111514e-02
5.357864890695253346e-02 6.658105051300538570e-03 -3.797145538657226149e-02 1.383041823674365789e-01 2.427104622895083219e-01 5.714755829328097003e-02
6.934996916716786031e-02 2.641750060338621253e-03 -5.173380357384621542e-02 1.566352301777222955e-01 9.976757684896535305e-02 5.384911335086530609e-02
8.992336648703032342e-02 8.388900103831092511e-03 -2.876902077548498804e-02 2.054033392004234460e-01 9.154112218131710277e-02 5.253053969817957775e-02
1.039837013220239609e-01 7.884457244541454024e-03 -4.461001736860142897e-02 2.037502702667891297e-01 5.017473440888530617e-02 5.795596077534546919e-02
1.208232205744130955e-01 8.441237483448006326e-03 -5.223753258642316322e-02 1.768024452713353734e-01 9.276470889888216052e-04 5.679725525316282886e-02
-2.495805942487769602e-01 1.415208290865878522e-02 2.362538322509794009e-02 9.856616877588542103e-02 2.962420333079264778e-01 2.601366890952763744e-02
-2.321841902326552964e-01 1.282460212046479184e-02 3.175020375344034251e-02 2.161137670820481929e-02 2.790484635572622607e-01 3.133635384534976670e-02
-2.101248276085953826e-01 1.538676900770775957e-02 2.893677378732595340e-02 -1.513207465693215854e-02 3.038397155286404194e-01 2.610813928195857350e-02
-1.908656480557404944e-01 1.162613847072013068e-03 3.238251824362858855e-02 -2.672563735139188087e-02 2.242621785700234793e-01 1.883360537810669852e-02
-1.679648879333188183e-01 -4.984311795653529123e-03 2.772154410084987086e-02 5.985178372650155898e-02 9.961180352013111750e-02 2.700735548020700635e-02
-1.559177078707085218e-01 -1.712869988562756504e-03 2.279661597888860136e-02 5.349122877308271073e-02 1.567141795675472404e-02 2.477988110638964722e-02
-1.386091150367048386e-01 -6.086768362466937754e-03 2.447966560287040405e-02 -9.978868553196690305e-02 2.747719486319461293e-02 2.108332893588082957e-02
-1.219507656629364722e-01 -5.523915451434924934e-03 2.479214397792739444e-02 -2.481446119547761620e-01 1.032709237149070786e-01 1.828383021259068902e-02
-1.002264510882300563e-01 -2.235125678983493694e-03 2.572813317308764169e-02 -2.590684164090840680e-01 1.520785438552502700e-01 1.900013109930235450e-02
-8.917970920853998673e-02 -5.163911844295543396e-03 2.167316498591925766e-02 -1.336116060351252854e-01 2.359086397868712104e-01 1.939095104386798218e-02
-6.565371032283713604e-02 6.719570117006516685e-04 3.023577027977214504e-02 7.539462166942480226e-02 2.485157810720008131e-01 2.068026661009062656e-02
-5.344977745706624289e-02 -4.182063838754992297e-03 2.951006719860854721e-02 2.773760047974107024e-01 3.126188852522497896e-01 2.911232150878772032e-02
-3.732855408029289723e-02 -7.900406793209560977e-03 1.387760897106704583e-02 3.636576345410623690e-01 3.842604063841255080e-01 3.198503448544519345e-02
-2.099148408342573977e-02 -9.539784682637726665e-04 1.140643993845980031e-02 1.524411528331369725e-01 4.671316233766413806e-01 3.766026703664640540e-02
8.579916021793802805e-03 -5.356185242339260924e-03 -3.937129664813521224e-02 -3.683027270835055877e-01 5.769845457856893622e-01 1.870679347538461296e-02
3.438924303464320487e-02 -2.379658044418475615e-03 -5.997902009944738877e-02 -5.971469627467497210e-01 6.368946965146325967e-01 1.403242792874476695e-02
5.469596881159019541e-02 1.001911708730767944e-03 -5.211408387339616644e-02 -3.993262180354118507e-01 6.924220046654776528e-01 2.525313167091661898e-02
6.982095664514230415e-02 -4.918596521604154739e-03 -7.537025342321479471e-03 -1.025702231482373411e-02 7.084645362828049242e-01 3.053214677804983596e-02
7.659400295006346671e-02 -2.236810451453427259e-03 -6.391405833108265711e-03 5.525128062243180038e-02 7.062182145496734842e-01 4.264605136361029197e-02
9.734970704174504552e-02 -7.051931002152123096e-03 -2.118964708962084442e-02 -7.086098523696206242e-02 5.856395751293378416e-01 3.297534605711850697e-02
1.024891874940848241e-01 -8.450340415333504329e-03 -3.805145923219799275e-02 -1.384441259888128106e-01 3.708407817740005386e-01 5.349865266189557378e-02
-2.573173650110834321e-01 -5.672060062766656058e-03 -1.079239071478671486e-02 -3.747799257659736871e-01 3.566028490928309092e-01 2.018613149015242511e-02
-2.415218205003679119e-01 5.169210702896467197e-03 4.050521221483471823e-03 -4.495476987654304923e-01 4.786895245159336620e-01 3.765973897084844840e-02
-2.158302162991406759e-01 -8.387651363719685754e-03 5.039928562028461734e-02 -7.147181330647675024e-01 5.149306117001627436e-01 2.088552050471314050e-02
-1.991955386386152771e-01 -8.413903942530807228e-03 9.066131656300485675e-02 -9.049751065556533858e-01 4.508358765182229888e-01 9.842684324997682394e-03
-1.908117338452267886e-01 -1.977227696176690752e-04 9.648367909878086124e-02 -7.367784807733009922e-01 3.688658006062083272e-01 1.899396976648643279e-02
-1.722969502651021667e-01 -6.271322273340616815e-03 3.330602500456120163e-02 -3.533193140189689885e-01 1.054934161158665173e-01 2.143457340470543426e-02
-1.524235594301904251e-01 -7.209990847752220308e-03 3.005107984857036119e-03 -7.350938114200997187e-02 1.712172168580056511e-02 1.807958183536000768e-02
-1.354349325269553206e-01 -1.026237975957797199e-02 2.693051053652717464e-02 -9.450499207249106470e-02 4.678171724085851239e-03 6.237753087912981977e-03
-1.190690341038011801e-01 -7.889219860461744657e-03 1.658994634021909720e-02 -1.840960028843893204e-01 -1.058481004664812292e-01 -1.119740394591012137e-03
-9.691305716989932761e-02 -7.897078509522096473e-03 1.720229074191020890e-02 -2.071467527984647838e-01 -1.931448569564594153e-01 8.941955221503221710e-03
-7.914278746314329371e-02 -8.657631677049672236e-03 1.242059292695979478e-02 -1.509373106084369309e-01 -2.478951783184614455e-01 8.663000483311186772e-03
-6.499539171533176563e-02 -1.259067794774039115e-03 4.999286752643050669e-03 -1.604353622303080762e-01 -1.086338642675673399e-01 9.395237328840087832e-03
-5.265159029066583674e-02 -9.596932373866181795e-03 4.116799101413604056e-03 -2.810127233832820925e-01 -1.861122715517164183e-01 7.469981255490408013e-04
-3.792035031980817844e-02 -1.278867397423858951e-02 1.200889351286038575e-03 -4.026482923553783011e-01 -2.048625414519431587e-01 -1.019469868527538015e-02
-1.338561257454010112e-02 -1.113104228928472016e-02 3.814817622128097163e-03 -3.555976038527459693e-01 -2.394902721863955697e-01 -6.452168555917989906e-03
-1.013261123694016858e-02 -7.160779014061868786e-03 1.298678943726361279e-02 -2.063955734169030110e-01 -2.329567131746673458e-01 -1.219814530471673153e-02
8.316327469394476507e-03 -3.567499488652453588e-03 1.369761766305077622e-02 -1.660887276779850485e-01 -3.118898038479002155e-01 1.821958452635208392e-02
2.585636639591199978e-02 -1.892662985389932662e-03 -7.518392498172432603e-03 -2.957748028863244616e-01 -3.595232065954079292e-01 8.551867875169295863e-03
3.915603684588392364e-02 -1.019366386640036676e-03 -2.658763618643428250e-02 -4.270102133639615549e-01 -3.829465092107438573e-01 -4.557212189259554798e-03
6.284941264510485182e-02 -1.106904609238145917e-02 -3.352214830634436815e-02 -4.908802787625897168e-01 -4.055999236354128623e-01 -8.150546399640202708e-03
7.377573359317005086e-02 -3.839066740681729845e-03 -2.832489027291396066e-02 -4.194683690983870283e-01 -3.177004968376281879e-01 1.094653180749071211e-02
1.035645698575208551e-01 -7.885197064818934981e-03 8.872354331021292673e-03 -1.653863237855835167e-01 -3.062640900824717405e-01 -5.976459161840069062e-03
-2.330813203396583100e-01 1.007627021924098649e-02 5.843369488510830045e-03 3.104995896918232856e-01 -6.476780658875640473e-01 8.858984055082218256e-02
-2.310069622283281998e-01 4.333080072223410850e-04 -2.766031047058126191e-02 3.897419920304092678e-01 -4.878178952568618665e-01 8.247214444306132097e-02
-2.136898883519624814e-01 -3.838306613184083033e-03 1.026567868029371056e-02 1.759118945921505639e-01 -4.489313165074746426e-01 5.670624867602114955e-02
-2.099281859724834720e-01 -8.012156738451858135e-03 3.175985180138873876e-02 -1.847659441088721211e-02 -5.805266975583328604e-01 4.584654825288143887e-02
-1.924491057916351555e-01 2.417772151634025105e-03 5.637185486006718316e-02 -9.813997842045060760e-02 -4.529622086923105195e-01 4.496986053100403280e-02
-1.750486282200589550e-01 -5.836675473308534229e-03 2.496041899160128530e-02 2.300097695625288874e-02 -4.176737485626854651e-01 3.490759213163195651e-02
-1.574309931568820820e-01 -1.776526387372415888e-03 2.405362614941730648e-02 1.884177763570579478e-01 -3.289869566914098709e-01 4.020020845932281706e-02
-1.375325779753339139e-01 4.951568811601900211e-05 2.143197795799434147e-02 4.132127132009266179e-01 -1.182945519360880104e-01 3.314360999859505136e-02
-1.211374758181029687e-01 -2.980093996919664506e-03 2.843206008408816210e-02 4.749289290967798061e-01 -6.937984513276926335e-02 2.898494792324629934e-02
-1.041948336424657201e-01 2.027367834861102530e-03 -4.410619954273609089e-03 3.696899676089170361e-01 -1.913398232237933927e-01 2.403362854425235284e-02
-8.889333272143992715e-02 8.961548439808779409e-04 2.041125186064934871e-02 7.816864875679019331e-02 -1.813860153936950881e-01 3.384910196241564667e-02
-7.148217067325546292e-02 1.958102703296542291e-03 6.288182981232293134e-03 -2.428249659662068405e-02 -2.621157741384093076e-01 4.126227296397947525e-02
-6.077583064486593439e-02 -1.872395787998424113e-03 2.507027066556999362e-02 1.322368718955795608e-01 -1.749159200419373450e-01 3.727940982845085599e-02
-3.753194785459602195e-02 1.548668014171630455e-03 1.722225942935401433e-02 4.096010099467935484e-01 -2.212699945676355751e-01 2.008721643761733622e-02
-1.848244413269487310e-02 4.322267592481426196e-04 2.684531502905246336e-02 5.081620713884829055e-01 -1.578236211235770903e-01 8.486768656965903990e-03
-1.668632228909765203e-02 -5.141690333281254133e-03 2.191427669360673791e-02 4.955430138779441385e-01 -1.165114620152983144e-01 2.604846042658649427e-02
-2.187363005416269324e-03 -1.550422080633604913e-03 2.232833754771729184e-02 4.199397229160220513e-01 5.252928321135937051e-02 1.518641722372199472e-02
8.728383805547586249e-03 -5.202699187009751300e-03 1.589379638383958682e-02 3.808489052804028829e-01 9.207746022035417921e-02 1.999264817502891672e-02
2.145594961934830722e-02 2.810074974555853630e-03 1.786367625638529688e-02 3.809688201316203671e-01 7.351935035079404379e-02 9.330115313518173165e-03
3.559078807535001610e-02 7.227035561995977242e-03 1.471559762731844412e-02 3.712823974810671168e-01 1.202658572360210953e-01 2.130583522727077725e-02
4.884720103764117471e-02 6.536264299627669860e-03 2.982853898614146182e-02 3.584066447981568149e-01 9.142751697770332142e-02 2.880958855813092745e-02
5.289250835014522312e-02 1.536317934066784574e-03 3.860452390257351762e-02 4.010379622651797371e-01 5.871766528258923201e-02 2.713163159132992233e-02
6.919174521733086058e-02 -1.220827787459979885e-03 3.087340322760268041e-02 3.887144112326822998e-01 -3.595687431944382794e-03 2.931066627814415612e-02
8.012692388138925592e-02 -9.942155347363382245e-04 6.371087272620323816e-02 4.503431180875704376e-01 -7.578893526807917169e-02 1.986234527515099921e-02
9.578597150596504517e-02 6.200590011345812058e-04 8.203265246949625888e-02 6.265790544517759741e-01 -2.508020811447677148e-02 2.610271607090689644e-02
1.062643689142818010e-01 5.972151562752258183e-03 9.693239646213896998e-02 7.911384407470204438e-01 3.228227262144739429e-02 4.190818516829842438e-02
-2.689633603096855397e-01 -2.808711803741707064e-05 -5.581653746146220119e-02 1.152580702021903214e+00 -3.811279821925293576e-01 5.020282172429715167e-02
-2.617619179314896183e-01 -6.421495810509682961e-03 -3.902613295360607415e-02 1.032071157860959820e+00 -4.447454644024927406e-01 5.913613453977997064e-02
-2.535397287485263718e-01 -4.060625107684588675e-03 2.174045938445701154e-02 7.642096945206934278e-01 -5.314133096945209411e-01 4.910986834305791637e-02
-2.356956210032948584e-01 -2.089796283448259323e-03 3.445511964888181566e-02 5.943269717140212682e-01 -4.523094760181939344e-01 5.069607881039968345e-02
-2.307754886151851537e-01 -1.160605200196440472e-02 4.418891804471453133e-02 5.607613248347048662e-01 -3.835417875033242385e-01 5.173322424820498561e-02
-2.249405078200168995e-01 -7.627164865548168374e-03 2.891676978799828657e-02 6.543072317053864051e-01 -3.020560313079898584e-01 4.218903174005998041e-02
-2.211882982569197131e-01 -5.581183599038556584e-03 5.343815986011801744e-03 8.582317940890720198e-01 -3.015295328942405595e-01 4.597637415737984568e-02
-2.110806148823719253e-01 -5.992351940264207567e-03 -1.889549702678910981e-02 1.079689726464420962e+00 -3.728697243663321448e-01 4.965058148465043703e-02
-1.988788603899035168e-01 -9.631351114316358264e-03 -1.637068682984738066e-02 1.106763655036747007e+00 -3.910400927274656491e-01 5.169322080382909163e-02
-1.931651503475380616e-01 -1.063499433523804744e-02 -1.740526281964682731e-02 1.062985606211329204e+00 -2.283819326065801292e-01 4.972398640465434255e-02
-1.858703125950547652e-01 -4.455780235859166730e-03 -9.441755901968829079e-04 9.391050427846034943e-01 -1.087700400214084012e-01 5.936021035307775112e-02
-1.828612793666530012e-01 -1.355125686737039883e-02 3.232589008761499461e-03 8.221131342180618695e-01 -1.763389862331619096e-01 3.633573322155042584e-02
-1.750455866278093353e-01 -1.128328932084775998e-02 1.901639353486156425e-02 7.155224951059075966e-01 -4.188577433469354849e-01 3.911875351462526518e-02
-1.629551277817993249e-01 -8.657833751244582363e-03 1.948575803734514666e-02 6.369645113656661195e-01 -7.644007918118216338e-01 4.689536093264282113e-02
-1.664112630909074242e-01 -7.957120603042445658e-03 1.219992029691452373e-02 7.051649752363898793e-01 -7.572940705120426719e-01 4.435826781575875205e-02
-1.522219658157120126e-01 -1.094106192248364522e-02 1.469023543954062205e-03 8.681177379018075735e-01 -5.355653313109806080e-01 3.821223947267118892e-02
-1.513266112239455008e-01 1.162939942248542198e-03 -6.978777744238551239e-03 9.395512959766306738e-01 -2.090696268341694919e-01 6.167799920855951412e-02
-1.472266173115827914e-01 -8.259462189530763013e-03 -1.995219005963000392e-04 1.020242870755960984e+00 -1.224002751766671837e-01 4.706071654753358341e-02
-1.391598056741100708e-01 -1.447177393568195927e-02 -5.106044519389729697e-03 1.083556511703891223e+00 -2.898057851574083466e-01 4.726516644509190512e-02
-1.419306675158621134e-01 -1.245149803591527951e-02 -8.925970733853261230e-03 1.153312149566266598e+00 -5.705018269997794711e-01 4.422005332476487693e-02
-1.358536927992605448e-01 -1.312301949446101693e-02 -9.316929225723302732e-03 1.195390026052124854e+00 -7.015298351786732889e-01 5.298449713206016681e-02
-1.312416847838670519e-01 -1.888131502479997378e-02 -3.282334556440114071e-03 1.229753197917272445e+00 -5.982013257381429971e-01 4.252233309557119922e-02
-1.309026590277024282e-01 -9.428730031661794464e-03 -4.683413844504213941e-03 1.237720425145387493e+00 -4.905215114334923188e-01 6.231323597282732024e-02
-1.334049232073153124e-01 -9.358554071056067111e-03 4.547994223113138723e-03 1.198238928719945973e+00 -4.272735986853645751e-01 4.972637094420916115e-02
-1.253991624770303404e-01 -5.256764651400228604e-03 1.063756746669086706e-03 1.124335432397826073e+00 -4.694501041228822946e-01 5.715162110953068975e-02
-1.239020688741994530e-01 -7.619011697456219701e-03 2.799690571272051010e-03 1.084014778930775913e+00 -5.359501009490106327e-01 5.273655868436121635e-02
-1.221876217207250037e-01 -5.327292100437163759e-03 3.899458183663939703e-03 1.030055251358618751e+00 -5.407145629618574922e-01 5.036143708988419232e-02
-1.230108452275168879e-01 -8.664707854704396459e-03 1.224803429662008059e-02 9.487397956585598147e-01 -4.882448680910227989e-01 4.824630271119491332e-02
-1.219199746743579588e-01 -6.346901919988311505e-03 1.480126864471459358e-02 8.126065611737969263e-01 -3.968826119663421137e-01 5.782344767605508695e-02
-1.154415003665019840e-01 -1.164042134353506820e-02 1.253463330630233408e-02 6.388651950810643187e-01 -3.784656101832645780e-01 4.792319668995785598e-02
-1.185149824315325645e-01 -7.311819436275153808e-03 2.246230506499119484e-02 4.769297065594130802e-01 -3.973630427352497496e-01 5.091387651511273399e-02
-1.168273896173395443e-01 -8.399173990127571307e-03 2.712477772834270828e-02 4.034259589480978514e-01 -4.169546233751946773e-01 5.792676398044680625e-02
-1.134710567186426877e-01 -5.856021204751617887e-03 2.346920642548572244e-02 4.212422182477603694e-01 -3.931489237830769201e-01 5.315725537727989530e-02
-1.184037074730886485e-01 -6.139405952547572626e-04 2.838475109944971209e-02 4.574041259399613257e-01 -3.520202473461562787e-01 5.696872693770013013e-02
-1.167381567236357165e-01 -7.181210594750400342e-03 2.371454814489248886e-02 4.588298706070002564e-01 -3.322544407928853527e-01 5.396256643351665661e-02
-1.128917690402893442e-01 -7.315555111686248418e-03 2.531420279656221295e-02 4.254235865668550276e-01 -3.338092136438502444e-01 4.331298664289498501e-02
-1.152474737357624957e-01 -5.942078511341708502e-03 1.939811879889030699e-02 3.391754121403906530e-01 -3.543175972147743491e-01 4.903749753801883021e-02
-1.103208406508406764e-01 -8.804415332944806605e-04 2.311941893459829034e-02 1.993447623080099596e-01 -3.565547932981685819e-01 5.546188929473125362e-02
-1.058024009710766683e-01 -1.223940642064309629e-02 1.806008301829886697e-02 5.531964150661322632e-02 -3.494994255933394078e-01 4.277521292356346178e-02
-1.036990701712964397e-01 -8.070041334861279350e-03 2.526381816560596683e-02 -1.095746526328093655e-02 -3.284407042294780199e-01 4.289601117347971448e-02
-1.028663402206975719e-01 -1.682081543097083826e-02 2.194277679132072834e-02 -3.245929787119961746e-02 -2.676202290946934625e-01 4.407959851374949195e-02
-1.011023997425604809e-01 -8.483918233473495760e-03 1.766606569523404557e-02 -4.997581404505244129e-02 -2.133228863066032599e-01 4.185211287775996575e-02
-9.445870008546618235e-02 -1.718999210134395522e-02 1.381414017243148828e-02 -8.080411275760487899e-02 -2.216416750472769148e-01 2.841227700839765724e-02
-9.534809201846702886e-02 -1.249952755976694793e-02 1.067249704919226438e-02 -1.368811597072113195e-01 -2.583134315236903511e-01 3.357260375405852343e-02
-9.181960833139857225e-02 -1.353835513212375309e-02 7.030771013027570238e-03 -1.886581365439203850e-01 -2.535325280110617419e-01 3.923112002419767291e-02
-8.704777833938744103e-02 -1.132203936019558939e-02 -8.710044170562314392e-04 -2.303375668274623422e-01 -1.991108009957586467e-01 3.889068923660354837e-02
-7.620833058313801478e-02 -1.202714474514267329e-02 -5.550102126969214122e-03 -2.260483090507334203e-01 -1.031548915059951471e-01 2.752928066272171057e-02
-7.322219169127822114e-02 -1.151916679347689439e-02 -1.320014803513658297e-02 -1.845744208493996508e-01 -3.627798279686076516e-02 3.481512926797217244e-02
-6.753558782331782473e-02 -1.351121737575669904e-02 -3.902414056507763629e-03 -1.063111420704687948e-01 -3.396576247720620167e-02 2.756015166101523015e-02
-6.707210415675879389e-02 -1.075609207861385336e-02 -8.027922820787514180e-03 -8.762904273181230941e-02 -2.560946733598112521e-02 2.617505802883302035e-02
-6.274339577760026931e-02 -8.397750209293461734e-03 -1.337955983329136567e-02 -1.035601105380274112e-01 -1.694664835924330690e-02 2.748322448917984995e-02
-5.303585793640681195e-02 -1.192415936543105535e-02 -1.030100249150089908e-02 -1.583932320300702468e-01 -2.605288889320242843e-02 3.070672467346304349e-02
-5.093065224281732861e-02 -1.212491167643368027e-02 -3.021637229155527127e-02 -1.743523396396068348e-01 3.488274713694982515e-02 3.098544743203607635e-02
-4.481201899807950306e-02 -1.354710343205710495e-02 -3.373708383244972131e-02 -1.155497972177247645e-01 1.138716581819454454e-01 3.120592707452676806e-02
-3.576017861984219504e-02 -1.226272744475937100e-02 -3.774072154912627708e-02 -9.726550114842899553e-02 1.770352219878740252e-01 3.232026952884516774e-02
-2.842371686162798242e-02 -1.886773170476847838e-02 -3.502904696356323733e-02 -4.705447420742371600e-02 1.608787464578428084e-01 3.132633466308865078e-02
-2.724467554159776955e-02 -1.068349585977899224e-02 -4.405011397603564305e-02 -4.643238542566735516e-02 9.276974591464794140e-02 4.934833611075081089e-02
-2.020932867988855380e-02 -1.208978729501432488e-02 -3.022523628273460217e-02 2.691055394550299559e-02 1.052474803779144125e-01 5.036218337518885008e-02
-1.301862390721076658e-02 -1.665750943984583426e-02 -3.583787176538694164e-02 1.248144421556895561e-01 2.101056296184294070e-01 4.228096660400813833e-02
-5.017245383967076922e-04 -1.189399305266239729e-02 -3.805244425514570095e-02 1.800861944413165439e-01 4.124724155782172885e-01 4.576379595396689454e-02
1.099241547509832023e-02 -1.103595454506177929e-02 -2.725651017793423447e-02 2.940279538933119885e-01 4.061685411138329371e-01 3.605603514424055023e-02
1.607583566586461704e-02 -9.161562183459068948e-03 -1.162047025561913083e-02 4.162975585673600043e-01 2.756788467791626562e-01 4.803505849169243530e-02
2.556751069202872415e-02 -1.139935933302748186e-02 -3.519648838704703131e-02 3.191230066729066062e-01 2.686117776955169734e-01 3.912912094973301086e-02
3.478646292527604045e-02 -3.179044798109298062e-03 -5.969337657242057560e-02 6.670985646601647334e-02 3.563808654005344856e-01 5.062341842176646539e-02
4.152739701826480001e-02 -3.457214629086656152e-03 -9.290179071585086268e-02 -1.434895888293177824e-01 5.235833319326324009e-01 3.385174520204310700e-02
6.403460234452050537e-02 -4.583869130789093929e-03 -1.189599222500654641e-01 -3.048650893173619481e-01 6.631932406842063754e-01 3.283507150230178390e-02
7.078228594099841842e-02 -5.058230278414205250e-03 -1.489006201743369173e-01 -4.873399298323619622e-01 6.167212606397466379e-01 4.222692793450884968e-02
8.366977667885806824e-02 -6.080404756817821277e-03 -1.530365622122918101e-01 -3.963438582486491502e-01 5.272241652845519599e-01 3.686865934056004351e-02
8.726011120842658286e-02 -4.874137648342062937e-03 -1.183876187265930080e-01 -1.692135019685632180e-01 5.337901414007362177e-01 2.911543448578744753e-02
9.892001840124371725e-02 1.644627378518531691e-04 -8.958262647008158330e-02 -8.845993037757182709e-03 4.661975670223780233e-01 3.701148890302828620e-02
-2.668699848429975097e-01 2.347412730718986817e-02 1.047213835139116367e-01 -1.731634151269378086e-01 -2.439822060055241715e-01 3.213334093679386799e-02
-2.596089567145090649e-01 1.255100551045833755e-02 8.827780101172572058e-02 -1.707975306396669612e-01 -5.683420326163006742e-01 1.504236991118460508e-02
-2.454475241531843821e-01 1.249854853158237529e-02 8.006532943698019267e-02 -2.193702359609114583e-01 -5.888462770232236743e-01 1.709878703989623286e-02
-2.347385319294759687e-01 1.308572262237716471e-02 9.522613516312766757e-02 -2.224145585669132230e-01 -4.477250077925308824e-01 1.407649117834710792e-02
-2.212888282849553301e-01 1.363905735760714139e-02 1.386704567892257378e-01 -4.817832201949063253e-01 -1.475064511477423290e-01 2.404767149922423450e-02
-2.106693715907973496e-01 1.116245431743160058e-02 1.647243129681811302e-01 -8.434107755179863775e-01 -3.157016023298840901e-01 2.548573451425370506e-02
-1.951407430464348058e-01 8.480958116948369638e-03 1.542752354793367475e-01 -1.001205972320813320e+00 -4.885469465495748675e-01 2.137377992357535061e-02
-1.916953249255616831e-01 1.363263165348789323e-02 1.414662478095661813e-01 -1.097780969672170315e+00 -5.892610994331262120e-01 1.468899256926398458e-02
-1.752745804509716621e-01 1.053745175484022481e-02 1.226600016101761503e-01 -8.142545674181991266e-01 -4.521291702417176706e-01 2.751518294396999853e-02
-1.637294966178789724e-01 8.991854967099248419e-03 9.686257781835849734e-02 -4.159261936566174267e-01 -1.591068513636079707e-01 2.187119442690856411e-02
-1.445136765560008363e-01 1.701146563390004696e-02 6.128430082072955365e-02 -8.994974950619942511e-02 -4.724181831030210832e-02 3.136139736067903444e-02
-1.415498179878836027e-01 9.435687748106987710e-03 3.674717248147302273e-02 1.614554360491462504e-01 -1.749929307179224625e-01 2.653617327549403701e-02
-1.295824432342354282e-01 1.298897922236196163e-02 3.764585057830877046e-02 3.680771783639468220e-01 -3.604654206826289342e-01 2.926321706192531319e-02
-1.155611010099408670e-01 4.939368605180404458e-03 3.257826121382267903e-02 4.192534750957438439e-01 -3.126910932884687799e-01 1.970287653568790487e-02
-1.053447886520714749e-01 3.513913353176025336e-03 3.119209556615404333e-02 3.320009820053134164e-01 -1.297307586241275013e-01 3.018522259377039857e-02
-9.427331853334322553e-02 9.572297590161616201e-03 1.419248104378528774e-02 2.545426927740793710e-01 -1.574263448954569544e-01 3.166604715315318036e-02
-7.705804982392752689e-02 1.535623452321368577e-02 -8.064988874135647912e-03 2.819791068468484041e-01 -1.119663248294289759e-01 3.809977334734801491e-02
-6.443698515818109540e-02 1.481706463729972820e-02 5.828283882959139905e-03 3.253626097348539803e-01 3.739157710226088255e-02 3.040003929418813242e-02
-5.074557256094711089e-02 1.837152478226587726e-02 -2.176287026858791940e-03 2.873793444695728616e-01 1.649244367454193450e-01 2.328347678997609582e-02
-3.784420754494808442e-02 1.532350130945410276e-02 2.606725706482959648e-03 6.152114620337294226e-02 8.215960666802366030e-02 2.938350585187471040e-02
-2.267148594426108069e-02 1.664446892262264749e-02 -9.405239309144330928e-03 -4.929481640566632517e-02 -1.847052085416030220e-01 2.236526890070145851e-02
-2.359259894096733118e-03 1.728662713385169247e-02 -3.361553549629914261e-02 8.815159951428772067e-02 -2.890991181935205212e-01 1.541276565018595904e-02
1.239279111930329316e-02 2.617009709994368161e-02 1.808782857500301766e-04 3.034542109960188805e-01 -1.488744006250672380e-01 1.175356338928539197e-02
2.263431793795797967e-02 2.378342412019572930e-02 9.639144643702357573e-03 5.078848221303069455e-01 -1.762598922198564955e-01 5.404159431407834328e-03
3.697070862590046136e-02 2.343009625759395406e-02 6.559577904311719720e-03 5.210914917446238803e-01 -3.246628283522021152e-01 8.695952065724323402e-03
4.939012222369702776e-02 2.255898788096467183e-02 -3.285048208359148125e-02 4.471877974410430889e-01 -4.012879982994549954e-01 1.238017976457715793e-03
6.701418167402686810e-02 2.524553157731231068e-02 -4.222979355930356338e-02 4.148001717745978256e-01 -2.739868662463019189e-01 9.389318785413283686e-03
7.731165391849412205e-02 3.179602055499608504e-02 -2.234332065745209261e-02 4.517305383432019261e-01 -1.732673757259023672e-01 1.491303127375900352e-02
9.834778647841915800e-02 3.447534314660995192e-02 -1.952359666826303242e-02 5.338358391573717610e-01 -1.718483254716981212e-01 8.149380254537534618e-03
-2.768319922059020999e-01 3.409207333410481378e-02 3.329214019282333847e-02 3.100665379070148275e-01 4.121096459005623158e-01 3.210787097979259791e-02
-2.629587478820915591e-01 3.184221951735461548e-02 2.489073174882139305e-02 2.918533597409544433e-01 2.858895574083366031e-01 2.430690007016707288e-02
-2.569918548109731971e-01 3.070412837681028156e-02 6.739657004833254916e-03 3.281574466158576064e-01 2.265941516073000650e-01 2.475331620055908760e-02
-2.356926068943651087e-01 3.171129798276228762e-02 1.257160543347962678e-02 3.388835611602343256e-01 2.938996221952507315e-01 3.461846539467836048e-02
-2.196398318519411641e-01 2.829985636315057729e-02 2.832485442293336542e-02 2.294858603620327508e-01 4.583507295625059985e-01 3.776462819874163573e-02
-2.039765084430478770e-01 3.389389341875655159e-02 3.660162956832546666e-02 3.126766182934086202e-02 5.326238648793154562e-01 3.534021021858445299e-02
-1.866337345920995872e-01 3.505477164923005706e-02 4.261011835990408114e-02 -1.916878884394174198e-01 5.122063406100164640e-01 3.804186026757824801e-02
-1.697575562739987998e-01 3.382334226844815189e-02 3.347601539470462795e-02 -2.810061868307431321e-01 4.182763512054461508e-01 3.325509182833059907e-02
-1.539213336842797375e-01 3.238442894248998866e-02 2.671899102896285738e-02 -1.218939512358405280e-01 4.569510103105342558e-01 4.511258448957011780e-02
-1.341586463934632822e-01 3.430034413963535533e-02 1.534631466564845281e-02 9.776130484740459814e-02 4.302388819377358509e-01 4.538657222329832430e-02
-1.162387276601539871e-01 2.888686111876858503e-02 1.064681569924130766e-02 2.107825508195767528e-01 3.086915001312458551e-01 4.634643694676385955e-02
-9.655285720694875562e-02 2.253608438954005783e-02 2.349256409928002221e-03 2.193575671026191942e-01 1.804998678428289816e-01 3.948721160532256413e-02
-8.585450277925044116e-02 2.910970020391783625e-02 2.539108104154641499e-03 2.255244928146607208e-01 1.763062114761715371e-01 4.871812572162635691e-02
-6.640777079697844643e-02 3.259217218825247175e-02 -9.856763046063032885e-03 1.703836242635864973e-01 3.930044557227925228e-01 4.914688271664634234e-02
-5.100451993553388463e-02 3.036881936297293819e-02 -1.102402818346559510e-02 1.236782570523076580e-01 5.532188822059743716e-01 4.286043137420986887e-02
-3.664011077338645561e-02 3.929849407983733445e-02 6.209642425009209710e-03 1.775994755933305025e-01 5.335902441808030305e-01 4.774242757220809735e-02
-2.929377930141619651e-02 3.010260332139508971e-02 8.561856697398340099e-03 2.300650477684765272e-01 4.063658274783246149e-01 4.435676891488147394e-02
-1.223972821240537287e-02 4.101911873622939714e-02 -7.817605496772128681e-04 4.180551240411080061e-01 2.451424637748146063e-01 4.531160847565698230e-02
3.491043444421970676e-03 2.758444895510740388e-02 5.091717650481886182e-03 3.215052502294094561e-01 5.712377199033207703e-02 4.754768830669756779e-02
2.348702133114044174e-02 3.825713835850227951e-02 -3.683501273317568714e-02 1.649654149520092261e-01 -2.822818852596446493e-01 2.756333560783436054e-02
3.777805670241779490e-02 3.247684369367820345e-02 -6.784705283424219413e-02 -1.094581240526548427e-01 -5.302675784951109694e-01 1.888053130069930474e-02
5.392431235420171859e-02 3.595681216023734195e-02 -1.236130584755405215e-01 -3.950321313668644918e-01 -6.171121812942016449e-01 2.799962581778353207e-02
6.540165971638206566e-02 2.947304017714012098e-02 -1.317281454488957171e-01 -6.416262323478626461e-01 -3.883885670200566964e-01 1.757683275845033782e-02
9.135062256650693102e-02 3.322218522441146293e-02 -1.435427360013418752e-01 -6.414762835479586034e-01 -3.034190135498870400e-01 2.102213792657063596e-02
1.062334627441531842e-01 4.245178756722256530e-02 -1.438668478718841681e-01 -6.329011319266075741e-01 -1.928077320447898479e-01 2.435206883734111066e-02
-2.803472767901080687e-01 5.256901374182840203e-02 4.783189016213873490e-02 -3.154044490179385152e-01 -4.409861473442043267e-01 2.542085702745475184e-02
-2.628534266064195823e-01 5.182351931053887778e-02 6.228723127105240120e-02 -4.377030629389564997e-01 -8.162060989964936564e-02 2.149445993980848499e-02
-2.375638879988961338e-01 4.645393787016463549e-02 8.860970092909165041e-02 -6.149427464265300181e-01 1.115962292182360732e-01 2.220498344503927732e-02
-2.332312271877995113e-01 6.314081756151979086e-02 9.596679107338074166e-02 -6.416269786394978025e-01 2.151975233509280938e-01 1.923671713494513186e-02
-2.123948622311512269e-01 5.095285034694627818e-02 7.104287232239908656e-02 -4.655156231327005623e-01 3.502831591402993938e-01 1.579221652523185929e-02
-1.996285667611504833e-01 4.642457250075877895e-02 5.034975506061822870e-02 -3.444022379173428683e-01 3.900312297448008669e-01 1.326999730460987417e-02
-1.791830940474436473e-01 4.930489722752048887e-02 4.058570496309577003e-02 -2.906478354320363167e-01 3.795095937196337754e-01 1.015432907305978752e-02
-1.589246083293477940e-01 5.654562891218237880e-02 3.262550359437349501e-02 -2.650691753968984488e-01 3.098234950070561933e-01 3.114498303285641312e-02
-1.489422038360198874e-01 5.300912789926119639e-02 2.981136478882079333e-02 -1.544944933413844868e-01 2.432865610140022561e-01 2.595104435115522593e-02
-1.268376306317874902e-01 4.088982760905927188e-02 2.015925975678062310e-02 -6.726991896116882308e-02 1.232020239046934251e-01 3.501179900179578197e-02
-1.134011978555529709e-01 4.937769956506958546e-02 1.458539757050519858e-02 -9.802284027938318323e-02 2.359957763962085286e-02 2.804655065977841935e-02
-1.001704538825938240e-01 4.291978658002085223e-02 -1.626380833344615029e-02 -1.335910726284618433e-01 -1.036140155434647492e-01 2.998226293310693111e-02
-8.433354822194355505e-02 4.538921922044278356e-02 -2.534102777593005840e-02 8.610472736239129649e-03 -1.669302626478103846e-01 3.160617160810189064e-02
-7.194303938164670065e-02 4.194067096973960740e-02 8.087359767198432081e-03 -2.641254415233370775e-02 -1.417150529805714376e-01 3.761425745727627057e-02
-5.109804562998333105e-02 5.096415908800198263e-02 -2.504619449033307355e-02 -1.556194429468890361e-01 -9.360737562615291385e-02 3.508184178650210205e-02
-3.983401829495296365e-02 5.366381821781776584e-02 -1.504620400829603799e-02 -4.273945045728438363e-01 -2.071820653203642615e-01 1.957282361975903884e-02
-1.940735893002499407e-02 4.814838074567581727e-02 -4.051698509744766641e-02 -5.366173194030625648e-01 -2.322217493168871605e-01 2.292044724138962361e-02
-1.084594691912733541e-02 5.183604506066137596e-02 -3.321896267749269160e-02 -4.992616554311310462e-01 -2.085392087225227120e-01 1.613099889522291025e-02
1.106695930671432182e-02 5.885729591525151738e-02 -3.695905983766351044e-02 -4.430848974033085308e-01 -1.914181805505930645e-01 2.966468794290433655e-02
2.702329456316202375e-02 6.662475383745457280e-02 -4.803171859515870112e-02 -3.166887012047493455e-01 -1.386262517603838174e-01 1.418522261976688965e-02
4.006021254436796519e-02 7.480898451361039925e-02 -4.654612134318292238e-02 -2.423699256054478168e-01 -2.668986498143303132e-01 3.914566329817521784e-03
6.268127575097956483e-02 7.159707436635380506e-02 -1.846663195130110457e-02 -2.325455009989990385e-01 -2.435387369152497428e-01 1.194453520263555335e-02
7.607980726887905720e-02 6.556598743998666434e-02 -4.843294359475525113e-02 -2.890732350125695960e-01 -2.726508396155868930e-01 1.710569869475423582e-02
9.078445996140716012e-02 7.866280165997174834e-02 -6.518355809378595378e-02 -1.590426427867181192e-01 -4.459806184558900988e-01 -1.141043262809990876e-02
1.137466187949289498e-01 8.158518908459932995e-02 -5.089950035985058019e-03 -3.606517543952805077e-02 -3.125112966054463537e-01 2.485864095632512824e-04
-2.631567039906727024e-01 3.843498305027640005e-02 5.632646052116496715e-03 6.441677972114812079e-01 8.494702764175990906e-01 5.756874789950544580e-02
-2.512994592734197896e-01 3.175671841938344092e-02 1.741795747975577457e-02 5.259994825606690849e-01 9.160178020441173130e-01 5.551122198556653065e-02
-2.407824980106515744e-01 3.162441223972111554e-02 3.984803761231453523e-02 4.792717446856412100e-01 9.134314769497143827e-01 4.482669102577855474e-02
-2.222449351939746465e-01 3.223701015393093394e-02 -3.442022799097066432e-02 5.880651655962820801e-01 6.853614140376723673e-01 4.991551716770426667e-02
-2.067948674038945778e-01 4.169363404043315707e-02 6.843236404559527308e-04 5.951828035001793804e-01 7.825694815890215095e-01 4.024934854896276143e-02
-1.929875910786776616e-01 3.794005269764472860e-02 3.361063359024146768e-02 4.237079924788403895e-01 7.844305048783737355e-01 3.979396458822997973e-02
-1.813669530919149175e-01 4.089991360842968465e-02 8.028102654677404804e-03 1.660453239360311639e-01 6.149008171944346790e-01 3.944897600329237697e-02
-1.619204314678326928e-01 4.179499311649199911e-02 2.070734936661428049e-02 1.946189211977338296e-01 4.739099877439835740e-01 4.834630879149462435e-02
-1.525634150579605330e-01 3.914360095130745010e-02 2.874187544818385120e-02 2.492452684186951817e-01 4.871589080502967128e-01 4.160399106954834614e-02
-1.286829570549788415e-01 3.312188546724142285e-02 1.708648885301777831e-02 2.469718126876376540e-01 5.159960195018558071e-01 4.545680143951768420e-02
-1.068635310198416261e-01 3.857920073748136169e-02 4.371856645641714056e-03 1.571330541536766767e-01 4.958110207911837208e-01 4.973986150962656644e-02
-9.624110008122357951e-02 3.912231606504583403e-02 1.063535444880514547e-02 1.482147796644381621e-01 3.769482758838308967e-01 4.284227039769390039e-02
-7.556873744921834002e-02 3.891030408055990569e-02 -4.091204209657750557e-03 8.413062584396349686e-02 4.517735780342445051e-01 5.023425707132472828e-02
-6.127654389546849378e-02 3.748005983448306905e-02 -1.957481335504274167e-03 4.787651802990513378e-02 4.426899324436719962e-01 4.224443298608726582e-02
-5.160356231232193780e-02 3.981748478875499209e-02 -4.083483431192913571e-03 -4.503603428283708965e-02 4.970879932061562645e-01 3.766813885564891662e-02
-3.181244868247803947e-02 4.032489649839011286e-02 -8.273597675329202872e-03 -1.716077932366202180e-02 5.126178903353882932e-01 3.796407253046246016e-02
-2.017239716236278457e-02 4.080947525991383135e-02 -1.077625402251491948e-02 3.687227037517120526e-02 5.436226172980253013e-01 3.877492037325291907e-02
-7.151028369485104216e-03 4.520998267162389117e-02 -1.309650260655037535e-02 8.353089612169620204e-02 5.334709984348723344e-01 4.467498329334088775e-02
5.907223273380030060e-03 3.790604795288605999e-02 -1.382624745772109698e-03 1.035132084492432075e-01 4.805976368785609965e-01 4.237439888273877159e-02
3.103503877616293344e-02 4.315198777730295393e-02 -1.144269941945097457e-02 5.559563197191195322e-02 4.907473185381718839e-01 5.104784151508443002e-02
4.912371732692361048e-02 5.334299299938307509e-02 -2.319853677628530564e-02 -1.624632006504278178e-02 4.248790076394137194e-01 2.909849748041827555e-02
5.569694104380761013e-02 5.081642306171609696e-02 -2.740444473668274261e-02 -7.574692792581259881e-02 4.068064718985328621e-01 3.176122510754222222e-02
7.807612781040459971e-02 4.984187727477898400e-02 -4.420004136298055775e-02 -1.326260101182453743e-01 4.077482265256729410e-01 2.269911209364951915e-02
9.616816984863124640e-02 5.770569215766516158e-02 -4.214837805341503651e-02 -1.096421424365243286e-01 3.719124506670246633e-01 2.052834293940309154e-02
1.101187065923030783e-01 5.631628568084569297e-02 -4.009997777635210259e-02 -1.169964026632171195e-01 3.598892526029852101e-01 1.614606562724650585e-02
-2.670301787801842019e-01 6.065657622119637743e-02 3.248955751651411150e-02 2.894543080744029218e-01 3.525464844652378971e-01 2.244171695092940164e-02
-2.476948211557553070e-01 5.966846158638612618e-02 3.224792900631057169e-02 2.618200442391813709e-01 3.165083862053580388e-01 1.142789618597248730e-02
-2.412418100732278692e-01 5.768791779871012410e-02 4.020208908856004459e-02 2.234885090041806854e-01 3.301622128840641657e-01 1.544602004002088198e-02
-2.246917260429060204e-01 5.994747639160280528e-02 5.273610384460108991e-02 1.326574526504923357e-01 3.649376469990885941e-01 1.314528263040758149e-02
-2.184651034021096172e-01 4.756721240521922384e-02 5.916112892746139273e-02 3.471084233276685443e-02 3.166266750805027952e-01 5.344147649907794728e-03
-1.972507403756593447e-01 4.744365598873194478e-02 5.939747064999584270e-02 -3.806256096998274913e-02 3.264489741466484740e-01 -5.121148343342577305e-03
-1.845539556994792441e-01 5.034962335028066865e-02 2.900574597037053337e-02 -3.833263585871570650e-02 3.910080789136115009e-01 1.105414163588200327e-02
-1.735885859365555173e-01 4.852433715194963415e-02 2.621799743370190061e-02 1.761245347683615681e-01 2.406337487792935270e-01 5.214564824236577953e-03
-1.550789991679112356e-01 4.429108862476037467e-02 1.142830311440234947e-02 3.923073441221369140e-01 3.587597949765090610e-01 6.940921738152255535e-03
-1.490165209201381458e-01 4.830018190291314462e-02 3.022581432426929560e-02 4.710070753792022225e-01 3.115996396522236478e-01 1.260532307310770379e-02
