-6.242211240461880556e-03 -1.020442881539295257e-02 9.099969503592597597e-04 -9.510585186008189973e-02 -2.063493148192653281e-01 -2.543166725484920319e-03
-2.687765224494022276e-03 -1.514685791548100492e-02 1.562768077185855420e-02 -1.055670392898101773e-01 -1.148967838766151023e-01 2.079221130162365715e-03
2.060472022419535670e-03 -1.627127689246545342e-02 -8.380115182662573048e-03 -8.400656643382631295e-02 1.898861927552806389e-02 1.383407378898032607e-02
6.514982042781076316e-03 -1.678473760290734307e-02 -5.724368171863336574e-03 -9.649261403332595743e-02 1.957103706036661395e-02 -1.643492146000132860e-03
1.132101360025543693e-02 -2.068319326462743357e-02 -1.173318567128461831e-02 -1.453946943220119914e-01 2.356037467490627868e-02 -5.150105055487200212e-03
9.575703260535747136e-03 -2.300965155698329878e-02 -6.422605297581485129e-03 -1.456161423695465917e-01 1.773182324593586615e-02 -1.527949990100911995e-02
1.274640446624197496e-02 -1.979498927344950504e-02 5.042671908466522801e-03 -1.221203528346368750e-01 7.904029012186018777e-02 -2.264264370256241152e-02
1.265349865272851621e-02 -2.334057933004549459e-02 -4.168241866574384780e-03 -1.169617509372871678e-01 4.877257058215451330e-02 -1.481516400802778723e-02
8.576040294920428408e-03 -2.283528581174842920e-02 -1.943734069085711891e-02 -7.245296196143087564e-02 1.025126983019472166e-01 -2.537976046024821228e-02
3.825944626996025805e-03 -2.051091264686581012e-02 -1.420494006975775436e-02 -4.175520137695057366e-02 5.831066986672038543e-02 -2.309645707132840578e-02
-1.820977822093222676e-02 -1.578633699241143579e-02 -4.349792088628512410e-03 -1.636562367690010400e-01 1.001061890313660468e-01 -4.163267884572393468e-02
-1.590429576997376762e-02 -1.506994274275104406e-02 -8.128057844527747378e-03 -7.233962698881682418e-02 1.083115518088051815e-01 -3.540259787614996601e-02
-1.659470752973931165e-02 -1.855735378300667898e-02 1.191792031044747180e-03 -2.343497760888917786e-02 9.161789891516583517e-02 -4.001856699678572882e-02
-1.306865128686494383e-02 -1.703594457432276374e-02 -1.367650912793227924e-03 -7.093734298937105776e-02 6.203084019176553082e-02 -3.505835660030869050e-02
-6.576000544675022347e-03 -1.424121741371453358e-02 4.649158665200880947e-03 -1.031426481944772849e-01 5.811090558214804247e-02 -4.194821644891101597e-02
-9.177398707272991715e-03 -1.656875458921751310e-02 1.426423827566469793e-03 -1.320962789249266189e-01 1.064112754150022544e-01 -2.478650571558022736e-02
-4.399874226686716072e-03 -1.904551543541060238e-02 -8.715115752708779695e-04 -8.213425547052446984e-02 1.358866819605082099e-01 -1.542515759025218577e-02
-3.241420331884535544e-03 -2.039190288520957919e-02 -3.668039646856413594e-03 1.622999570540234471e-02 1.558627219089216143e-01 -1.498083527425590582e-02
5.450900397194237412e-04 -2.375169596897934790e-02 -5.772386723228939420e-03 3.920311806713732555e-02 1.375182087334088088e-01 -9.445995547565460421e-03
-3.764369615912335071e-03 -2.718791835346886024e-02 4.305385815171647312e-03 3.102364166081304081e-02 6.665601295167196405e-02 3.463787235734992146e-03
-4.590533834628117427e-03 -3.085748794857275448e-02 -4.518683968825210062e-02 1.695546023830789631e-02 -4.162591547108766138e-02 1.287492128915287623e-02
-8.479625200583915112e-03 -3.329584365358550374e-02 -1.442737564219864765e-02 2.493197567655015823e-03 -1.144826065563430140e-01 1.972328160342558256e-02
-6.623284129467006676e-03 -2.610176989074718124e-02 -8.215650515677908050e-03 -2.894019153060679514e-02 -1.690450563028808029e-01 8.041841440702392207e-03
-6.472634889162189736e-03 -2.427855071081762295e-02 -5.503594292358193751e-03 8.212569342813560991e-02 -1.905062898750631839e-01 1.047347821535350026e-02
-6.218988763108345558e-03 -2.558542739939372035e-02 -2.161172775938852153e-02 7.350685888449771943e-02 -2.277856222923413665e-01 -7.195859329038246065e-03
8.183727353944930671e-04 -2.347609551695717389e-02 -1.372710037618479761e-02 1.360499421391691000e-01 -2.008552887883442717e-01 2.687922945745166350e-03
7.293316800844339837e-03 -1.982633571893684804e-02 -1.041071060967985185e-02 1.465005651021734911e-01 -2.344814335561961338e-01 -2.489967745984307253e-04
-1.545596609134491407e-02 -1.946023951967889437e-02 -1.180748801466818820e-02 3.626294484898337500e-01 -2.354275226469701165e-01 -5.662960667743754256e-03
-1.418292707174862409e-02 -2.460471201613972231e-02 -8.187668834666317341e-03 3.666832981865815189e-01 -1.525842891003533208e-01 -6.549769901170271642e-03
-1.020588937062288752e-02 -2.502985050452320726e-02 -8.716708430353714565e-03 2.692218439634990745e-01 -6.551448592044104013e-02 -1.252841657449804864e-02
-9.007401258996648730e-03 -2.251218043796212459e-02 -2.663040729786042560e-02 2.059623968174581488e-01 3.696311168009865089e-02 -1.857858007771984871e-02
1.459739110166373768e-02 -2.149393061059765020e-02 -1.615583924854713249e-02 3.476138912033336914e-01 8.323493138053528195e-02 -1.880720929437061650e-02
1.427994723237865568e-02 -2.331859897677250604e-02 -2.091371937309738360e-02 3.113469381104031486e-01 1.776848609125913914e-02 -2.282392756853302007e-02
1.541354352889333715e-02 -2.211932470600450756e-02 -1.946998339170891157e-02 3.351215346263634598e-01 -1.015758077697124367e-02 -3.258564086467312382e-02
7.314408279101802107e-03 -3.623438955591030269e-02 1.398915349053508894e-03 4.079991816279540662e-01 -1.375956949858552214e-01 -4.402222880110679554e-02
3.681583412023681223e-03 -3.118427026879101727e-02 2.919320071895548097e-03 4.508002062907049412e-01 -2.244361246319294956e-01 -4.495835346442134117e-02
-2.844899838110360318e-03 -3.338543218381648248e-02 -8.897515833076685698e-03 5.161971538425256245e-01 -3.316810155189038323e-01 -4.133446246803340607e-02
-8.483379806332954493e-03 -3.233737307718267950e-02 -7.944819677467129804e-03 5.485949711805143680e-01 -3.159047979588358035e-01 -4.847774202533899901e-02
-1.414944176956119300e-02 -3.199460186294188213e-02 -7.492607305665976991e-03 5.037159761259771829e-01 -2.910859799954140792e-01 -4.763002516540414122e-02
5.102199438123233843e-03 -2.279814626188805121e-02 -1.448511401246055375e-02 4.692259205406903444e-01 -3.301660066985336317e-01 -5.771083547074267600e-02
1.324840871193357777e-03 -2.368079668989730296e-02 -1.306543444007690624e-02 5.306282501203342106e-01 -3.834162129483536519e-01 -5.073454695033300516e-02
-2.061327861381485188e-03 -2.841301588076046089e-02 -2.979676537657294233e-03 5.332440834171561228e-01 -2.799690132068587411e-01 -4.771704372669031274e-02
1.643656988908927252e-03 -2.439583365136968607e-02 -7.594261927167444970e-03 4.555022433763390999e-01 -2.751531140964880717e-01 -3.660182668388436977e-02
1.287979631572543776e-02 -1.797574631494818637e-02 -4.352044435862512106e-03 4.803083122251240455e-01 -3.255535091434724193e-01 -3.064348736396856412e-02
5.777280555891550762e-03 -1.652768079599770817e-02 7.398887524234398771e-03 3.794173392917098431e-01 -3.541966868440771243e-01 -2.882883376497419672e-02
2.572148576061652689e-02 -1.325044895380297558e-02 6.830185538471422735e-03 2.507863910044092481e-01 -5.020230953712793154e-01 -3.290685002035415030e-02
1.672938142581658141e-02 -2.898564199915160122e-02 5.221489610188922992e-03 4.084687576742807580e-01 -5.665867723719713034e-01 -2.865131144390691345e-02
7.641360570738647134e-03 -3.647649920412421309e-02 -7.124018691745170884e-03 6.335297084500561837e-01 -5.459996309146648574e-01 -2.042944355752427180e-02
2.008395543132113215e-02 -4.066084991479813199e-02 -7.550444471358108700e-04 5.451416616924300573e-01 -5.991146361260438757e-01 -2.514044084482242383e-02
1.050613691459909016e-02 -3.798465449914448233e-02 -1.074403280912361591e-02 6.480637732856303623e-01 -6.421969733159006433e-01 -2.415192698245886491e-02
1.759668688566394870e-02 -3.880837896834510303e-02 -5.214533113573449619e-03 5.434232393430102892e-01 -6.805391771015443236e-01 -2.188739015573167718e-02
6.034625291853810275e-03 -4.222693037324090626e-02 -1.089063120119754258e-02 5.603157736147502677e-01 -6.796494207234894391e-01 -2.284911241416097763e-02
1.515864096821315649e-02 -3.535714928565520526e-02 -4.801770214338085818e-03 5.290701468822338605e-01 -6.820201638808859324e-01 -2.333798331734265527e-02
-2.238547413200470820e-03 -3.199044957721069310e-02 -1.223341474931216588e-02 5.939829373919708333e-01 -6.557864853737801480e-01 -2.081858990672828813e-02
1.363865092122472714e-02 -3.281007543540744031e-02 -4.632952187969108238e-03 6.407786406101813048e-01 -7.303297512159593330e-01 -1.985346870743916886e-02
6.756581733645093679e-04 -2.898823071432343051e-02 -1.161565140198994595e-02 5.958144622365811882e-01 -8.035658477267834110e-01 -2.277155238972297657e-02
1.060488719235864324e-02 -3.248226055216596464e-02 2.311978036871498166e-03 6.362945874246678235e-01 -7.847070633898409753e-01 -1.954961593480860835e-02
-3.498887329989860961e-03 -3.035625619307717390e-02 -3.209405291496048029e-04 6.072097150713086089e-01 -7.359953527758507086e-01 -2.740207517444421398e-02
9.393929042060870926e-03 -3.344954986038946310e-02 -3.437793022973423263e-03 6.142142736726206032e-01 -7.675913862304016844e-01 -2.954996140390008658e-02
1.696355405509736639e-02 -3.290442313789958273e-02 -1.824867209225256026e-04 5.786186041638375910e-01 -7.873124719362361024e-01 -2.843245976800310576e-02
-1.944367082909386618e-03 -3.676123129499983544e-02 -7.655211767854996907e-03 5.141667039972277475e-01 -7.591009648909180507e-01 -3.076271764309990164e-02
6.805364534365910406e-03 -3.193723410437888238e-02 -5.818609539164854016e-03 5.050201804703448039e-01 -6.862580350723065381e-01 -2.579235832913445714e-02
1.095405456812400050e-02 -3.103127274026407090e-02 -8.308492703948788805e-03 5.285957917186442367e-01 -5.709748986561377082e-01 -2.809287391210536430e-02
-1.605604997507881909e-03 -2.531858274681766247e-02 -7.986644519161756328e-03 5.455770407006531597e-01 -4.472314467538572869e-01 -2.628526277392063959e-02
4.915614344053364365e-03 -2.119449606611790299e-02 -1.127626308372670083e-02 5.395290460833620516e-01 -4.251761451776964740e-01 -2.254932589382123778e-02
1.163740564646217196e-02 -2.471021692237943684e-02 -3.841712738780700409e-03 5.915855817967581309e-01 -7.338086080208096051e-01 -1.239547896383436619e-02
1.838860053524985286e-02 -2.499888095377052200e-02 -3.261856493916470701e-03 5.395201018962351158e-01 -9.156906736056706908e-01 -8.006785136357415580e-03
2.293366572184875329e-02 -1.661972048139308961e-02 -2.969330950758908294e-03 3.962560173968793786e-01 -1.078583552967485648e+00 -9.966375487716968781e-03
2.064808418415445962e-03 -6.682853141098970065e-03 -7.539337268751278298e-03 2.649835521947611072e-01 -7.850844176951023989e-01 -9.695234535460490674e-03
5.971355117477743918e-03 -8.508610736154376825e-03 -1.161886914630444467e-02 2.952920816211823118e-01 -5.445394246758237244e-01 -4.313916652261848804e-03
1.208533215071232181e-02 -5.031894367073866392e-03 -4.886638694368783398e-03 3.437851605136034716e-01 -3.891776810075082693e-01 -4.418885350068720540e-03
1.765003225823548114e-02 -3.000388298131621487e-03 -8.767308704550058618e-03 3.588059181363482675e-01 -4.286644125294836738e-01 -9.799437426894437586e-03
2.064431756814040508e-02 -3.116852947600026041e-03 -3.125888507481133782e-03 3.011464839395751047e-01 -5.041972566142156609e-01 4.503885345714626963e-04
2.282894678955486520e-02 -3.333731409763989600e-03 -4.951571272415911107e-03 2.224562998323795504e-01 -5.066453967339397124e-01 -9.014052998039558378e-04
2.041469287020989190e-02 -3.317958414613499107e-03 -8.347470198928563789e-03 1.608420439213109066e-01 -5.164918567139682448e-01 -2.182499991220027569e-03
4.752565568659043727e-03 -1.154006515496908136e-05 2.835213303403583129e-03 1.838529076101897697e-01 -5.019468726211440135e-01 4.920165434445114214e-03
3.487254301228748937e-03 -4.964664491826567896e-03 2.842948572778281058e-03 1.623553394908089365e-01 -4.773346221874983364e-01 7.230893624228616236e-03
6.595146290264124883e-03 -5.775180001311063654e-03 5.349056730590606712e-03 1.423530487649405651e-01 -4.671467198880466798e-01 1.457264108439455981e-02
4.464872330996912109e-03 -6.829915208412459804e-03 7.811105895942360711e-04 1.488211623575904363e-01 -5.136651999009683722e-01 1.782683468948605479e-02
8.188621080217648590e-03 -5.303214887063272334e-03 4.302734498134064278e-03 1.279773502664564577e-01 -5.273002074072847822e-01 1.387048822345958617e-02
4.003254560793485795e-03 -2.843205954228066046e-03 3.192585454607543838e-03 9.889163065250436424e-02 -5.397547957290264042e-01 6.936290167017462698e-03
8.088036909491811560e-03 -3.611470319643960911e-03 9.082966093120259377e-03 8.055528175304821348e-02 -5.277981351626999107e-01 4.065089290870113614e-03
6.228572930593926499e-03 3.079512708176296645e-03 5.164477950272139406e-03 6.883852706117458975e-02 -5.451971017353298699e-01 3.727835115514143913e-03
8.082802310764036074e-03 -4.144562233864335088e-03 8.385690798459577433e-03 4.336480499880813327e-02 -5.239855368628163479e-01 -3.431472509262440893e-03
1.542640276503618249e-02 -1.227353549661723379e-02 1.295233677784662918e-02 -2.968657113865040900e-02 -5.248751443245494031e-01 7.162481864315506375e-03
1.267682309749250738e-02 -1.362688343398957107e-02 1.713455721465001469e-02 -9.659958204473732823e-02 -5.283734773070356550e-01 -2.051165864422868981e-03
9.454002096060346721e-03 -1.685510087060439893e-02 9.453555930697188359e-03 -1.148576766795138260e-01 -5.325101736769703997e-01 -2.531339908102874653e-03
7.918418977310385382e-03 -1.688306032893584219e-02 6.694930454937408904e-03 -1.069587211607821026e-01 -5.377991812071600819e-01 -1.569510790921794033e-02
1.006953413758619742e-02 -1.744515514961718361e-02 1.190989769339922955e-02 -8.571575496673126959e-02 -5.225400241752707897e-01 -1.116364498969977907e-02
7.735743162830453767e-03 -1.492195404026459143e-02 1.194640433006638469e-02 -6.980894800234875575e-02 -5.197452574118508473e-01 -9.356104297466081784e-03
8.159811930129500651e-03 -1.583473508571069804e-02 1.060379349730256049e-02 -8.861195155116698141e-02 -5.359642641724534640e-01 -9.081467938991253860e-03
8.298790382141294636e-03 -1.566205036207301074e-02 6.170200840949824350e-03 -8.660694043225443395e-02 -5.421073422282820520e-01 -2.972152716417378153e-03
9.292553134450154406e-03 -1.062788980760295994e-02 9.908371449268427167e-03 -8.373301725393447748e-02 -5.241681202941163020e-01 -2.907439603342630140e-03
9.448020307462470097e-03 -1.323138532317746745e-02 1.389098791156395674e-02 -8.538525317537470904e-02 -5.202916646738804385e-01 -1.016535302624151484e-03
9.223430340362357566e-03 -1.325856869995156728e-02 1.219702623825996701e-02 -8.842267543129628260e-02 -5.186661558829283036e-01 2.346605715565585823e-03
7.792526965492457824e-03 -1.643080916783182938e-02 1.674835327792073558e-02 -8.554396916539669382e-02 -5.405450705195758987e-01 6.530949744965645030e-03
9.719133976095122723e-03 -1.315153940144500426e-02 1.145344013468707622e-02 -8.735005700664216777e-02 -5.355414674466412173e-01 1.049141992053018342e-02
9.675515415670438157e-03 -1.154709418345626487e-02 1.192105191496217742e-02 -8.982122183898831602e-02 -5.357386073869789822e-01 2.629907499856566199e-03
9.750820493917893017e-03 -1.252938567036329144e-02 1.457809563392736818e-02 -7.577573540173973554e-02 -5.425544672975303184e-01 1.166386785573896544e-02
1.100816707686085374e-02 -1.070948200347622038e-02 1.497531118639561232e-02 -8.322873401561646511e-02 -5.338877232107540616e-01 8.786732813972006340e-03
1.253593620125275157e-02 -1.016156719946130667e-02 1.490382033554171759e-02 -8.578278254966088812e-02 -5.323352680507134060e-01 4.716598929928963492e-03
1.285194011367354200e-02 -1.240297623596875801e-02 1.411926327587248453e-02 -8.596951516704737228e-02 -5.284032845558910285e-01 1.092417632018070558e-02
1.282488427346361454e-02 -1.318981578508512421e-02 1.409695727504517437e-02 -8.706387800136870803e-02 -5.293071700508569233e-01 8.792000380432310122e-03
1.069520353157766765e-02 -1.479369123699992260e-02 6.737615609582636722e-03 -9.888481932349051096e-02 -5.292823018440695471e-01 1.175332051663683514e-02
9.231711524307829875e-03 -1.492046092761837271e-02 7.719146394251419352e-03 -9.596373496278223780e-02 -5.221961398663264031e-01 1.932296210594669841e-02
7.380051105390542099e-03 -1.236743009978996492e-02 1.057339425943393252e-02 -9.266984759986519882e-02 -5.299052896828325698e-01 1.050059215008755133e-02
8.729533041625645029e-03 -9.822165307282453711e-03 1.396320429410879971e-02 -8.762238067748980008e-02 -5.189511518142523316e-01 1.614630231587286732e-02
7.311360153136305107e-03 -1.052942687664647908e-02 1.428497608765294524e-02 -8.782309922345350739e-02 -5.166390592632483791e-01 1.268547481487638205e-02
6.793188638659283796e-03 -7.970873064293478374e-03 1.422732967215267763e-02 -7.882545539110288879e-02 -5.142940212396126531e-01 1.953283429194305892e-02
1.008699192252179855e-02 -9.651440056117174121e-03 1.406044543913126388e-02 -7.882764261110081216e-02 -5.233289910999947558e-01 8.455656002501522189e-03
6.919014752963442705e-03 -9.004126997288914094e-03 1.658736458572540595e-02 -7.855193877444022199e-02 -5.269860279540804493e-01 4.010039969476482564e-03
1.266095725907455741e-02 -8.674069452355121640e-03 1.319390549249016553e-02 -8.399786720555622865e-02 -5.431819814811326141e-01 -5.397939829169188641e-04
1.253468080017428390e-02 -1.164650616892262507e-02 1.220570505771817471e-02 -8.641625975833917839e-02 -5.481125263599210262e-01 -3.064482293429943421e-03
1.118427602274990953e-02 -1.597094683385696934e-02 1.103456076474917946e-02 -7.711338676425165406e-02 -5.391301650658482103e-01 1.440080599510814088e-03
1.136433683272003795e-02 -1.304433607683817831e-02 1.645614284052632215e-02 -7.401550339176637960e-02 -5.131331651008472772e-01 -1.792973266224983904e-03
1.212795230724654852e-02 -1.430610770463837042e-02 1.977918742070716718e-02 -7.752188735182839741e-02 -5.080097481177778818e-01 -3.910521269472156530e-03
9.829911155382831806e-03 -1.248008067057103376e-02 1.519285537584658119e-02 -7.029529631443687254e-02 -5.310113334522900130e-01 -6.428761244169504778e-03
7.727835850533631978e-03 -1.375007390489774509e-02 1.533492003329772757e-02 -7.354232377914622643e-02 -5.352878254204661568e-01 9.448181320158857916e-04
7.340773591083326471e-03 -1.220580543685322386e-02 1.014853451323788347e-02 -7.256139129234480400e-02 -5.326557231994871744e-01 -1.810496475826541560e-03
7.770324342306539345e-03 -1.073884818703850844e-02 1.351115565150429187e-02 -7.062097568797452707e-02 -5.254532892343796169e-01 2.364654660419819848e-03
1.105950983206376026e-02 -1.334134746734945420e-02 1.418958071234527329e-02 -5.746042102359465858e-02 -5.102867638007445583e-01 6.305956056190559732e-03
1.189627526813736083e-02 -1.395375672204565189e-02 1.780776325705624163e-02 -5.196845465829151578e-02 -5.156601682447465862e-01 7.220558122330439366e-03
9.358087327044541798e-03 -1.355591356470727503e-02 1.004997917541283758e-02 -6.520816875637945598e-02 -5.194542334976004483e-01 1.047530900811490494e-02
1.296619865663277416e-02 -1.453048194071917230e-02 1.670813693435313496e-02 -5.388928532870466276e-02 -5.159917594204171953e-01 1.673004597424579409e-02
1.073434897339197586e-02 -1.068923366395725834e-02 1.393121230458327364e-02 -5.585423176376442395e-02 -5.137530927340424602e-01 1.847080416958685536e-02
9.527089029715024582e-03 -1.098468342456982057e-02 1.750167721920187214e-02 -5.392760996983471389e-02 -5.173462483289219538e-01 1.460978159353876031e-02
1.118531004139817694e-02 -7.824228592220053291e-03 1.838370632890662382e-02 -5.500325493959873357e-02 -5.130149989579247949e-01 1.311661100593966220e-02
1.174602563832997243e-02 -9.137866729318553163e-03 1.680324679492717355e-02 -5.156231625622963166e-02 -5.178117573686782382e-01 1.943347377423917249e-02
1.282895398363958356e-02 -1.315156269578116911e-02 1.692679917628081565e-02 -5.437347186853562497e-02 -5.138541346012671651e-01 1.962763277426792657e-02
1.248531247517967874e-02 -1.586214136521263765e-02 1.172675807619233401e-02 -4.641159691084066619e-02 -5.188248726652573417e-01 2.233589520913305954e-02
8.637486220095882267e-03 -1.236626198437168651e-02 1.483204969700502307e-02 -6.318191715358918714e-02 -5.142592316226961557e-01 1.954169890150778133e-02
9.534048387256480184e-03 -1.094542493190095271e-02 1.181167060986842987e-02 -5.737383534148148001e-02 -5.154181905039629807e-01 2.150348685901343204e-02
9.458246243488940830e-03 -1.446921289477507734e-02 1.305563667620024404e-02 -4.273294908410156523e-02 -5.272011616406391266e-01 1.902722509971247616e-02
6.201211142315449232e-03 -1.088389155084165498e-02 1.059076559092375636e-02 -4.851977644854037902e-02 -5.301079256369277681e-01 1.524543660697048712e-02
6.155260760585160029e-03 -7.094949908719318243e-03 1.331299384225709259e-02 -5.530518409865645135e-02 -5.207942031571421992e-01 1.157806105969096111e-02
8.106028143148834297e-03 -1.028817557439745331e-02 1.222976363593947235e-02 -5.510129703467461088e-02 -5.127445940601861318e-01 1.518890893953972650e-02
8.914086716085241335e-03 -1.058541686545104270e-02 1.297117953510140698e-02 -4.544813838659865490e-02 -5.129112821294135038e-01 1.172862100131239795e-02
6.850553164362269132e-03 -1.349205292506891647e-02 1.479664505793709672e-02 -4.885671753453932342e-02 -5.144565129828082561e-01 4.576630618052189223e-03
8.094737794143044146e-03 -1.334556850153895136e-02 1.325009127459286784e-02 -5.780647410992749424e-02 -5.263450653115002709e-01 2.609049070495887777e-03
1.104663390417408991e-02 -1.291739032086960254e-02 1.629395778337244804e-02 -5.726038281582686296e-02 -5.203566402616834896e-01 -5.648064670194230356e-03
1.234388034869773540e-02 -1.152740184591280644e-02 1.468083937319542009e-02 -5.538073376533966807e-02 -5.154770354395851184e-01 -8.017135694485064829e-03
1.066458435946135430e-02 -1.476407991243895886e-02 1.813762007005559340e-02 -5.199835948355710502e-02 -5.181427088099780365e-01 -4.963865118227737093e-03
9.388779828268238592e-03 -1.290355832127067746e-02 1.668699421546088191e-02 -4.788446061070805726e-02 -5.099263455545736123e-01 -6.755692147344441109e-03
7.798810807737109607e-03 -1.555346736740244838e-02 1.256015801200366377e-02 -4.467467709284238253e-02 -5.355042504033874495e-01 -4.694267137897136649e-03
8.509343226714215919e-03 -1.656747881627276126e-02 1.788038388240120735e-02 -4.848478903395500583e-02 -5.227939356050024244e-01 -2.453536499419788162e-03
8.758610462330517626e-03 -1.746576053858155120e-02 1.393452214699775205e-02 -5.277990643778263102e-02 -5.170373359763004162e-01 3.968821694903261650e-03
8.030677361298040051e-03 -1.543983937212901024e-02 1.922215737245908107e-02 -5.206227110676318187e-02 -5.175036722197029482e-01 5.505799758303411839e-03
1.005982348351975447e-02 -1.055884238955340053e-02 1.414087242256828469e-02 -5.594539646149099960e-02 -5.191213142667128189e-01 9.728271661979877305e-03
6.913842072627057050e-03 -9.182803164150606101e-03 1.517573963804991211e-02 -5.276965484013272645e-02 -5.149131862676441518e-01 8.703379361222398150e-03
7.720149291939516767e-03 -1.283856351126430075e-02 1.493665518693992889e-02 -5.340374709356024430e-02 -5.245467339262056550e-01 1.377302251909776586e-02
1.110227365239806890e-02 -9.307467466868991207e-03 1.587116799670096334e-02 -5.802382559304843784e-02 -5.165078881146273337e-01 1.470694536115847717e-02
9.427882909405143480e-03 -1.091350275056870642e-02 1.583550980334252900e-02 -5.577422935311553837e-02 -5.184331846412806311e-01 1.506221061912701824e-02
1.207070963961726084e-02 -1.023609730770829764e-02 1.574079147216317365e-02 -4.805707613841006531e-02 -5.223560508891295084e-01 1.548196939115683429e-02
1.239839002144352276e-02 -6.423901952509079513e-03 1.541000257658836636e-02 -4.926484499015816587e-02 -5.084909639212545907e-01 2.382657386345856873e-02
6.009537478814930972e-03 -1.118324974273962776e-02 1.712180899766513331e-02 -5.839402012785497448e-02 -5.189729046607745033e-01 1.821891672023394360e-02
9.608018859911200693e-03 -1.304339145164060999e-02 1.860800060626505159e-02 -4.482204033134581933e-02 -5.213129384678087952e-01 1.600295616649997921e-02
1.224678055026966195e-02 -1.363591360190620841e-02 1.645460325805059298e-02 -4.622763006479273240e-02 -5.094994405564746698e-01 2.264791977749011642e-02
8.511524668870774218e-03 -7.081838958170513440e-03 1.298884808601241669e-02 -5.691967446535609043e-02 -5.124105298297281230e-01 1.825946987519187076e-02
6.708562135871141974e-03 -1.276963937474210470e-02 1.419792345994991267e-02 -6.026589061833480948e-02 -5.283327925048584284e-01 1.757400080907451853e-02
8.941280893942474967e-03 -9.942799148956210642e-03 1.396497487003184323e-02 -5.172016041718954099e-02 -5.176605881344056304e-01 2.374457021084080618e-02
7.219438297647668562e-03 -1.609077850658861136e-02 1.231600382322101117e-02 -4.809082385608531157e-02 -5.175103309015169906e-01 2.767048628570613691e-02
6.359354566569708905e-03 -1.300793117046666544e-02 1.510266655604491914e-02 -5.156364192399395807e-02 -5.224336293688537358e-01 1.914634777616879349e-02
9.961413309941553884e-03 -7.776688753408526888e-03 1.001723763199557915e-02 -6.611578710165350037e-02 -5.020219177317294390e-01 1.456334962823483369e-02
7.184031730037468422e-03 -8.065138007758668182e-03 1.449705523351774161e-02 -5.195350156077541137e-02 -5.146825585728215247e-01 9.166839655544245166e-03
7.040240397683226320e-03 -1.345959053699351086e-02 1.598640289041269869e-02 -5.445741841587845716e-02 -5.158056736647007590e-01 1.776363733414264637e-02
1.261771763071866184e-02 -8.985983292748590465e-03 1.245997023188605279e-02 -5.497399318016864267e-02 -5.153192633437334580e-01 9.566219804388891371e-03
1.072467043131395889e-02 -1.192143757593520231e-02 1.462711383474557536e-02 -5.489586094124227628e-02 -5.297020794422405698e-01 7.603909926802785400e-03
1.271622419558089689e-02 -6.643576586428969616e-03 1.531396567556747579e-02 -6.343269271827471634e-02 -5.053284824193611247e-01 5.727355740342859013e-03
1.059646215655047144e-02 -1.030756039965863291e-02 1.674603665712653955e-02 -5.874721734188672467e-02 -5.093805173508462181e-01 1.256967774676796563e-03
7.244263331969161279e-03 -1.186462873936646074e-02 1.528634923729527140e-02 -4.995843489044403396e-02 -5.159545567887361406e-01 1.789913663755595590e-03
9.616992255364692488e-03 -1.228379719520480799e-02 1.777079377500140334e-02 -5.357458382830661281e-02 -5.017264055281084323e-01 -3.985540113977036015e-04
8.409653662199961105e-03 -1.556639229838603471e-02 1.507039071401661268e-02 -4.704481696055532597e-02 -5.133176639607971437e-01 3.484450789427746310e-03
9.483782059543460069e-03 -6.784255891410535116e-03 1.389832307369792685e-02 -4.892891242641590061e-02 -5.093499978460489519e-01 2.174633607267851924e-03
1.105768639150596713e-02 -1.262907878664866826e-02 1.432392898473822118e-02 -5.500557803202939244e-02 -5.125049606151570458e-01 1.107411303908812684e-02
1.323709587016808770e-02 -1.399588654906695762e-02 1.416369783616638900e-02 -5.278573631425848706e-02 -5.216473385988049660e-01 1.287470652834340687e-02
8.225499434696022932e-03 -1.149611550012475877e-02 1.517062414455844221e-02 -5.307413077060088580e-02 -5.045499883578917766e-01 1.339625506356966617e-02
8.167387547327497471e-03 -1.431644146144587550e-02 1.824559712058443361e-02 -4.084570722975231633e-02 -5.130068745444710254e-01 1.307916767786435411e-02
6.083855967841809292e-03 -1.164028927722554445e-02 1.582838089553462169e-02 -5.661195976283214804e-02 -5.330755966479522323e-01 1.683270465796189025e-02
9.839343457561048473e-03 -7.071065174467528608e-03 1.029860752860878303e-02 -5.788527637335346560e-02 -5.212681750757982568e-01 1.863284049473837301e-02
1.108647254471933907e-02 -8.844355150596026893e-03 1.138068601468467111e-02 -6.101953641886823099e-02 -5.170830504657560889e-01 1.825179259319677227e-02
9.176413363425381386e-03 -1.266678047148655714e-02 1.525984039568689665e-02 -4.767902874272111902e-02 -5.156049007096197290e-01 1.883079463087920444e-02
9.462457266033397207e-03 -1.203681275958138133e-02 1.341613304248490124e-02 -5.210817843646054631e-02 -5.315230720344793491e-01 2.307043161075324547e-02
9.777296115114287450e-03 -1.260257698885057509e-02 1.120544939303974585e-02 -4.986725693492377598e-02 -5.288551204048387300e-01 2.137684606633109483e-02
1.277333944467885091e-02 -1.121215727239682249e-02 1.580663858265257682e-02 -5.072437002067461953e-02 -5.129955009499372887e-01 2.118686654278215814e-02
1.144158459533049441e-02 -1.134685399752755758e-02 1.574450878915473195e-02 -4.499321681081226015e-02 -5.202083429017595462e-01 2.066263173314835527e-02
1.201776383883665714e-02 -1.058090330021457456e-02 1.260052310111886564e-02 -4.875663933287284479e-02 -5.320554989976251647e-01 1.597591152425029831e-02
9.127879924074547985e-03 -1.040525218827547879e-02 1.345251387909163210e-02 -5.821011671406967763e-02 -5.303561767419366912e-01 1.999545130741439691e-02
9.284973566590890709e-03 -9.792782154120894741e-03 1.208351110788913330e-02 -5.281295847891417233e-02 -5.394678367311199763e-01 1.789488560710018883e-02
6.701402369101015777e-03 -7.105498766872993949e-03 1.391840420960877012e-02 -5.730392811236630080e-02 -5.294262378972500738e-01 1.977249193758019719e-02
7.429335412794370319e-03 -6.164761192145028559e-03 1.173038607882342932e-02 -4.407963561059934088e-02 -5.301521896262423317e-01 1.965000092606098911e-02
9.322742420943327252e-03 -8.435881432241712150e-03 1.253545203651179607e-02 -5.224568570713093718e-02 -5.169996286179968648e-01 1.499785056816516950e-02
8.205947016497783936e-03 -8.258372553639568153e-03 9.489052615687332271e-03 -4.893060683551735818e-02 -5.296142464211757162e-01 8.190298198808751082e-03
9.684216275579072414e-03 -1.475280256635901240e-02 1.404801781503534075e-02 -4.631113244280084251e-02 -5.220976064329153621e-01 1.272998977920101679e-02
1.044318835379273724e-02 -1.150030643299418745e-02 1.299713099149385487e-02 -5.548625864692701554e-02 -5.288102956312031866e-01 7.523251061170648304e-03
1.162735964972639799e-02 -1.072638444637129609e-02 1.389508693576030351e-02 -5.261816829926562605e-02 -5.216873434351879668e-01 -2.159787594725049841e-03
1.071660756241413215e-02 -1.028163410707064532e-02 1.324455987020245473e-02 -4.907755461795652169e-02 -5.109079408513053089e-01 -5.551204759393173899e-03
9.339550195844349700e-03 -1.024399528579351612e-02 1.404350823716860042e-02 -4.075691315404296466e-02 -5.025815076847367502e-01 3.875656282158321340e-03
8.566188665775194278e-03 -1.285103882818823366e-02 1.592857497420496760e-02 -5.195297252030801893e-02 -5.096477324061439163e-01 9.759657405181143552e-04
9.961119173246841402e-03 -1.221779466921600783e-02 1.489537009951608093e-02 -4.668940256862357668e-02 -5.104661047934538898e-01 9.409944059993114373e-04
4.876536477105727213e-03 -1.251594926578307974e-02 1.428245042370190898e-02 -5.026718781010527937e-02 -5.216252506725433946e-01 4.059977064834508625e-03
6.115007811333054988e-03 -1.283119195420023666e-02 1.666499202665977508e-02 -3.665397307989038539e-02 -5.120856255433866577e-01 7.563159166400395921e-03
9.743103742149560043e-03 -1.517699504429750185e-02 1.512020855620138660e-02 -4.503529362228680250e-02 -5.257001331932841248e-01 1.020033662367361704e-02
5.634766094415571969e-03 -1.247497625680945091e-02 1.262290736264787272e-02 -5.164352705180985659e-02 -5.164987692921936269e-01 1.314889998501996178e-02
7.708155955330534687e-03 -1.617267435804220152e-02 1.595189119569206948e-02 -4.275155107036741203e-02 -5.169629588839901313e-01 1.796544558232819958e-02
8.087068475285476982e-03 -9.828273318375655918e-03 1.410257043559759449e-02 -5.535180488495730633e-02 -5.147662956958849456e-01 1.764316495178589253e-02
9.790670403438197361e-03 -6.671429115496464377e-03 1.216613636560320844e-02 -5.748682494365980888e-02 -5.090728323773423547e-01 1.669708502131372896e-02
1.000718249920657874e-02 -1.301065543522294220e-02 1.362788345576337878e-02 -4.382147493727816395e-02 -5.210382364726926507e-01 1.550349801939072091e-02
1.163680845734690536e-02 -9.486597864424078583e-03 1.436820109880077023e-02 -5.745563743754543429e-02 -5.109590253023287287e-01 1.688727347438802665e-02
1.028691911347995314e-02 -8.208994739373413896e-03 1.319292204430966287e-02 -4.180989632745103074e-02 -5.157205089569266709e-01 1.951888575766336231e-02
1.504038571501649380e-02 -1.165852108109426653e-02 1.147889457335582453e-02 -4.536150934667602247e-02 -5.168991504451396768e-01 1.713175092902866764e-02
8.567915895258529368e-03 -1.283214597950459689e-02 1.500789197753193971e-02 -4.766485558863108735e-02 -5.288553050714653869e-01 1.658467654887539264e-02
9.725190530611087930e-03 -1.430471793892775477e-02 1.813245479413694294e-02 -4.825192743461396289e-02 -5.065196526591397852e-01 2.464505707673805140e-02
8.237926116795166870e-03 -1.314371799577016865e-02 1.220443535539983415e-02 -5.354316754026897107e-02 -5.185689885183385472e-01 1.875400945467907421e-02
6.532143470331295415e-03 -1.063396557223868916e-02 1.240998929419268038e-02 -4.886389975651578982e-02 -5.185634885527874438e-01 1.967967969527185598e-02
2.445337739261043558e-03 -9.871079389469723450e-03 1.314796815846963618e-02 -4.767109276941584178e-02 -5.316154786802042009e-01 2.110663123889727072e-02
7.644555565429471400e-03 -1.502476318351403210e-02 1.150486350321650031e-02 -5.280944122363343679e-02 -5.168805144632782067e-01 2.312253137460639971e-02
7.771618765451793198e-03 -1.303500234919729994e-02 1.700173785001068971e-02 -4.893242175240382352e-02 -5.185130995271973742e-01 1.950562264357513440e-02
5.888565786689760329e-03 -1.253288063833941229e-02 1.264744602112055638e-02 -4.146371780307158555e-02 -5.250615633196547005e-01 9.893411644823329673e-03
1.106014124360498938e-02 -1.038660814291648450e-02 1.709329579254803555e-02 -4.448083668153371417e-02 -5.045801319721824330e-01 1.278417388656844303e-02
1.092198868435433068e-02 -1.458732938177492548e-02 1.519123732439697783e-02 -4.842691739988584654e-02 -5.104806586774454091e-01 7.130030051301845459e-03
1.270635139358768095e-02 -1.136081595303126482e-02 1.431469583720140770e-02 -5.987081274423179666e-02 -5.063564488606383529e-01 8.894823345583358423e-03
1.557752997473202394e-02 -1.301887724788313404e-02 1.211097049925569102e-02 -5.985124390773319258e-02 -5.102325731882931814e-01 3.693443799958152918e-03
1.134835375435981272e-02 -1.171464898046602372e-02 1.106878060421939702e-02 -5.143456169184624366e-02 -5.050436188233834445e-01 1.869693304421064220e-04
1.031720441933579868e-02 -1.177172367829410794e-02 1.367863446520273252e-02 -4.767197961405374856e-02 -5.159473620714923880e-01 -2.284441176136892734e-03
9.326586605700796367e-03 -1.587657624588207500e-02 1.293835770135504104e-02 -4.862394120925501301e-02 -5.096537423651997800e-01 1.587031238382779694e-03
8.531737055329391417e-03 -1.390235021739675940e-02 1.308073663834019573e-02 -5.027296313669613742e-02 -5.221558269282351450e-01 1.261778433150752916e-04
6.542218300706049289e-03 -1.155574287763398190e-02 1.514315649162811805e-02 -4.627437919545094452e-02 -5.182848572147992217e-01 1.643411981698188239e-03
7.706811293269531099e-03 -9.866759302937592666e-03 1.521965873916653056e-02 -4.873195079231621568e-02 -5.161965687172465067e-01 3.742006094247126140e-03
1.063756710568715402e-02 -1.165119637732759360e-02 1.190917474897751349e-02 -4.811573866871826644e-02 -5.125566739379516790e-01 9.710180569003875814e-03
7.262347371262450196e-03 -1.346045510071939774e-02 1.167767908929578935e-02 -4.219831920374300660e-02 -5.253817976149015578e-01 1.062679195835970411e-02
7.564196364686848889e-03 -1.389322702681675473e-02 1.243540687392602484e-02 -5.070573269627902391e-02 -5.196977252806823655e-01 1.293564527170476715e-02
6.085520990007125403e-03 -9.997921168681849630e-03 9.167098494026859612e-03 -5.260952919210566681e-02 -5.314439323323614239e-01 1.409499410553589037e-02
1.037347529140178123e-02 -1.278708320942330799e-02 1.454872536823442752e-02 -5.215631394253601727e-02 -5.137459928070541304e-01 2.347705928679342732e-02
9.773146699958504269e-03 -1.455932041814616412e-02 1.618876447684081121e-02 -4.350345559542623253e-02 -5.244186925654761300e-01 2.669342531609358166e-02
1.310379205585267617e-02 -1.270585440478240631e-02 1.263080662598448090e-02 -4.794483374009422816e-02 -5.084408839993133089e-01 2.155074428956894883e-02
1.182259486012581656e-02 -1.283175131615988361e-02 1.568682333354087799e-02 -4.874767886442255699e-02 -5.112286105232316524e-01 2.079269865837033576e-02
1.274885794934092417e-02 -9.825863569851833040e-03 1.203611129323134410e-02 -4.513312783663703948e-02 -5.071518546689427476e-01 2.232474925891179268e-02
1.070204541968311843e-02 -8.372918946574716206e-03 1.053664089851374941e-02 -4.771393393118476128e-02 -5.230647927575224898e-01 2.299268844342985257e-02
8.217319264356495734e-03 -1.233199176950917908e-02 1.080289310437476669e-02 -4.742473785471060244e-02 -5.275072055616627509e-01 2.692820933573467773e-02
8.415483415768722913e-03 -1.221134344413111507e-02 1.382870052831425278e-02 -4.812453003300098953e-02 -5.206811483180877609e-01 1.994963987362054908e-02
7.701144368150447672e-03 -1.024368121614612805e-02 1.602940246389561452e-02 -4.906086847041593590e-02 -5.125436860286503027e-01 2.447873595266869540e-02
6.524591839917080055e-03 -1.465393105781895647e-02 1.788570905399761157e-02 -4.156654328471282023e-02 -5.235280534399074925e-01 2.400744738561111022e-02
3.528939992064824421e-03 -9.231502778841089649e-03 1.780064585149687684e-02 -4.534119685362198587e-02 -5.198883124723566729e-01 2.612696350305678678e-02
6.148856682028001203e-03 -8.634243028977448692e-03 1.340585032992192005e-02 -5.358196248925603533e-02 -5.200382866329709142e-01 1.728553560696266533e-02
2.612245412761164676e-03 -6.542508946776392359e-03 1.348642372097158537e-02 -4.677699988967730371e-02 -5.167171973863150525e-01 1.261974922276123089e-02
9.051672582913106863e-03 -8.770961845558353231e-03 1.487215625305765565e-02 -5.436233862462037936e-02 -5.111030744848680252e-01 1.107865439812872645e-02
1.267197812346757685e-02 -1.269843175917612782e-02 1.587160773650148071e-02 -4.509930982168826319e-02 -5.025392436040483357e-01 9.045338217019220292e-03
1.248876150272664257e-02 -1.432319418891823959e-02 1.163569366671041161e-02 -5.066461325123581411e-02 -5.291611747044254743e-01 9.056135450855887226e-03
1.203922301647295315e-02 -1.476866367053811767e-02 1.053424068542885284e-02 -5.488084440417483750e-02 -5.230181320417029989e-01 4.529870977930160539e-03
1.183144439018224761e-02 -1.420572703288643102e-02 1.721627979889001070e-02 -3.761821881924112820e-02 -4.962852150877398172e-01 4.285272042197547124e-04
1.064132856992082432e-02 -1.682615331378854717e-02 1.109134945825357432e-02 -4.914511424148069324e-02 -5.269206436895860213e-01 9.421112720141976149e-03
1.086188869268357379e-02 -2.222382097426928160e-02 1.688794992790015881e-02 -4.555001714719413702e-02 -5.212540467794068988e-01 1.165360726990719714e-02
1.061512570597054200e-02 -1.259313986898274486e-02 1.484861352343475049e-02 -4.209082792224684566e-02 -5.163801797656891734e-01 4.565994805385806959e-03
8.510112029222683533e-03 -1.259060113542838540e-02 1.252693605319998849e-02 -4.410051272380324794e-02 -5.351292553089321835e-01 4.245552410720772156e-03
8.973097014433981111e-03 -1.005953559212308460e-02 1.112381482461954896e-02 -5.508664530551089095e-02 -5.179890746821778080e-01 6.386704102791758604e-03
7.792077703569030844e-03 -1.215020783886219986e-02 1.559752023687721589e-02 -4.597755965249505222e-02 -5.286992456083111636e-01 7.194787384334018834e-03
8.048411723173151677e-03 -1.239687242155156771e-02 1.304083610344303201e-02 -4.689539736021962335e-02 -5.445438245129643473e-01 9.906384297261787084e-03
8.268433539589850612e-03 -1.351433458385679735e-02 1.232997044533212794e-02 -4.792829903179618434e-02 -5.430283775985786932e-01 1.378565629302258393e-02
9.735909982644796318e-03 -1.245127267729013998e-02 1.498459537394303265e-02 -4.590961235467896223e-02 -5.318483514593504990e-01 1.743381898043943473e-02
9.917580395780122710e-03 -1.232816568500683108e-02 1.459941193348435196e-02 -5.402828568865408743e-02 -5.105079516510674376e-01 1.499901189014140636e-02
1.285595191487957228e-02 -1.194094387694372150e-02 1.232655919122066512e-02 -4.408421808787494484e-02 -5.310245641690016782e-01 1.747273965987982194e-02
1.125703686078594057e-02 -1.252990625346997802e-02 1.253015359782677640e-02 -4.409144297968969201e-02 -5.246898144669980280e-01 1.568948058665111528e-02
1.012711893776232011e-02 -1.041576984542216117e-02 1.112218390674829527e-02 -4.866823104092970337e-02 -5.072944839144941653e-01 1.490632613108026222e-02
1.164329808989476508e-02 -1.046037562326565355e-02 9.540403489543103355e-03 -5.086489612604735977e-02 -5.266221905399176562e-01 1.456909787647321132e-02
1.116198064790479422e-02 -1.168867463318365614e-02 1.130678608620871994e-02 -4.020805143665446418e-02 -5.210625138230770004e-01 1.412486337433577904e-02
1.145133913048002744e-02 -1.584316319054915323e-02 1.356280137055887458e-02 -5.346223099605076218e-02 -5.284613537825300078e-01 1.968631404250299755e-02
5.867748740139254460e-03 -1.258787457172685052e-02 1.301896030757254685e-02 -4.816604924281832345e-02 -5.191603761765762881e-01 1.945044598670184893e-02
8.422462180550274735e-03 -1.130658655730623803e-02 9.511952602403173085e-03 -5.114077230131400253e-02 -5.337071288691852544e-01 2.272050922286931313e-02
7.609524756862103695e-03 -8.989775748569650907e-03 1.472367128151369498e-02 -4.545719446653716939e-02 -5.258389754259790161e-01 1.806177338099006213e-02
8.816016101158868912e-03 -9.918352652762084040e-03 1.347193284691949877e-02 -4.647640956284026376e-02 -5.221014844027737078e-01 1.447720247542049095e-02
8.224137098547714547e-03 -8.302503497727197271e-03 1.255898979616748568e-02 -5.180996198667353614e-02 -5.145899566167173589e-01 1.853167976375067957e-02
1.015096295022452355e-02 -1.051463590490100269e-02 1.303314372118191677e-02 -5.633799070497137740e-02 -5.249307996095279316e-01 1.569720919277036927e-02
1.060763200264831438e-02 -1.333815056804762457e-02 9.564302877016206406e-03 -4.485530828077732846e-02 -5.175247356722060266e-01 1.479650102958987579e-02
1.006855006871618108e-02 -1.715392595928358702e-02 1.292461823175250490e-02 -5.685145018141150863e-02 -5.208217967594561681e-01 1.798028328848734481e-02
1.464537548526999647e-02 -1.370316827900637351e-02 1.423484665094437718e-02 -5.472930748968957843e-02 -5.124420743136077760e-01 6.745881835298877388e-03
1.468584061350071412e-02 -1.374425432978525034e-02 1.367791236742932348e-02 -5.140539933691358476e-02 -5.123649520256309264e-01 5.931883599174151041e-03
1.162786095861887206e-02 -1.428169236968666704e-02 1.582619782811095499e-02 -4.657534037406511895e-02 -5.104380535431825017e-01 2.392504682633113389e-03
8.951250840361722055e-03 -1.625438081107676014e-02 1.844011870534767450e-02 -4.672030811972159581e-02 -5.033289913959511086e-01 4.248490968214475340e-03
7.765341258620332004e-03 -1.615642322472056469e-02 1.199108828910933067e-02 -4.376093571300715412e-02 -4.966297326246534860e-01 3.927711795299250463e-03
1.414751411471000878e-02 -1.605507981784160682e-02 1.453908681417342974e-02 -4.035088140636299003e-02 -5.199578980975047005e-01 6.526566211493645651e-03
1.160832661134672192e-02 -1.550709538043549413e-02 1.858151593818790914e-02 -4.514686858526643226e-02 -5.006962883007095577e-01 2.318414913335789789e-03
1.018734755115300109e-02 -1.325294747563727539e-02 9.263700464781476906e-03 -4.724170811142799214e-02 -5.222816675887355098e-01 8.003363825825005051e-03
9.755474531312632869e-03 -1.244582443596275664e-02 1.224835774347693418e-02 -4.687702268584680032e-02 -5.207720390517236453e-01 8.888710003766855938e-03
1.066149812151520604e-02 -1.170428157509479337e-02 1.246585646020431648e-02 -4.592095433949989342e-02 -5.212711999432633192e-01 1.245242930268668051e-02
9.658375778394154981e-03 -1.143155850333389852e-02 1.237009649037790204e-02 -5.261961809440755811e-02 -5.214153403915466889e-01 1.386346015451836271e-02
1.208506740925718859e-02 -1.281705283252661948e-02 1.634446781474890864e-02 -4.707344650289326665e-02 -5.099137915018000511e-01 1.522223222025129510e-02
1.126367306249183298e-02 -1.150860213453890578e-02 1.609805905368005829e-02 -4.912015143318026328e-02 -5.029919442421532105e-01 1.547765613519693981e-02
1.301820812941785824e-02 -1.168023249123019414e-02 1.597561330650365541e-02 -4.730735616252870063e-02 -5.015091702352629799e-01 1.676480948824226463e-02
1.272569092452157866e-02 -1.221648316783786881e-02 1.743157000154199610e-02 -4.976417705649233136e-02 -5.131553165934181759e-01 2.202709964863038689e-02
1.296124281872588352e-02 -1.578874028339296784e-02 1.130935519619102880e-02 -4.489380093357121099e-02 -5.222240884623181589e-01 2.009369659028522812e-02
1.183165259273014774e-02 -9.850641486167432959e-03 1.205489291560396525e-02 -4.732892405827374138e-02 -5.255447065755878278e-01 1.526799078032336013e-02
1.375265045149141191e-02 -1.620410782409443390e-02 1.574520793300743238e-02 -5.048935254761435093e-02 -5.099789221103433468e-01 2.096971004725562207e-02
1.007758753943538421e-02 -1.573970143155552920e-02 1.436399408790611787e-02 -4.316731919960442587e-02 -5.077109739235576846e-01 2.303821149386642286e-02
1.047621806857609861e-02 -1.636339803495384659e-02 1.327827808645676289e-02 -4.282046171340587321e-02 -5.294752418721907494e-01 2.446417871192375915e-02
1.177374678053207113e-02 -1.569686659037744861e-02 1.350226367923856863e-02 -5.035027700306747567e-02 -5.112833100379695628e-01 2.086149674194182069e-02
9.133195143439774150e-03 -1.312434215082919180e-02 1.538665629221830367e-02 -3.307723243664153351e-02 -5.180873094743557727e-01 1.909068998704384693e-02
8.330115357339507726e-03 -1.119479900180264838e-02 1.777049852345968795e-02 -4.527249560853096461e-02 -5.165816347527003582e-01 1.477882910858327112e-02
4.200171100010825082e-03 -9.453047829964445273e-03 1.254195479223590981e-02 -4.200207070772152967e-02 -5.212216020237495639e-01 1.099063845431658484e-02
6.993060987184614163e-03 -1.068655990547497971e-02 1.188201938007882319e-02 -4.303692527320544803e-02 -5.228651076735334469e-01 1.685725087046291426e-02
1.214540404799575174e-02 -1.280956816100676902e-02 1.733563873595594940e-02 -4.310115842593485735e-02 -5.047718212608856003e-01 1.409184889350420695e-02
1.243667477288145154e-02 -1.046246660257222141e-02 1.431234769965389342e-02 -4.225971549560317980e-02 -5.177780827696499832e-01 1.025901882514888321e-02
1.112374726100565092e-02 -1.145855558461686755e-02 1.308581281444387567e-02 -4.164791410097705426e-02 -5.202805952109983423e-01 5.737189593686541945e-03
1.003952706838457873e-02 -8.718323031265528406e-03 8.422524109949203197e-03 -4.813610954458314578e-02 -5.193952538478640024e-01 -1.782853527120414634e-03
8.011623546348174002e-03 -9.704914131938417038e-03 8.101537453918727927e-03 -5.568338136364742869e-02 -5.188607711113021326e-01 -3.007603809078824089e-03
9.368118894266596469e-03 -1.391563332781275107e-02 1.255082528067885672e-02 -4.746653920997909171e-02 -5.054762345173727800e-01 2.361893941344918100e-07
1.070875798063245996e-02 -1.499368069545271853e-02 1.402274159100097561e-02 -4.857936455377642043e-02 -5.124664354342663986e-01 -2.409895882250853732e-05
1.079603468607859620e-02 -1.328456326339886098e-02 1.056474371511306742e-02 -4.536473861009014674e-02 -5.322346189360926960e-01 -2.177258041718463757e-04
8.306381840277963363e-03 -1.148614467384857611e-02 1.157995234771003190e-02 -5.128042194711313756e-02 -5.109447661086342629e-01 1.294188455607136155e-03
9.405818503980832579e-03 -1.115878329281945122e-02 1.609874185063603358e-02 -4.619833227564513339e-02 -5.121185024262908669e-01 -1.155258143963758602e-03
8.299495249374642947e-03 -1.096571356783589309e-02 1.680591422018096193e-02 -4.780949306827834283e-02 -5.204682993010177894e-01 1.383847673780166758e-04
7.235318015190742025e-03 -1.392784396180501982e-02 1.846021325061203422e-02 -4.642879414205675070e-02 -5.151007928964340676e-01 1.046784308632141280e-02
1.087670516975163329e-02 -1.307527437202928369e-02 1.746633161366278886e-02 -4.334272388920526464e-02 -5.108713266201008185e-01 1.192415726060674572e-02
1.156050514831647238e-02 -1.324589098302743871e-02 1.681477871487613296e-02 -5.281052696115785816e-02 -5.063001146823575827e-01 1.218756873172681041e-02
