4.096283055231698944e-02 2.468437484398990772e-02 -1.749200012877849542e-02 1.789273305929406643e-01 1.591034023028692901e-01 -4.357270515627775093e-02
6.431134887970893499e-02 2.658960039680884763e-02 -2.942284205081946435e-02 2.344600919981469356e-01 1.409961019430958085e-01 -3.377774938236009078e-02
7.565009195424042543e-02 2.711937562638344970e-02 -1.808849442224719217e-02 2.975947823205635778e-01 3.837549918985903169e-02 -4.728415259549123562e-02
9.193264109775478587e-02 2.897767596049764804e-02 -3.991432000767680677e-02 2.460145273207575978e-01 6.412014897375635514e-02 -2.824563774198041513e-02
1.071290061947645089e-01 3.083646725690003879e-02 -5.497273069986613470e-02 1.904932641634054513e-01 -1.104246070372186424e-02 -3.923700664491503592e-02
1.277690437330061268e-01 2.968814535619221720e-02 -5.439683078419499385e-02 2.284749696045989542e-01 -1.399242111904356045e-01 -4.811764200452525037e-02
1.443039845847970404e-01 2.364809485109411677e-02 -4.791910794981263377e-02 4.946374662688071133e-01 -1.891175314656459439e-01 -2.019268606854511192e-02
1.580325165327381987e-01 2.345014305203664551e-02 -1.532532360310767672e-02 7.058158114751962309e-01 -1.180281662584556635e-01 -3.531012558254555123e-02
1.749659025412448610e-01 2.899918255513894705e-02 -2.780387476510975953e-02 7.332547944022511643e-01 3.778352750941155191e-03 -6.070956509961606545e-02
1.986945419112239319e-01 1.777654456296076657e-02 -7.224509896507813611e-02 4.958538163701158852e-01 1.233679253197423331e-01 -5.030406764544387982e-02
2.201283302633704753e-01 2.613053546876172376e-02 -1.213321571136964927e-01 2.297343970001564928e-01 2.171713907500581742e-01 -5.167364042097136179e-02
-1.544003078023956088e-01 2.938260848319162663e-02 4.489995078078212742e-02 -7.460613291622383847e-02 2.200622397243306161e-01 -6.023848031343702336e-02
-1.399910499593287894e-01 3.450295324300142741e-02 5.739221149989365278e-02 -2.182079331032985847e-01 2.926980933144197605e-01 -6.640965964611321437e-02
-1.179602813635358405e-01 3.733771882117381535e-02 4.898259539066940338e-02 -2.556527618111471556e-01 3.494505080345257642e-01 -5.629868195264266240e-02
-9.913797138673466347e-02 3.729789961516762758e-02 5.891516894501236390e-02 -2.799693759945598437e-01 3.221190445697427185e-01 -4.482860139159479396e-02
-8.838446532767531283e-02 3.996339235283569852e-02 3.652265568081097813e-02 -1.997658317505094372e-01 3.227830503026225539e-01 -5.871077392368884151e-02
-6.621491240452641314e-02 4.038839888830992458e-02 3.508607085535164760e-02 -8.604267763637028776e-02 3.459929019117758409e-01 -6.521518144684954055e-02
-5.104221257159213820e-02 3.553911420225357165e-02 1.073174774308066626e-02 4.248296337321493671e-02 2.765997464108895243e-01 -6.238317075753511964e-02
-2.906095119953440442e-02 3.946222555302343615e-02 5.658148331672996356e-03 1.165685211093303066e-02 3.920612368103841283e-01 -5.687400410350851310e-02
-1.113782703698461100e-02 4.211150192516685542e-02 6.625539747908526511e-03 4.859369354775606130e-03 4.302683587204843563e-01 -4.645542162735873115e-02
5.505643472401063748e-03 3.958932972847781923e-02 -6.669536753090010706e-03 3.617265053127933366e-02 4.685166752404182899e-01 -6.241511302378320580e-02
1.995021344074963954e-02 4.091656998879009827e-02 -5.909716487469462987e-03 9.249265148582097584e-02 5.241991020161886894e-01 -6.458081326322433202e-02
3.953274341510978201e-02 4.262479263806632362e-02 -2.133069352618871539e-02 1.018646194501505314e-01 5.350617103289847520e-01 -6.558167233305543797e-02
5.758649017704185746e-02 3.877113896287029404e-02 -2.801898502762345533e-02 6.205674683861620022e-02 5.268581345890183121e-01 -6.207081823387849973e-02
7.714833353169239794e-02 4.685709350318965905e-02 -1.745576611607335682e-02 5.297363027715974032e-02 4.567529031420367591e-01 -6.821271963406101702e-02
9.369557063737864178e-02 4.259460360773256044e-02 -2.812907414993287558e-02 5.395646660883585133e-02 4.317426981652546791e-01 -7.760339624329139208e-02
1.139871082647230943e-01 3.856688914031542598e-02 -1.753468742698777172e-02 1.592344562019308296e-01 3.887297407149146178e-01 -8.274856266087431134e-02
1.342609283648341922e-01 4.280155338775362694e-02 -2.205237027787998461e-02 2.274941300719088844e-01 4.318598769456623021e-01 -5.876344402302343534e-02
1.522944786073165968e-01 4.128316502741759264e-02 -1.575260010027473845e-02 3.681449229703123160e-01 4.757266042941379336e-01 -6.182963638296408437e-02
1.685130550122494186e-01 3.521642242039409176e-02 -2.547706983902214839e-02 3.423182314002274906e-01 4.621734918106429890e-01 -7.046628855565496841e-02
1.886912947622201853e-01 3.697852033115833770e-02 -6.122018132974083038e-02 2.289306326772435340e-01 4.596620839031657080e-01 -7.237721973720713520e-02
2.091385705782871640e-01 3.836079587113279399e-02 -6.197752056178423841e-02 2.367202699184645098e-01 3.912242151767750253e-01 -7.255654364223729225e-02
-1.810238573259343453e-01 3.189196588200974430e-02 5.827461507809672536e-02 -4.820552987050032434e-01 7.866353915696889798e-01 -6.688434158508346772e-02
-1.583854301983312896e-01 3.497134890884801700e-02 4.886358765292064810e-02 -4.218481396288857876e-01 6.766332940812695984e-01 -6.267055247072757240e-02
-1.388284111950464639e-01 3.444880878007779146e-02 3.044137672105551307e-02 -3.923916717197872828e-01 6.453595835679533099e-01 -5.072437435568734332e-02
-1.213773009017444643e-01 3.331237394699520377e-02 5.021058486197360615e-02 -4.996650502239255998e-01 6.182169228260749883e-01 -7.019878255946278289e-02
-1.033463989560078761e-01 3.791247836114862435e-02 4.381529429868968872e-02 -5.329066781475542136e-01 6.191365552992155186e-01 -7.334771226270934974e-02
-8.093291485274710373e-02 4.163354870284484421e-02 2.761969413418730035e-02 -4.873297692301279960e-01 5.791697047578728830e-01 -5.501267251398327118e-02
-5.965639528456521956e-02 3.873641720439983255e-02 3.634623120373170480e-02 -4.451637334496502119e-01 5.783543864860843930e-01 -4.660397837715574143e-02
-4.259118561669469200e-02 3.726228051303780153e-02 1.532158665328609004e-02 -3.387457047149607381e-01 4.409130740434131779e-01 -5.843242869656057464e-02
-2.453421756811274834e-02 3.755489584919265850e-02 7.511482726071105898e-03 -2.998694585334184537e-01 3.686050782880495591e-01 -7.046195911093253161e-02
-2.146283252414993986e-03 3.528880174403092873e-02 6.299964440481364836e-03 -2.664259540183823161e-01 2.754414798557805466e-01 -6.869099797198359447e-02
1.937276276365860680e-02 3.885852229120039664e-02 -1.609171674861809009e-02 -2.690106873015793432e-01 1.965646874745608508e-01 -6.481598427447206323e-02
3.797486414008865996e-02 3.806838883583447963e-02 -2.919960518751485434e-03 -3.560161029587678994e-01 3.046028336874429532e-01 -6.556849214764262634e-02
5.277800074890146020e-02 3.941115316549077818e-02 -1.516261762174753169e-02 -4.191565607328397447e-01 2.856466994728835695e-01 -6.273831637616622547e-02
6.512750849931275843e-02 4.459141830547785901e-02 -2.866468648493081250e-02 -4.014754774853884767e-01 2.648840136619756147e-01 -7.167821061956719531e-02
8.974470537788147018e-02 4.224616192397334657e-02 -1.565808769479720697e-02 -3.876505411012952651e-01 3.047471067788985466e-01 -7.483899625957875223e-02
1.060475522609299892e-01 2.798982891747503476e-02 -3.134173828000719197e-02 -3.650049565920968631e-01 2.677083519154785374e-01 -6.758938031597373775e-02
1.281380038809295241e-01 3.198291846990709841e-02 -2.418364046569959624e-02 -3.750230689041532117e-01 3.174943239065257106e-01 -5.882771265511509140e-02
1.467280669622819667e-01 3.440715303445168044e-02 -3.100252550784421413e-02 -2.671181405769178507e-01 3.590606854959533800e-01 -6.549124690144766947e-02
1.604113592759728035e-01 3.080985837262505134e-02 -2.354987965966359731e-02 -2.467391629336820602e-01 4.628516430092582401e-01 -6.131413915251185398e-02
1.846523789680394045e-01 3.291016255827292070e-02 -3.983157741428605680e-02 -2.974001287906516411e-01 6.378192874958052982e-01 -5.715020062774704701e-02
2.033641935494780173e-01 3.272145214951219933e-02 -7.298976479411392604e-02 -4.200367192598287724e-01 7.011164004203815914e-01 -4.730665900738333790e-02
-1.743997203847173494e-01 2.027080365763366671e-02 8.644601408091812100e-03 -4.492494436722676010e-01 1.106928280018417254e+00 -5.291159591575406856e-02
-1.619730975586327615e-01 2.482258901051609054e-02 2.880930298985739935e-02 -5.947046877512984775e-01 1.133638647188842885e+00 -6.998114391238222098e-02
-1.440439998936967891e-01 3.152569677140502902e-02 2.602158185425224035e-02 -5.831990627510302838e-01 1.131040980292398634e+00 -5.837795044756072943e-02
-1.182008377045473957e-01 3.166274529285961759e-02 1.311055260201243744e-02 -5.180837872281777168e-01 1.167583043827598699e+00 -6.093433297672887911e-02
-1.011497534808613458e-01 2.819801431774534434e-02 3.494343026283375231e-03 -3.958512124638503549e-01 1.097578208714629078e+00 -5.647298621829252574e-02
-8.631236375826559226e-02 2.582254011657062615e-02 -1.903788522158428309e-02 -3.156290667289862739e-01 1.070932356101517380e+00 -5.529429105013624474e-02
-6.456897777716705256e-02 2.851357997306114972e-02 -1.376527909379454684e-02 -3.905089877712774049e-01 8.634178144365712848e-01 -6.539089499793640514e-02
-4.279301863208370693e-02 3.152510483724418888e-02 -1.363844318104046049e-03 -5.135138064815867320e-01 6.850536839745788864e-01 -5.525886250608259137e-02
-2.477291579651150211e-02 2.960552364714690715e-02 -2.311357897207377832e-03 -6.019444874648817168e-01 5.587675448591701288e-01 -5.957806949366267757e-02
-6.059255131292767826e-03 2.933876567415908895e-02 -1.606759456653394924e-03 -5.369642108062793184e-01 4.294856369208335800e-01 -5.163607881607681915e-02
1.231017119779372407e-02 3.291276197125381914e-02 -1.798295774843750028e-02 -3.069784154105389962e-01 3.636507524959852744e-01 -5.745284699461729316e-02
3.761804682543488931e-02 3.046149809754867058e-02 -1.245430884739828770e-02 -1.428001222492255029e-01 3.000585409430435169e-01 -4.613128956296939920e-02
5.596477715111781298e-02 3.118999273544896533e-02 -2.006494651118567729e-02 -8.529679857006813859e-02 2.884994129708819410e-01 -5.840883656204239743e-02
7.601790595916700644e-02 3.504291844369790410e-02 -2.819871238110538414e-02 -1.144853265665158604e-01 2.204672041528635829e-01 -6.099163608979792789e-02
9.194963059046826204e-02 3.817282581151926202e-02 -4.011053546188270147e-02 -2.465811202534675117e-01 1.917963018485359383e-01 -4.267188472187494891e-02
1.089406326160902994e-01 3.652546163942776286e-02 -6.034627207508391766e-02 -4.163908903337987799e-01 2.387565858561797871e-01 -5.852851428810638967e-02
1.288660113075183467e-01 3.902993741485699664e-02 -7.180773755336328223e-02 -5.599140986969587397e-01 2.751486591971463169e-01 -7.521117750734597485e-02
1.417789485869669908e-01 3.400223639498643757e-02 -7.190119237011538544e-02 -5.747864632531437534e-01 3.322802168167288683e-01 -5.745774987692184310e-02
1.617687315308906915e-01 3.273646422465670974e-02 -6.405400279229916949e-02 -5.164104186571383259e-01 4.102496198864029053e-01 -6.417380020469744262e-02
1.856829317747514252e-01 3.858205823015881802e-02 -6.817942931763537606e-02 -4.726919305565129847e-01 4.243600640495660548e-01 -7.202028044475622393e-02
2.036380820839736594e-01 4.006479490136517080e-02 -7.645383184318677028e-02 -4.806487000270854293e-01 4.440306765416577317e-01 -7.183667366884982641e-02
2.188770761164299528e-01 3.551277816602074755e-02 -8.928731234255510296e-02 -5.367615089417490104e-01 5.050204047736034374e-01 -7.245638566096995747e-02
-1.618623800910241328e-01 2.006154350576961481e-02 -9.269952141855794525e-02 7.359189247551319035e-02 -6.601171290289924339e-03 -6.239993286820294527e-02
-1.440706740813219588e-01 2.017560538477397927e-02 -9.934411310250679250e-02 1.070652926409268596e-01 8.843612786136577364e-02 -5.770964432824238211e-02
-1.309742018258930329e-01 1.707264003957425363e-02 -1.124796105769602927e-01 2.321874875253107096e-01 1.382523478881580170e-01 -5.234067718126082791e-02
-1.113281541819570869e-01 1.068955855182626875e-02 -1.250927273925445671e-01 3.549436161779456200e-01 1.591292384913449154e-01 -5.333749347582015382e-02
-9.645358040916665598e-02 1.111991902172662812e-02 -1.335718506900786251e-01 3.932782999772104215e-01 1.917584504441825211e-01 -5.961295543328071905e-02
-8.271226770417718088e-02 1.534767639873816161e-02 -1.277158013014086935e-01 3.421736119519289132e-01 2.036314006928300613e-01 -5.512313881201533899e-02
-6.467705907270705767e-02 1.072038370451986779e-02 -1.159143849999429710e-01 2.370805209577266093e-01 1.991845836104908785e-01 -6.081069091757143608e-02
-4.527596705959169299e-02 1.697400366809042466e-02 -9.686334257675369153e-02 -2.801674182441793448e-01 3.309530795432710781e-02 -5.995459382306659452e-02
-3.322875389341133079e-02 3.056306019238207508e-02 -2.014980140509053941e-02 -1.709856292139375400e+00 4.805665214253602990e-02 -8.354922326431639401e-02
-2.113426737338532785e-02 3.714733443937793395e-02 3.599333297007495380e-02 -3.188228364359491973e+00 2.148727526424639434e-01 -1.152473516222624339e-01
-4.274160049860330213e-03 4.125844555061823626e-02 1.745620530398528381e-02 -3.281331821810727245e+00 3.821057762272859759e-01 -1.316157013771258599e-01
1.770555128798658936e-02 3.756436139866226043e-02 1.086825176948585936e-02 -1.186277929883810867e+00 5.076655877148152779e-02 -8.629995479771739031e-02
3.241598451153895888e-02 1.591165357737035768e-02 4.000878457977707914e-02 9.535982851140921701e-01 -2.372763383518803060e-01 -4.503242411515572668e-02
4.698883843148304873e-02 1.252177076480442616e-02 3.909047188509884307e-02 2.123137576015206918e+00 -2.721790378659067478e-01 -2.373287504688068733e-02
6.101166335677060681e-02 1.038205186974886472e-02 9.216802870505741430e-02 2.353757599515227561e+00 -4.913517197274513415e-01 -2.697083637199864173e-02
7.615465671647118906e-02 1.070004260130383994e-02 9.678034971374382955e-02 2.773792539615916208e+00 -7.131858972134739183e-01 -2.498231819911716362e-02
8.601077999357319148e-02 9.376094262728904352e-03 1.185794072048515502e-01 3.105894609782062332e+00 -5.186378827194809693e-01 -2.010873170855053543e-02
1.087859103322381532e-01 9.797831804842515452e-03 7.846993131553531287e-02 2.514975964731425151e+00 -3.875306852458219042e-01 -1.051603300328519779e-02
1.257691753239638388e-01 2.392671318837060607e-02 -6.032303566295177388e-02 9.403740833555586098e-01 -3.488922995030010465e-01 -3.806493109922964857e-02
1.410261428277043427e-01 3.301347831101945907e-02 -2.529667956352930069e-01 -6.895233311547676047e-01 -3.830632663500548318e-01 -5.367814095319960871e-02
1.589145458205949157e-01 3.879765137393936802e-02 -3.247651226921609013e-01 -1.115651419635445007e+00 -3.702420940046535214e-01 -6.568475808046495001e-02
1.706538466552247613e-01 2.853090882517812440e-02 -2.479313582307534070e-01 -5.602657152634001880e-01 -3.250570862152577511e-01 -4.873336560191394301e-02
1.875560530992759212e-01 2.627073580591216678e-02 -1.098601336761656222e-01 1.855489521992069457e-01 -2.196804692210307108e-01 -5.237355511471617625e-02
2.008464922702666022e-01 2.814272327477040578e-02 -7.029186136080789460e-02 3.887754071549374135e-01 -1.473841099763864848e-01 -4.683977648081757983e-02
2.170659125348805840e-01 2.381592159507585349e-02 -1.159047661907038063e-01 1.623849382442392741e-01 -1.035016134933807452e-01 -4.737391830737366916e-02
-1.858225979099942249e-01 1.589442822965475566e-02 8.760208261186874790e-02 -6.662632772561823125e-02 -1.149703266236311826e-02 -4.378095683151869005e-02
-1.727537036449066921e-01 1.810114636776513283e-02 7.913889072180768647e-02 -1.419796952167545201e-01 -9.023658744815070409e-02 -4.983329760204866649e-02
-1.551946670649479720e-01 1.748641760595630312e-02 6.066231621158968412e-02 3.849236873934538256e-02 -1.030994895433510333e-01 -3.951638097932408389e-02
-1.375160289831812432e-01 1.951266317198952632e-02 2.604840329457436265e-02 2.274900440349260367e-01 -9.883087029153941883e-02 -4.003938390497412819e-02
-1.222618473221980945e-01 1.480244113561221715e-02 5.245166228221631588e-03 3.537140502849895896e-01 -4.750564413196582680e-02 -3.693821116407304539e-02
-1.073115167457332486e-01 1.674325250762553896e-02 1.766445213058243091e-03 3.652657839110143856e-01 -5.327105392053429166e-03 -4.655990914589096252e-02
-9.410480178274857610e-02 1.564831549135293695e-02 7.127353436485850402e-03 3.043830549064320823e-01 6.488617536991486690e-02 -3.967196648942099974e-02
-7.615572126993627733e-02 1.834838990776506418e-02 4.231533307304136127e-03 2.601399559925507976e-01 9.219317722436022600e-02 -4.391459190307483995e-02
-6.195499958901289073e-02 2.257030301718077753e-02 2.830139741892723215e-03 1.998917411110746056e-01 1.174853370875856978e-01 -4.407033016656148466e-02
-4.717704080104280495e-02 1.968804865043917440e-02 8.359377194092187935e-03 1.579857125707820054e-01 1.456698357932664500e-01 -3.778432278161957675e-02
-3.002885213039396123e-02 1.787779980376356243e-02 5.658735815894988530e-03 1.260663413520429488e-01 1.224966135788499583e-01 -4.472308791186796473e-02
-1.673410154962506891e-02 2.445753417274157751e-02 -5.068300662021074654e-03 1.184592080859161733e-01 1.454781519228119102e-01 -5.392084124900212855e-02
-4.364150507484725050e-03 2.144716044869581645e-02 -3.896932397701224904e-03 1.778143705321673651e-01 1.370325444370009971e-01 -4.809094294567668737e-02
9.434198709367069835e-03 2.438251597340465940e-02 -1.540590133902491887e-02 2.274433027158977161e-01 1.412103155682813416e-01 -5.575802053834358341e-02
2.342569642918847228e-02 1.874087038807750391e-02 -1.839149389221100828e-02 2.481257516990457435e-01 1.669147542441851428e-01 -4.886573675611818185e-02
4.239649583898487395e-02 1.613732610156436847e-02 -2.351529039006139410e-02 2.229796700887582139e-01 1.499121183246139022e-01 -4.348245250109514931e-02
5.741649631844798068e-02 2.118823531762312889e-02 -2.875567172252629922e-02 1.858092075206186355e-01 1.503819745547287368e-01 -5.393343915636424762e-02
6.915450746471457633e-02 2.159627755871127569e-02 -4.151750176738261411e-02 1.061600634723286335e-01 1.847092221576717153e-01 -5.640918278546461218e-02
8.493616027393763313e-02 1.894797010572623133e-02 -4.858884780319144836e-02 1.696742686978459577e-03 2.183447786777217015e-01 -3.942612276871330923e-02
1.004487455573809945e-01 2.005937881335149650e-02 -6.371606150058028994e-02 -1.272777294709389606e-01 2.089920334473464314e-01 -4.716766034775578265e-02
1.176829303151730455e-01 2.491204069083925374e-02 -7.905589158230763580e-02 -2.279018351489864036e-01 1.670069513111641923e-01 -4.315886591138486106e-02
1.316223383464511509e-01 2.945682634698975483e-02 -9.088807812433241651e-02 -2.615629350488574700e-01 1.575390976810050470e-01 -2.971077620899128038e-02
1.478985528718601006e-01 2.678720701474594096e-02 -1.005019934652807978e-01 -2.086732143248910265e-01 1.728617691566293191e-01 -4.003179467288337651e-02
1.638169227428072361e-01 2.717852347013376829e-02 -9.197591279943623244e-02 -1.377322094412423981e-01 1.622542116199783557e-01 -3.998004028609975641e-02
1.772626289746910833e-01 2.344589230294290283e-02 -8.670722702067806820e-02 -7.993095658546328641e-02 6.738361722592542402e-02 -3.461401064968229468e-02
1.919749698039348584e-01 2.544552715152693240e-02 -8.766984444564424050e-02 -1.054027408334687888e-01 4.550244767850184641e-02 -3.794039314166114396e-02
2.049058399715895651e-01 2.542538923481394916e-02 -1.040348986265032249e-01 -1.311701856179492420e-01 -2.464631640971765708e-02 -3.062427668406464062e-02
-1.798294511767589698e-01 1.594758549271951126e-02 4.214586670941283808e-02 -6.181745745718396634e-01 -5.883478204338515177e-02 -5.389547611364264856e-02
-1.630572483184854204e-01 1.719704365775990076e-02 1.937545325876260938e-02 -5.740010089444240737e-01 -8.335599919990352435e-02 -4.631349183873294945e-02
-1.466716981209214565e-01 2.083416450912561890e-02 1.826521314595591639e-02 -5.598289235498661309e-01 -6.662466683961418279e-02 -4.679478780408764804e-02
-1.341489512957670660e-01 2.304520838646581873e-02 1.841064108162354662e-02 -6.442362766610102431e-01 7.209156822368882611e-02 -5.133925101439887340e-02
-1.210941108198188565e-01 1.910168844581066477e-02 2.596197252065413075e-02 -7.256462954180294966e-01 1.540516100292166068e-01 -5.310917354593751999e-02
-1.050922088111510694e-01 2.114235370898025906e-02 1.408119083737946475e-02 -7.600080491749570122e-01 1.982751224844356563e-01 -5.182886020441112435e-02
-9.274549455457287150e-02 1.975697541213150207e-02 1.106270047006058244e-02 -7.095890356377866359e-01 2.536510021606124821e-01 -5.603022233492516158e-02
-7.569184809182027962e-02 2.180482437846908636e-02 -8.056269859871456607e-03 -5.603782687824014896e-01 3.208313486299697592e-01 -5.013948847358229433e-02
-6.230021330466988666e-02 1.949590369854602157e-02 -1.437283768086822233e-02 -4.106799730297428508e-01 3.722122786790729720e-01 -5.250412027825281103e-02
-4.698331313259415665e-02 2.026030329166400579e-02 -3.260618662175623905e-02 -3.587839907682919272e-01 4.437481085523297675e-01 -5.223775473383310969e-02
-3.110724716593029487e-02 1.880774439390543382e-02 -3.615717665485862486e-02 -3.544997196061356881e-01 4.700627552209406534e-01 -5.478124934664648643e-02
-1.619849268925607766e-02 2.048075990427889251e-02 -3.462258836731973988e-02 -2.150231354466852485e-01 5.310002060660590217e-01 -5.119004815434215899e-02
-1.536934877260927312e-03 1.293163327399543885e-02 -4.441213692682838277e-02 1.437482591091559792e-01 8.751217796801941118e-01 -4.147565843797879070e-02
1.705042214518212584e-02 1.503029629340715649e-02 -1.011903876661063295e-01 4.788066846948459410e-01 9.377927748665850771e-01 -5.698901534702492666e-02
3.418440466735972461e-02 1.853726745806536652e-02 -5.214071944540560333e-02 4.531598956378128373e-01 7.509888939645077421e-01 -5.806815769667954957e-02
4.900418853052561363e-02 2.080363534777879275e-02 -5.303316949566988514e-02 1.551385752092480086e-01 6.436675355073560034e-01 -6.031843743582873674e-02
6.528050867420082115e-02 2.384314074121461971e-02 -1.054205686537796893e-01 -3.259976872151557764e-02 3.774544852706169795e-01 -6.756232502927395078e-02
8.025526084648847147e-02 2.867130110094668824e-02 -9.064527165691621535e-02 -1.509042287700800011e-01 1.516784216014865905e-01 -5.777415512980368928e-02
9.895518699138751428e-02 2.913506518521519900e-02 -8.980881768912077345e-02 -5.134854674647379089e-03 4.694909461446727938e-02 -6.076985362460803758e-02
1.128210600697190230e-01 2.843769102667651621e-02 -7.210689821292509682e-02 2.351505762479229600e-01 5.964883034915546139e-02 -5.092976701085749625e-02
1.295248603051179781e-01 2.890731235543997357e-02 -6.716537124998084307e-02 4.207543619067296015e-01 3.728307947933687250e-02 -4.977261290617480266e-02
1.476322984402310134e-01 3.348871201038187972e-02 -5.354270971951313740e-02 4.890013939838412371e-01 -8.081716608806790644e-03 -4.576897462352700480e-02
1.582330183817420299e-01 3.704561499090839455e-02 -5.067382649458956889e-02 5.680369407935318415e-01 -1.115551866446309465e-01 -5.115759851590780116e-02
1.744898494588331683e-01 3.616993420057224018e-02 -3.892625529454063482e-02 7.063800019338415392e-01 -2.081649625433625861e-01 -5.610000544228913727e-02
1.913491265326192903e-01 3.213973810603020648e-02 -2.887168668530926130e-02 7.588451285710072769e-01 -3.761602021576012089e-01 -5.784578367111900543e-02
-1.828131855587647459e-01 1.791552888926518233e-02 5.578826635660821820e-02 -1.543244674520507509e-01 1.134277327341991770e-01 -4.436312059677981201e-02
-1.658946337377551206e-01 2.285515637017269952e-02 8.828168190388996361e-02 -3.812809147696306078e-01 1.728013339168273099e-02 -4.932016554653454593e-02
-1.486102511397632553e-01 2.039054817947146686e-02 8.634446711285237441e-02 -4.280703376760478518e-01 -1.319203021922695507e-01 -4.489376726127166511e-02
-1.317377152464688228e-01 1.987046747945596381e-02 4.496477500923473647e-02 -2.196508611385044607e-01 -3.629410079538538669e-01 -4.732903928816466904e-02
-1.158462301494468105e-01 2.156661628056137300e-02 3.389965088899987711e-02 4.191516510354245141e-03 -4.619976519746177845e-01 -4.627861723878622796e-02
-9.951923369914102147e-02 2.030287078196042067e-02 2.820575516857831699e-02 1.682155120359854136e-02 -4.858162057054350447e-01 -4.124457739972115650e-02
-8.326749217109383205e-02 1.974776533058080971e-02 3.108657777980305958e-02 -1.189615011201556050e-01 -4.813387490069603869e-01 -4.666783586449231580e-02
-6.782166364703637318e-02 2.148066143386555965e-02 2.361432236218485858e-02 -1.596343380817238089e-01 -4.360070536965073296e-01 -5.066363352237658602e-02
-5.155525427346935308e-02 2.074039369008464501e-02 1.450984250273096299e-02 -1.348372422578280050e-01 -3.674018464359987135e-01 -4.755003432471430896e-02
-3.564721546344290504e-02 2.336778474296913322e-02 1.202281145901840098e-02 2.089773580222119981e-03 -3.096999493515819601e-01 -4.791558638357295424e-02
-1.753645400574526184e-02 2.510247610810492983e-02 2.461404524285004669e-03 2.576470427870286573e-02 -1.417042312831353901e-01 -5.265967256539464542e-02
-3.020818595335050122e-03 2.101071339827961793e-02 -7.892317569624163198e-03 4.692014705075862185e-02 -1.170341527682731975e-02 -4.424817913992354357e-02
1.272528181061240854e-02 2.440832965180680936e-02 -1.244679136661619445e-02 1.193689448879509465e-02 6.215025989109027732e-02 -4.587028921604174164e-02
3.178572282187033804e-02 2.393364983646334432e-02 -8.321196589105406272e-03 3.598775952344574619e-02 5.128008775548618253e-02 -4.523098330281804386e-02
4.524443698255391222e-02 2.469940914257662268e-02 -1.883518823480240245e-02 5.438547165052121796e-02 1.171327387278110477e-01 -5.060954641990786373e-02
6.399886580527780477e-02 2.649814029150483752e-02 -2.938226467295662614e-02 3.144846422508932454e-02 9.420352715301516522e-02 -6.197761364309017917e-02
8.004207878542768384e-02 2.774781118636151372e-02 -4.211731010697489230e-02 -3.549213104434590510e-02 3.786828012498780899e-02 -4.458820950467561051e-02
9.227099696751671354e-02 2.786757880306588164e-02 -3.675013742665111938e-02 -2.843230776077667471e-02 2.778739829962648122e-02 -4.955093986157371039e-02
1.125618516441431599e-01 3.152069419268554995e-02 -3.606265926386242882e-02 5.051332288422182015e-02 1.757084826257012886e-02 -5.898677412906099676e-02
1.306828325105074684e-01 2.443842143677996473e-02 -4.124009359226177285e-02 1.207853271105827908e-01 3.681542715935998827e-02 -5.172278222956200322e-02
1.487589477532880455e-01 2.607609466377177124e-02 -4.382470964719425988e-02 1.435135631800221745e-01 1.567167514549772447e-02 -5.136351657160015405e-02
1.674545156540452329e-01 2.564800338183264097e-02 -5.573119709430651714e-02 1.324476670786393639e-01 -3.593033613078673583e-02 -5.169944889616285427e-02
1.840681380353414998e-01 2.782271950284815470e-02 -6.275312204024546814e-02 1.287542810596041531e-01 -3.255542395299454439e-02 -5.205338195505111731e-02
1.997641035798642939e-01 3.051599491588241619e-02 -6.593627064658391657e-02 1.293369669434586700e-01 3.414125523164001329e-03 -4.861600224153633104e-02
2.160154841401548675e-01 2.588359509372924541e-02 -6.055133529935385894e-02 1.720292765491025777e-01 1.000489414630406221e-01 -4.775160092205404244e-02
-1.633294030742759029e-01 1.437284294305956472e-02 3.915377438147210620e-02 -1.148991816715071723e-01 6.070569304860910786e-02 -5.401394878389475379e-02
-1.423716774498823834e-01 1.650321903826316300e-02 5.025696278506580628e-02 -1.708645153595447497e-01 4.811453550663587209e-02 -5.261837335225225121e-02
-1.273797995385741177e-01 1.282132583152382869e-02 5.370816606937123261e-02 -2.551983252412220460e-01 4.721462975914800242e-02 -4.368009158983293672e-02
-1.111863753898552215e-01 1.639319567182811327e-02 4.378478362021337444e-02 -2.972038061752995675e-01 2.934929681946307767e-02 -5.288138972486119277e-02
-9.502432074279142105e-02 1.746828394339895382e-02 5.267930147622906789e-02 -2.611064816664187549e-01 9.930294100339961960e-02 -4.529833753523022921e-02
-7.891084449262085465e-02 7.942038218681213985e-03 4.129172548154685929e-02 -1.944208381982382716e-01 5.321640118177399514e-02 -4.106964794881724085e-02
-6.093329056914650876e-02 1.141604017817281040e-02 3.545012478558218216e-02 -1.572453904648751788e-01 7.046475600869114841e-02 -4.357837236142866194e-02
-4.488546735224899220e-02 9.074621271595023977e-03 2.180142841933391251e-02 -1.214617341885598084e-01 5.050700216840465356e-02 -4.357329301160729057e-02
-3.051774616008564450e-02 6.014832995053273623e-03 1.060154697446780148e-02 -9.769605337373446496e-02 3.944445070706154022e-02 -4.505779874837208959e-02
-1.187637132859667606e-02 7.250506277527719000e-03 4.311646570953509006e-03 -4.424097968341361709e-02 6.631029239550383092e-03 -5.195349332911834705e-02
4.744080198664280684e-03 1.120880509735953066e-02 -5.183757773064623375e-03 -2.121146021549779812e-02 -6.119936237475266314e-03 -5.067636742600872130e-02
1.986545447041642917e-02 8.950355494062988554e-03 -7.836570215061899880e-03 4.498588645584010448e-02 1.242634395810100940e-02 -4.452445578785889369e-02
4.087244647404831427e-02 7.662483434252688810e-03 -1.831523211833380183e-02 8.110309740216638252e-02 2.799620591212345286e-02 -4.253176604569774283e-02
5.804331854711827082e-02 7.682339554078444419e-03 -3.075306718978343401e-02 1.040864937797363471e-01 -2.472137863479991621e-02 -4.275099981251871684e-02
7.520899860187010844e-02 2.695850915664778011e-03 -2.540166563084772511e-02 1.288570466420111971e-01 -3.408295402348802960e-02 -4.191874252525190636e-02
9.604953375968129647e-02 4.993148950745501628e-03 -1.985375582565246377e-02 2.268298923117045840e-01 -6.916300650331537458e-02 -4.580509628843543179e-02
1.118671001931800246e-01 2.210861066556610646e-03 -1.454360066555393516e-02 3.205486572590846017e-01 -1.237248234217046550e-01 -3.854331584245999226e-02
1.294064816892594727e-01 2.237342161072939511e-03 -2.962490846927268162e-02 3.012604016719604427e-01 -1.314319795307280492e-01 -4.772685581433284280e-02
1.501042069043146965e-01 4.735482856926713675e-03 -2.263664904892748186e-02 2.447500807972176062e-01 -2.057680340078154591e-01 -4.243195790268803474e-02
1.656950434257661864e-01 8.320698268909996337e-04 -3.354185245270790983e-02 1.340149917033734428e-01 -2.861346880643001467e-01 -4.564532726327093920e-02
1.882225718921993474e-01 1.023092070848231547e-03 -4.482056929914790544e-02 3.956728922119125830e-02 -4.495520066410669813e-01 -5.293682478563060956e-02
2.027665455167035891e-01 -1.732127793085297060e-03 -5.498653837569833502e-02 -9.334958787125148885e-03 -5.665991922157526117e-01 -5.151715975694056565e-02
2.190844448022837843e-01 -3.029961237150522596e-03 -4.563994221409517493e-02 7.034614572319722314e-02 -6.503808338129309918e-01 -4.596417863452187391e-02
-1.642152629221937388e-01 3.659352748354289392e-03 9.201417555907553947e-02 -3.433080664599306164e-01 -1.996368401922741509e-01 -2.276748689429449607e-02
-1.496269375904185350e-01 6.067463712711182108e-03 5.440909703146706855e-02 -1.719085281555139400e-01 -2.737408129449981908e-01 -2.292112242969063240e-02
-1.296009426577534041e-01 4.350395400383382655e-03 3.093652159095794385e-02 3.738307294902091637e-03 -2.828829616047506268e-01 -8.882268151963515143e-03
-1.162629707227415404e-01 1.967206489497004551e-03 7.818172370202935983e-03 1.142969446447455045e-01 -2.822968479379781015e-01 -2.202385813530610345e-02
-1.023017312132516871e-01 3.496681179005565326e-03 -2.344096572503617804e-03 1.370310569444673499e-01 -1.780329444448112974e-01 -2.970924923628949499e-02
-8.453007581492075206e-02 4.981486824323931410e-03 1.012061568749733631e-02 1.239425592225666395e-01 -1.789079646659973710e-01 -2.320966065446644633e-02
-6.818973505712655481e-02 4.738724130519432649e-03 -3.395186503103830855e-03 1.778787471573923251e-01 -1.994128083094522108e-01 -2.157321539728955517e-02
-5.455839225653986296e-02 1.704127257687822194e-03 9.333743589138299157e-04 2.294093190397317183e-01 -3.440257073699241053e-01 -2.796236622032493430e-02
-3.919778155198380687e-02 4.237625029937484855e-04 9.454367946186259530e-03 1.288235200063357622e-01 -5.560134435812802423e-01 -2.802260644503121179e-02
-2.019533263135405224e-02 2.289980941729755429e-03 -1.392486787077967803e-02 -6.543369193544600060e-02 -6.017595952100933676e-01 -1.871896016103856072e-02
-2.155701510928823006e-03 7.682393716068081600e-03 1.874938578715568127e-03 -1.220880976764047998e-01 -5.638814411196944043e-01 -2.723080350268007946e-02
1.349750199881178184e-02 4.514323628652670492e-03 -1.063981799058028033e-02 -8.326160974752447319e-02 -5.348734772221811484e-01 -1.933628239797472934e-02
2.819333488715552657e-02 7.250027299829387914e-03 -2.892400852626986207e-03 -2.557921422408293999e-03 -5.033815195651973884e-01 -2.488648490063013335e-02
4.376246058157901020e-02 7.557708274567997465e-03 -1.948058635991567478e-04 -5.810179444885322370e-02 -4.764495641023873129e-01 -2.526799556503438529e-02
5.884642527170659554e-02 9.207836359727173889e-03 -3.352419944120504924e-02 -3.384656847787494982e-01 -3.406592293882145239e-01 -3.559883489758996350e-02
7.532494405993848952e-02 1.291223604897926737e-02 -4.864116378155108888e-02 -6.204736431459315638e-01 -2.608202596068680545e-01 -4.741617432268362131e-02
8.991320068365478424e-02 1.346662265269766429e-02 -4.793222277168768253e-02 -7.976545078163754798e-01 -1.508153043966138640e-01 -5.853916993661307383e-02
1.100009706657899405e-01 1.333398950426999650e-02 -8.446326570258855249e-02 -8.580474661713866080e-01 1.275007190204144325e-01 -6.001552493638130648e-02
1.227980757408005941e-01 1.229155495758696426e-02 -9.499685364157164913e-02 -7.998761302475421164e-01 6.206021341101679301e-02 -4.623435323641874456e-02
1.407270976570167698e-01 6.953836021176005092e-03 -5.696739859105970361e-02 -6.430281866835657612e-01 -4.544248836151550813e-02 -5.441157226215322801e-02
1.550089687210033929e-01 6.254889686307310917e-03 -4.951523820601544390e-02 -3.502420352575549289e-01 -2.751822232083741063e-02 -4.547524853340003531e-02
1.719529551654790933e-01 1.072833267540578180e-02 -2.605876043743143855e-02 -1.512329455634668363e-01 -9.546421837676745403e-02 -4.666674689211895016e-02
1.838902813392185587e-01 8.352212284350069016e-03 -3.150275948386938030e-02 -1.273661514084994117e-01 -9.334941676706505487e-02 -4.287188352505941907e-02
2.015586546556236147e-01 7.597809120024437944e-03 -4.792295063848978076e-02 -1.812304862124821669e-01 -1.589458189615949035e-01 -5.000831089878557401e-02
2.193856597042375400e-01 8.541064016707650142e-03 -4.888032308121992298e-02 -1.950654429549524560e-01 -1.597972269077059526e-01 -4.353352677811348631e-02
-1.502058510927367641e-01 -2.279861350563468225e-03 6.057409629214144386e-02 8.796444467742581264e-02 -4.613780162105822202e-01 -1.136519386358884366e-02
-1.330226431045762880e-01 -6.972391916961478628e-03 3.091160047230506747e-02 2.188464403500392785e-01 -3.938383019776397487e-01 -9.793765735761664551e-03
-1.183397707946891864e-01 -6.626071386349258879e-03 2.057417997762145401e-02 2.522666932078692081e-01 -3.713679750885571229e-01 -1.526063118885298726e-02
-1.019405342514298068e-01 -3.967596216537088924e-03 2.205812259928136010e-02 2.098431145198612069e-01 -3.425634627009980226e-01 -2.250331931329829435e-02
-8.150814337516668062e-02 -3.025940132874419333e-03 2.575246143185250247e-02 1.258919452169889597e-01 -2.793806661658667645e-01 -2.214594511076107761e-02
-6.692655726846960529e-02 -2.878612184038077323e-03 1.385005051191479097e-02 3.423808391918350957e-02 -2.804873873784823335e-01 -2.274319049215550378e-02
-4.603680121530752400e-02 -8.886338939257821395e-04 1.781588918649151809e-02 -6.874174885152243425e-03 -2.636111067043400702e-01 -2.416820742364293381e-02
-3.096462573432318122e-02 -2.598855329352387986e-03 1.084254552407104555e-02 -3.285129719429289580e-02 -2.859151571982260776e-01 -2.689597583332787797e-02
-1.661636327341111177e-02 -1.129116837940155951e-03 2.777218853919849462e-03 -4.017930704503870631e-02 -2.896069595651935558e-01 -3.159371401526472195e-02
8.543132500741859592e-04 -9.149076211348305954e-04 7.003856810874398153e-03 -6.308736057586335211e-02 -2.731896263509290268e-01 -3.463840895188650959e-02
1.726067799164133013e-02 -5.925556151770601521e-04 -7.417767036985434270e-03 -6.704964456548220819e-02 -3.379425781990091915e-01 -3.179119779810527652e-02
3.852623502902736974e-02 1.265507864317293868e-03 -1.783443894123148965e-02 -3.702691669727954660e-02 -3.523212575644800726e-01 -3.434139294219579891e-02
5.228428015121584782e-02 2.936608485029530702e-04 -2.328180004712521178e-02 2.342534699653345612e-02 -3.800766912079507898e-01 -2.854187009672150971e-02
7.015596129891095434e-02 2.499149807949831159e-03 -2.140678024979941751e-02 7.557234958230180100e-02 -3.528921226596810623e-01 -3.319089404958407152e-02
9.074431435388441436e-02 2.382944382496123004e-03 -3.008208151545116449e-02 6.349269108978397580e-02 -3.054010022090388743e-01 -3.645034449120045095e-02
1.056453376599257171e-01 4.499898567856023060e-03 -3.166572946454804249e-02 8.642453225754218038e-02 -2.366730851946096115e-01 -3.676329235329091338e-02
1.261286260594400577e-01 4.935411338480849910e-03 -4.890790080030232856e-02 7.972544122837721403e-02 -1.930235380558867619e-01 -3.308203226801958996e-02
1.422080631517290694e-01 4.397790382216368310e-03 -5.451052121507987680e-02 3.915526340231391400e-02 -2.067136779360942977e-01 -3.490893983522985050e-02
1.613915614698601675e-01 2.609079852650400197e-03 -7.233441911636975807e-02 2.647508749790164137e-02 -1.729440240189398514e-01 -3.470997742846633483e-02
1.775635558089624366e-01 5.742169582077182553e-03 -6.547970934837310519e-02 9.232735207914927189e-02 -2.718752618412124122e-01 -3.057725032177613378e-02
1.994920576978242155e-01 3.891373932739680686e-03 -7.533569472176621096e-02 8.171776182507620168e-02 -2.204997394778525355e-01 -2.956715869566919203e-02
2.203311229298136609e-01 5.245854885348461526e-03 -7.575033126652672144e-02 6.751455645587338406e-02 -2.623720891700805913e-01 -3.140783205182640786e-02
-1.723291577628166538e-01 1.462170849832890307e-03 2.036215555960363410e-02 1.681209082467677307e-01 4.220090744109911141e-02 -2.547507254336707841e-02
-1.536646612034218706e-01 -4.305701608195284386e-03 9.627869023088875267e-03 2.215198737489891823e-01 3.343662590759127057e-02 -2.464000425440385222e-02
-1.361675066494836550e-01 -6.508973437699390116e-03 -4.309776590034841703e-03 2.947263406878453673e-01 -2.050232401992039405e-03 -1.802646893520599286e-02
-1.155985456661257904e-01 -2.599571033311718141e-03 -5.704535601331883754e-04 3.954952227537583132e-01 1.241942442423499444e-02 -1.668494089495912644e-02
-9.987053416882735180e-02 -2.635548941621547805e-03 -5.748276293934279080e-02 5.487306634514330650e-01 1.269359936560039703e-01 -1.957317961082905705e-02
-7.898941479475954375e-02 1.911204760961569479e-03 -2.998881645739581714e-02 4.475312707531687306e-01 9.988247446482204084e-02 -1.843964449455827090e-02
-6.062112340079223172e-02 4.323004780343793138e-03 -1.021886512163910909e-02 2.093236092968262241e-01 5.618764190599360997e-02 -1.915425012892688419e-02
-4.246009109952199323e-02 6.485199210362859595e-03 -5.073130443604800810e-03 8.478016837936290517e-02 3.187080639722852243e-02 -3.296481096438523550e-02
-2.034342550365995927e-02 7.459561055948029165e-03 -1.223642877798819528e-02 1.176943502723692553e-01 -3.116482477750456490e-02 -2.993208151778998377e-02
-1.742809567954493877e-03 7.290931852321182877e-03 -1.962888900239312395e-02 2.327412076128967389e-01 -5.622419009330934664e-02 -1.985432245250102687e-02
1.583677307898139278e-02 1.081049566122101874e-02 -1.608473209174482443e-02 2.387215186744157946e-01 -1.142718706063589607e-01 -2.331248987178089621e-02
3.651984433664048901e-02 8.277890212273226328e-03 -2.070379421945250931e-02 2.470597260254440708e-01 -2.232788534693077309e-01 -2.291311714111174402e-02
5.366872488270726937e-02 9.531014176397930096e-03 -2.151080455437104355e-02 2.352831394277375976e-01 -2.454800693884461871e-01 -2.613317669609231675e-02
7.301442449566680759e-02 8.822454992443232169e-03 -6.374673107493289415e-03 3.551895708888000991e-01 -2.977295594091413089e-01 -2.295916214892955096e-02
8.940568400882221989e-02 9.904259601102485822e-03 -2.445958534657832750e-02 4.108241400571749913e-01 -3.876698408997553691e-01 -1.992581768279497872e-02
1.088969709909899525e-01 1.548712649031256348e-02 -1.594160746020145680e-02 2.423763744666187214e-01 -3.809790589479351564e-01 -2.185521185217480580e-02
1.299113249876141518e-01 1.366297112827522149e-02 -5.564322519230691100e-02 4.893149316976917046e-02 -3.687688645768043560e-01 -2.211118113923616138e-02
1.459194828517992870e-01 1.331533016012694144e-02 -7.220264298315626217e-02 -1.851698784129340858e-02 -2.386959735179830511e-01 -2.796794837630564926e-02
1.606222904962474329e-01 1.362647254705605902e-02 -4.273894002943012804e-02 1.555000335706905046e-01 -5.231453185163739000e-02 -2.927203703459748882e-02
1.803056947287287326e-01 1.618170151787285543e-02 -4.525405606492910460e-02 2.460522820434625502e-01 1.165412782250685036e-01 -3.060156800612004110e-02
1.979633537279788802e-01 1.223452499307382639e-02 -4.314525027375754052e-02 2.660490123951371189e-01 2.305849019363486463e-01 -2.779989886733981799e-02
2.152625372541005777e-01 1.393274864806089315e-02 -6.447020537977476984e-02 2.441609283817931519e-01 4.200977086478925870e-01 -3.176931908519412678e-02
-1.803580735421038139e-01 1.736527330592590318e-02 7.543452115422777382e-02 -4.739483561338022066e-01 -2.231641988431046133e-03 -1.817355729617243371e-02
-1.594556271635784728e-01 1.628405043811756436e-02 8.344934990443936274e-02 -4.833690393865617274e-01 7.872888455942571306e-02 -2.319604185691208353e-02
-1.439455709584201437e-01 1.548446714842549934e-02 4.864595067807669926e-02 -4.391099515019485922e-01 8.170210027528357344e-02 -2.463307070554950073e-02
-1.265482452165571370e-01 1.747823829035245399e-02 6.964463215599486778e-02 -2.074471601653998520e-01 -1.596062359538771014e-01 -3.488749557382848226e-02
-1.072666225825813086e-01 9.194599406534496519e-03 -1.058629679061701134e-02 8.245137059938406621e-02 -6.945388878989505743e-02 -1.757443401495892288e-02
-9.174992068735961237e-02 6.547876083793211302e-03 -2.683413782590271524e-02 1.441460052813531567e-01 -1.743311722005410624e-01 -2.463790874382278465e-02
-7.091370191912282905e-02 1.292943372837341426e-02 6.786340285790265492e-02 -1.826822310711246067e-01 -1.769326131759419440e-01 -2.669073953640096683e-02
-5.411231705403006520e-02 1.482018184598760113e-02 -1.876747381459015207e-02 -3.775570006329952433e-01 1.996897732950020932e-01 -3.624580195923577525e-02
-3.353442664822450792e-02 1.972414551792919107e-02 2.334097033846010971e-02 -6.342187480345871098e-01 1.490101866466005121e-01 -3.902776335258129059e-02
-2.087033022996258314e-02 2.053510595864336402e-02 6.170944552240154035e-03 -3.979302500005205134e-01 2.279217340020912863e-01 -4.414281079130696894e-02
-1.757539052604884661e-03 1.810399325137358739e-02 -1.069391891026832964e-02 -2.193258825680655458e-02 2.191492476593565608e-01 -3.617531664941691510e-02
1.912125614965333106e-02 1.957294417150380259e-02 9.938092201997039687e-03 8.911014082707832684e-02 1.912040882303539246e-01 -3.997837756404923337e-02
3.573384640009353436e-02 1.853718994266944156e-02 -1.185756582850583385e-03 4.944118557872100896e-03 1.696096038730830480e-01 -4.040595628567117403e-02
5.800277038486635617e-02 2.638875647222271512e-02 -2.839490159525509538e-02 -7.745044464316522270e-02 -4.883821454597204320e-02 -4.184994408847245162e-02
7.401684487534307411e-02 2.398655238026579928e-02 -3.761352533076889326e-02 -7.511462078369010066e-03 -1.600713299743096174e-01 -4.895820090810930336e-02
9.591756656455710517e-02 2.387349252755805243e-02 -1.144781339265582565e-02 1.615303170878502059e-01 -2.397494993547526765e-01 -4.539723189626016647e-02
1.175732514084297520e-01 2.422997047197325213e-02 -5.811365245290522896e-03 3.065950481026924468e-01 -3.050720282263075789e-01 -4.230745073211905627e-02
1.362525572762011972e-01 3.117512528259905324e-02 -1.765981068915289942e-03 3.298304024729716288e-01 -4.005190307606011912e-01 -4.274297601258785634e-02
1.558328372935282313e-01 2.907453142189311140e-02 -4.070212859428601337e-03 3.583907598588060295e-01 -5.010707195060635222e-01 -5.251641728305190410e-02
1.719709961611247950e-01 2.662950285869844502e-02 -1.218821133900144238e-02 4.082535272789408753e-01 -5.451411171435697200e-01 -5.597051779007739675e-02
1.882260731769200557e-01 3.093227505870085187e-02 -2.575736496570280032e-03 5.036470370704621002e-01 -5.960514164826393735e-01 -5.418688176169909887e-02
2.106501243481683494e-01 3.457795573553207324e-02 1.159444111393226340e-02 5.956399770592087917e-01 -6.415538792910830956e-01 -5.554056499521627804e-02
-1.771448903405395403e-01 2.732648015813177872e-02 8.244457395557958090e-03 4.426420545351006375e-01 -1.720189627026708912e-01 -2.673747599504831471e-02
-1.544423417898824757e-01 2.704066084423130401e-02 3.015103713108424621e-03 4.360039355738203892e-01 -1.884986228975465694e-01 -2.402884024206972113e-02
-1.381279655187579725e-01 2.789936409688544700e-02 2.122148342312224489e-03 4.037480360007252855e-01 -1.958898332624680050e-01 -2.800995748952013129e-02
-1.164990715152810219e-01 3.023255819264867444e-02 -7.660781310772246666e-03 3.988046828523729159e-01 -1.427745226980236259e-01 -3.025373654786501706e-02
-9.828682567442499629e-02 3.188865863288763147e-02 9.982765446661989728e-03 3.832258059263880523e-01 -1.226373134170662821e-01 -3.115692099987953101e-02
-7.882105624275420608e-02 3.795711454264930063e-02 2.677997788181618599e-03 3.764526238384849899e-01 -6.199329622268753837e-02 -3.883918597346328744e-02
-5.925014423038786615e-02 3.708526394865864495e-02 2.173422825838933203e-03 3.370157014010762286e-01 7.695459111002282693e-02 -3.251760208516447925e-02
-3.936516808672158030e-02 3.944664279679845759e-02 -6.171107145791554505e-03 3.626632719666811888e-01 1.802272276836640041e-01 -2.890034888211566455e-02
-2.537227688193513173e-02 4.073647547015389614e-02 -5.489523541438001697e-03 3.317147717928853323e-01 2.987416946404264362e-01 -3.953970244663388561e-02
7.821173287927973838e-05 3.927982843887203868e-02 -2.305946601512187666e-02 3.580510430197065275e-01 2.179189684630795376e-01 -3.286570437225687369e-02
2.058688525887329354e-02 4.048778611725335763e-02 -1.416235963703249556e-02 2.417783313185997152e-01 2.178115147556441977e-01 -3.169680930544795799e-02
3.861311020814296724e-02 4.353067847791760453e-02 -5.692546070885540210e-03 1.214543998437421085e-01 2.577593637611889643e-01 -3.985845586883456082e-02
5.998911924976530613e-02 4.299519099178952808e-02 -1.137205519658485153e-02 9.805008495457340212e-02 2.694630519291341120e-01 -3.524374094131094148e-02
7.473910541950534725e-02 4.028787660436015244e-02 -6.078160358140460851e-03 2.287535273130293645e-01 2.170663608400313083e-01 -4.348411941375356082e-02
9.553027099028472968e-02 4.051617379797721463e-02 4.565457610075596140e-03 4.153771072483625204e-01 7.934707108715416402e-02 -3.038970694991197444e-02
1.136651011480959150e-01 3.723071885837167527e-02 -8.173304910897905007e-03 6.220076038596741297e-01 -5.524695630380821454e-02 -2.802402657370191633e-02
1.338646921432456449e-01 3.787208767615037747e-02 -4.285958116427790454e-03 5.999004280928279531e-01 -3.090907695730986671e-01 -3.581429200733486640e-02
1.564670821022590974e-01 3.914668847184575584e-02 -1.862449442294217272e-02 3.991734026382628420e-01 -4.454269500007339011e-01 -3.977002546009025113e-02
1.796203706427254576e-01 4.251895156560785843e-02 -7.397229126512550046e-02 3.740553378420004293e-02 -3.828760906966445221e-01 -4.950506845366137859e-02
2.014316390634610932e-01 4.304501023535944881e-02 -1.355164154497918994e-01 -3.110875061294946509e-01 -3.778936056653813824e-01 -5.418019875131664664e-02
2.182706910999394345e-01 4.680291476923574556e-02 -1.765514691578910778e-01 -4.322514634703738534e-01 -3.256328130220461636e-01 -4.945614492568068538e-02
2.384766017111669967e-01 4.420955516544320535e-02 -1.417626774741379825e-01 -3.579681948901681787e-01 -1.779099908792032003e-01 -5.566259990608601188e-02
