4.853789538185780683e-02 1.513593715798411746e-02 -3.682444761965592006e-02 1.770656411125349494e-01 3.608672460929735482e-01 -7.730861831615990810e-03
4.028000316672775832e-02 4.126779727396938380e-02 -3.531445281503073352e-02 2.853692844935006370e-02 -3.952478579127291503e-01 -3.277585639866843065e-02
4.497320828812988169e-02 3.973150259357388636e-02 -3.146363972739148196e-02 -3.235408706553570823e-01 -4.587291213682674340e-01 -1.925832897272112057e-02
4.881343371398713660e-02 2.982025850134803827e-02 -2.615375135232937687e-02 -1.959429668199850483e-01 -3.267777160527677860e-01 -1.325028093239877594e-02
4.696696643190310244e-02 2.461541081510735043e-02 -2.988211710866309212e-02 -2.830554852399632115e-01 -2.170550852203345649e-01 -1.160781574737984427e-02
5.008452469333968260e-02 7.688074193106277099e-03 -2.906674567281083976e-02 1.539757372613345388e-01 -8.348794370983847468e-02 -5.314281778028016705e-03
5.345024419373424485e-02 1.605811245793280564e-02 -2.821331785340985832e-02 8.949328160605904414e-02 1.107477737745136137e-01 -1.847260773974700523e-02
4.555216296982076557e-02 2.954848103943273629e-02 -3.603171029940845094e-02 -5.351129480487558654e-01 5.833544462375540585e-01 -2.170351112524628728e-02
4.548982684105006696e-02 2.484437060019520013e-02 -4.783588807856786751e-02 -5.614082595325607938e-01 9.310472545142274292e-01 -2.716018818674566584e-02
2.915085723075102470e-02 2.015471687542360127e-02 -5.208992195971778871e-02 -4.803097907570701985e-01 7.043743688065694508e-01 -3.346584537196127529e-02
2.629819769402985327e-02 2.487772375036485448e-02 -5.537624822028910931e-02 -4.677272931937601075e-02 8.594325117819598958e-01 -2.963506799385598120e-02
2.675550760945789169e-02 3.579975165075133248e-02 -5.208879568105283242e-02 2.435962940126042697e-01 -3.446911359491261484e-01 -2.847514133870537520e-02
3.239382856991180476e-02 3.252237571398344101e-02 -3.928223359465468634e-02 1.571730079197263263e-01 -2.922417273409483318e-01 -2.612747202573671018e-02
1.441589082415729167e-02 4.530133472684176599e-02 -4.689848608588879919e-02 -3.969737578089478358e-01 -5.227406464190621493e-01 -3.784398152457044140e-02
2.166879424486638228e-02 4.564442606768520649e-02 -5.110352601878527523e-02 -6.012287145105952302e-01 -4.734554582810255874e-01 -3.600922918580352211e-02
1.512302319255838697e-02 4.227252561445636603e-02 -4.836522055207596871e-02 -4.725260930976594165e-01 -7.185473547333942612e-01 -4.083278228378380004e-02
4.213505586899229244e-02 5.278472782456637702e-02 -1.941139696183409591e-02 1.876536512825122474e-02 -1.502509493326936507e+00 -3.032250281385495683e-02
3.458228460144770894e-02 4.470801983586147194e-02 -1.479368624273844079e-02 7.704483529938162267e-02 -1.789228468386497406e+00 -2.099736090885706910e-02
2.166633846534653587e-02 3.838880737664114584e-02 -1.988472644260186328e-02 1.210066151330275730e-01 -1.454214252231120774e+00 -3.294801679966204849e-02
2.402090817169101958e-02 3.411149711886374281e-02 -2.109179286310348955e-02 1.916226867933856770e-01 -1.294885265910189043e+00 -2.934622789198046422e-02
1.622350587311481573e-02 4.385210980351795379e-02 -3.732704751204825311e-02 5.570396970221151017e-02 -6.901007857733522100e-01 -4.028907070455454292e-02
1.301093128969494500e-02 4.771056287870897167e-02 -2.531231980383703839e-02 1.657726158877840250e-01 -8.756629869981150671e-01 -2.799705395044575773e-02
4.074687179864740737e-03 5.083458156325467575e-02 -1.181781088022562654e-02 1.776946075024967153e-01 -8.757011865870180101e-01 -1.863652978908194799e-02
6.075673995903107562e-03 5.292829080744147763e-02 -4.127639251195541759e-02 -3.713243235631535355e-01 -8.148115119026647646e-01 -1.993552553479376044e-02
1.303321167649875226e-02 4.600454731722469770e-02 -4.140326619566310484e-02 -5.432472640070469261e-01 -3.182974190743615983e-01 -2.544526600595956034e-02
1.769574162601776635e-02 4.920165191375747149e-02 -5.426537060641212218e-02 -4.906241769941504516e-01 -2.576676019523633232e-01 -2.708676228889512344e-02
1.486512104986254142e-02 5.997270810104322197e-02 -3.259319633307755648e-02 -2.002021651467849606e-01 -5.318001935406861946e-01 -1.409360647875824242e-04
3.264895183242532556e-02 6.434710985483062251e-02 -2.325187072539729172e-02 1.977845171191265350e-01 -8.109099036609228595e-01 3.170080430005864716e-03
3.481661753740131898e-02 5.613577301788813534e-02 -2.350666128073450323e-02 1.821556036916507082e-01 -9.011612861008690967e-01 1.641170529515387222e-02
4.067589576548125141e-02 5.719718120159165281e-02 -2.926945544303811986e-02 1.998518930111241598e-01 -8.421519562667255654e-01 1.031477682853328137e-02
2.849430575579396316e-02 4.626896751181883843e-02 -3.125390144308221041e-02 -1.089732358327444167e-01 -8.761487975266127881e-01 2.795595483527269290e-02
1.164961329310388108e-02 3.938182124840462761e-02 -3.680912654831999808e-02 -4.416275836832527779e-01 -1.117757411287129354e+00 3.200228345258841756e-02
7.252686117770512468e-03 5.534522957731098647e-02 -1.903198336307494742e-02 -5.975649944917613698e-01 -1.311257495313707055e+00 5.865768424917712498e-03
1.934826604798372054e-02 5.307162640653528829e-02 -2.859421004223577922e-02 -7.171598552526580184e-01 -1.279895752708730461e+00 -2.604122924338957319e-03
2.154641780760932577e-03 5.717499843068004489e-02 -1.643297232783454132e-02 -6.221302348495212353e-01 -1.629915981724772145e+00 -3.257268814873304219e-02
-3.551514970811272924e-03 5.668568612372645171e-02 -4.614203657748450205e-04 -2.205178588200733814e-01 -1.805915576753474694e+00 -3.011699474976395341e-02
9.196219474811986871e-03 5.781632332825538401e-02 -6.933204265559336776e-03 -1.314912124766544066e-01 -1.629796615142234284e+00 -3.370475721942436942e-02
2.577221763795190055e-03 6.320543025518840508e-02 6.213276148135049581e-03 1.763873258130626009e-01 -1.619002780124312091e+00 -3.289036027862190376e-02
-4.091782093590820395e-03 6.676241003920306560e-02 5.114039529687169905e-03 1.902244314903525357e-01 -1.665750062388860364e+00 -4.085786145215597465e-02
-1.046922410392327543e-02 6.361206146649056592e-02 5.039756647489512797e-03 2.611260981101718448e-01 -1.819545999724215379e+00 -4.169741779107954960e-02
-1.143263660669794138e-02 6.180755882050511379e-02 2.828173311720749705e-03 2.849319783824181274e-01 -1.846113785048068889e+00 -4.243523681342351028e-02
-7.633717488082232550e-03 5.139993506851508326e-02 4.889011025430767265e-03 3.157265625161529421e-01 -1.740254054240597981e+00 -5.355328632684250301e-02
-1.135725388555094972e-02 4.841752204822216687e-02 2.166395475444615748e-03 2.477184112420724726e-01 -1.690100660093178941e+00 -4.267806521558016597e-02
-1.423602900308389499e-02 4.505198928120660723e-02 -1.158715318991143661e-03 3.128223193937353375e-01 -1.403313506566367108e+00 -4.038171902207839808e-02
-2.081928086593999930e-02 5.629934529142806982e-02 -2.886920090743066991e-03 1.243037315614853172e-01 -1.384849578049813790e+00 -2.936157073611765991e-02
-1.243905325533222264e-02 5.894265811857032911e-02 -5.722945978964832925e-04 2.069792504368331842e-01 -1.292811232179888803e+00 -4.777940292141641399e-02
-6.048622662902645997e-03 5.423236987466102665e-02 -7.940675756871171109e-03 9.158601072707625579e-02 -1.366407756593540190e+00 -4.538042073101594687e-02
-4.302455483451319944e-03 5.911369779961506143e-02 1.283619975714411776e-03 1.031371759700306090e-01 -1.171971770150292969e+00 -2.957398956785880356e-02
9.020902693242767792e-04 5.691458132824017691e-02 -3.599088434277142312e-03 1.236517975752541715e-01 -1.140506413590120394e+00 -2.449105799746482612e-02
-2.362805683430845710e-03 5.997955227819656149e-02 -7.875929503967024625e-03 1.799508561474447432e-01 -1.091992379587980233e+00 -2.771453062363505790e-02
-3.782638291088079047e-03 6.134016390728677659e-02 -1.263483878179622044e-03 4.087269495103453693e-02 -1.014959877069904870e+00 -3.890322311870208355e-02
-6.447044443637094807e-03 5.456431388707660285e-02 -6.247913867522089659e-03 9.151111837144217109e-02 -1.059134717773139167e+00 -3.224753125128498876e-02
-1.521582408831641947e-02 5.362598784038986183e-02 -4.943190800829888598e-04 5.799830136811798958e-02 -1.026637780705716319e+00 -2.998657160182894785e-02
-7.555983451483602731e-03 5.987104316258728270e-02 -5.302290905496304108e-03 7.701252056432066062e-02 -1.039104256520678060e+00 -2.341831266520524868e-02
-4.645250947343261202e-03 7.221448022887684559e-02 -6.474838179834893626e-03 6.254881954523817955e-02 -8.480666496846388513e-01 -2.029308073980997870e-02
-1.496246567732112051e-02 6.663556699662138982e-02 -7.357875028592225641e-03 8.071439339837364890e-02 -8.579220210324297602e-01 -2.873687311096188401e-04
-1.108848348985646756e-03 7.264235339424970905e-02 -7.906153509607757868e-03 2.648590946920261965e-02 -7.507970966828990678e-01 -2.550687938680625336e-02
-9.836819542084249135e-03 6.643321129428890470e-02 -8.105784613275573980e-03 9.942843202790865864e-02 -8.259811209354570583e-01 -1.283942336101760555e-02
-1.832646071763973164e-02 6.870976182421509315e-02 -4.292745437926737129e-03 -5.571148302961222674e-03 -7.575124392555052655e-01 -7.083076957353201704e-03
-1.360059217333345338e-02 7.178474015631254590e-02 -8.840839100258693350e-03 -7.639303455113109764e-02 -7.235909598753569316e-01 -5.570945984888717346e-03
-4.762496449056978845e-03 6.582377989303833665e-02 3.007748124021131231e-03 -1.023411732503182320e-01 -6.394273516769578558e-01 -1.115015290643019651e-02
-8.816628656569028277e-03 7.090403293828687059e-02 -1.101201306353827292e-03 -6.078494026643879028e-02 -6.806983855814471296e-01 -7.558114304560375508e-03
-2.868780188884012625e-03 5.798706491901751969e-02 -6.296124462901009355e-03 7.575338046986591911e-02 -6.852115969119737526e-01 -7.997708350510522590e-03
-1.201015880594274825e-02 4.758053551806794290e-02 -6.043796357339689673e-03 8.700022241952910795e-02 -5.613034561044069060e-01 1.718728423650419876e-02
-1.943211646837970930e-02 4.636795166385388606e-02 -7.988536963597039908e-03 1.276120574289474896e-01 -5.700454181248787444e-01 1.497449188724106484e-02
-2.243819885497910782e-02 5.329214429774893624e-02 -8.644718571973658561e-03 1.587904990397124780e-02 -4.414539912900594665e-01 -1.031716334360467495e-03
-1.919350892156049607e-02 5.032708077930399260e-02 -1.189775452772882935e-02 -4.927449660275966953e-02 -4.481870140728472229e-01 1.044773961609653593e-02
-3.418736036427805908e-02 5.547423921030735644e-02 -5.291148550986529697e-03 -5.302591112489637298e-02 -4.496878832216485988e-01 -9.967414243863138845e-03
-3.538648197232316384e-02 5.870924749980023505e-02 -8.743319842215616089e-03 -4.120072894698093187e-03 -4.356429719376591070e-01 -1.099218027856296506e-02
-3.341290693170437948e-02 5.731685318252863204e-02 -6.937911517217926205e-03 3.316575629290378219e-02 -4.959018241007598915e-01 -5.092889870830794377e-03
-2.738836259168181408e-02 6.148750344710718352e-02 -7.598318703841464017e-03 -2.426271329073039287e-02 -5.283589052237249728e-01 -5.298507647330765423e-03
-3.073395053369165283e-02 6.714243051967702658e-02 1.326465643085195101e-03 4.757709204338267384e-02 -4.678186336419172253e-01 -1.409105807132595214e-02
-2.348130912894143621e-02 6.618786942138241147e-02 -1.790691475982097991e-03 -6.925100068730555324e-04 -6.571581380424500463e-01 1.169049594303964677e-02
-2.624647952286552829e-02 5.344118621392585783e-02 2.507681846820514204e-03 3.384686631677671226e-02 -6.338578893700413941e-01 1.457343771100800059e-02
-2.247493478294579003e-02 5.593872355069859359e-02 2.475337992165649315e-03 9.627777270163956347e-02 -7.485056198680085648e-01 7.005100470065761704e-03
-2.162835075607247651e-02 6.563940049207227234e-02 3.121605258196796795e-03 -3.387638563386782126e-02 -7.564413207518411175e-01 7.475994112693245272e-04
-1.585305237369833559e-02 6.467897420766216543e-02 -3.864288210464195128e-04 5.404865780893879090e-02 -7.635458240306465250e-01 7.661970676046828480e-03
-1.812704190217525463e-02 7.493507326244328026e-02 1.403729745554749275e-03 1.960951886630904750e-01 -7.501888794413801298e-01 8.206885676505631597e-03
-6.014307870350121821e-03 6.864707580033804768e-02 -5.156732840713454391e-03 7.333239887954411118e-02 -6.634200856141305724e-01 -1.125718574636470556e-02
-7.840691129251807501e-03 5.956914749040852219e-02 -8.910258098949561112e-03 1.126881000954951806e-01 -4.543475206707649483e-01 -1.214562862070554632e-02
-1.449087112452978991e-02 6.490436012258492260e-02 -1.031720148797414527e-02 1.457993375090342429e-02 -4.495774611590930281e-01 -1.996169545457481334e-02
-1.155564598042114338e-02 7.275727505059371991e-02 -1.070555863581887368e-02 3.726388140532178178e-02 -3.100605802605551076e-01 -1.219035767420365533e-02
-1.671417160395386597e-02 6.065143449544459914e-02 -1.327182311438419859e-02 -1.696579421121955505e-02 -2.621449538907418275e-01 -2.023048221118961196e-03
-1.739968775834629250e-02 6.043391740324037531e-02 -1.240560645983154742e-02 4.714921748714403366e-02 -5.334711223705858318e-02 -5.762392680086709899e-03
-1.327538216815341704e-02 6.575420257547126557e-02 -1.329351566829518883e-02 3.566499733976374181e-02 1.293744712512193487e-02 3.408644018666205470e-03
-1.304982707958998039e-02 6.186015045988627753e-02 -1.173361589806742877e-02 9.315327496981886182e-03 8.268602615052236815e-02 1.283507782851185143e-02
-7.341655406859363790e-03 5.925558527875707249e-02 -8.133949522670921861e-03 2.910160616645372095e-02 2.562526847656768636e-01 7.207749335269741063e-03
-6.556416247319812873e-03 6.865115374204651399e-02 -1.041125818618968135e-02 3.620895230342669607e-02 2.688642151014621340e-01 2.024704254217098761e-03
-1.848306722015750653e-03 6.440116149941152446e-02 -1.423559690624148777e-02 1.062888530829313866e-01 2.072770842094437405e-01 5.817589714886288801e-03
-8.234603177441001190e-03 6.153353766879739173e-02 -1.308119876529274805e-02 2.117184661663071982e-02 2.694210779241538734e-01 -2.927935502899654645e-03
8.495128676011846555e-05 6.889785171092523142e-02 -8.540945979003219946e-03 1.432316960356314339e-01 3.371448445496443846e-01 1.679042843440694405e-02
6.136298501544405065e-03 6.483880258734213420e-02 -1.482614702084915359e-02 3.014923294728688238e-02 3.212299871493451420e-01 -5.535175642103039176e-04
3.274137915644249539e-03 5.790603938225451219e-02 -1.754973757536529289e-02 1.073564166979934092e-01 2.013776159726639869e-01 -1.559069988083642416e-02
5.464839821201248476e-03 5.958003964123650964e-02 -2.024365318738076402e-02 8.382262983955003632e-02 3.025845124239919803e-01 -2.439903561382935487e-02
1.012514906185362808e-02 5.916031225809327554e-02 -2.063451704200322534e-02 1.105084370687422629e-01 1.038626025249998475e-01 -3.884999260360396528e-02
7.975349299724477509e-03 6.461365392868541335e-02 -1.995789754455171150e-02 3.861301734020654991e-02 1.331227070878838736e-01 -3.143973904983424911e-02
8.690374137101835803e-03 6.886721669958577319e-02 -2.387837939725195868e-02 -1.758342286046665759e-01 1.794443841313098434e-02 -1.622132351687578453e-02
1.689129339142616745e-02 7.119350368895126235e-02 -3.047256011866247838e-02 -1.560648037530500132e-01 -1.138466424019426576e-01 -2.574964455169162156e-02
2.145578787033076973e-02 7.380199282007859907e-02 -3.880677463972209695e-02 -2.566942943331629867e-01 -1.101856074996694634e-01 -3.112570099271833729e-02
1.960534578166915273e-02 6.996470271531114726e-02 -3.275098088839351052e-02 -1.981711336855777883e-02 1.095777795004489012e-02 -2.535794711014775771e-02
2.631002992303068180e-02 6.640934626586189604e-02 -1.445555727146881353e-02 1.147149886403507207e-01 1.135591811813163182e-01 -2.603053126207188414e-02
1.838519072008028624e-02 5.498419625191326710e-02 -1.800785851852459984e-02 4.706571941927796543e-02 -7.723946808457668456e-02 -3.075354374980656530e-02
3.712918321369795133e-02 5.032332651163246712e-02 -1.772215981838991261e-02 5.801678837992618742e-02 2.261204761529984203e-02 -1.601524937861575557e-02
4.078764274206468643e-02 4.642317440053749661e-02 -2.585943641937660242e-02 -4.138871345863347206e-02 3.385577986130211547e-02 -2.786506595342713374e-02
3.856659133150017876e-02 4.143917622348829849e-02 -2.362347787298568758e-02 9.989165253926655247e-03 -3.716778965321666101e-02 -1.464358030727351545e-02
4.233534755948745870e-02 4.266246527472854905e-02 -2.708529723299182845e-02 1.439994405999001359e-01 1.840106350916874411e-01 -2.930183440578221915e-02
3.798275440246476342e-02 4.371588552536017497e-02 -1.685159431665811391e-02 2.629602671124778301e-01 1.013676310923475044e-01 -3.585917472352562196e-02
3.964852250652053239e-02 4.892996542395876974e-02 -1.489005296246495580e-02 2.190127125983769574e-01 5.638702660728850402e-02 -3.216133039670041743e-02
3.848599514309287289e-02 5.533822154320447440e-02 -1.872247934486406806e-02 1.854382186214302564e-01 6.186121185515192772e-02 -2.204021072268663381e-02
3.315108087184777397e-02 2.850421522850237616e-02 -1.577095118460125622e-02 1.987189944701251987e-01 -7.314810304485749870e-02 -1.738909888991538311e-02
3.527969560605073718e-02 2.991932852959137967e-02 -1.862328852942653212e-02 2.545043484238656006e-01 -7.976260683892681669e-02 1.246444441725844902e-03
3.516406010301324769e-02 3.194075360882571435e-02 -1.389371314505143118e-02 2.395855243528723089e-01 -1.672675701997787812e-01 -4.011848575216112739e-03
4.193755883999769618e-02 3.217163025100146928e-02 -1.620348206131683177e-02 1.106645728567791226e-01 -5.724577969402214889e-02 -3.380450444372287786e-03
3.816639089676297086e-02 3.243828097512455738e-02 -1.078943853452674073e-02 2.498028772848077395e-01 -2.103664025911865798e-01 1.726640151015567228e-03
4.382411312981743245e-02 3.680478027535721147e-02 -1.762008154088387513e-02 1.162797528487655579e-01 -2.205683164089662293e-02 -7.245440235047041419e-03
4.914073245485135744e-02 3.007467911740539790e-02 -1.370092304322914623e-02 1.458619085645719016e-01 -1.394900683608377712e-01 -1.039420622156486153e-02
4.570274302847497638e-02 2.947269855196914604e-02 -1.721370224957041728e-02 1.947551793859440272e-01 2.098640065262111221e-02 -1.175627987348143791e-02
4.719609028052297595e-02 3.338463910054264433e-02 -6.995715005822120136e-03 1.408401117405491398e-01 6.899784892794784234e-03 4.492175985896142663e-03
4.582127812987734500e-02 2.227366172833068064e-02 -1.012672370868597516e-02 2.095797866735334136e-01 1.181259311309312693e-01 1.861620268845473689e-03
4.631657655801569434e-02 2.977708547186602370e-02 -7.167569373950952172e-03 2.392420579054182206e-01 2.272727750647898087e-02 1.134322096356115209e-02
4.671646441620562473e-02 2.273017416824532622e-02 -8.946952098073043813e-03 2.793389304094540670e-01 1.223034830005221146e-01 -4.571614176713645989e-04
4.369959845635324608e-02 2.652340713058758473e-02 -1.429880565905534973e-02 2.702470034686643152e-01 2.043296486440503157e-01 -2.996735915048961453e-03
3.543028970588544407e-02 3.203353293095618365e-02 -9.335707310426391570e-03 1.621395828747249357e-01 3.102680648405221064e-01 -1.377075412519482289e-02
3.885310315794125724e-02 3.327862572662325380e-02 -1.139697296952311978e-02 1.965209521564074135e-01 4.487788223472661264e-01 -2.331380016053865092e-02
4.468820146256555909e-02 3.227131475302275759e-02 -1.023794881952272418e-02 1.465165093037999397e-02 6.036550823057680315e-01 -2.978454232764856519e-02
4.759150845600126911e-02 3.482184262208877501e-02 -1.453405965081865092e-02 9.578447781429788588e-02 6.889376144689253190e-01 -2.949624224077705345e-02
4.222234718101911671e-02 3.174398512479336548e-02 1.942495742303346207e-03 1.336836138910817151e-01 7.046766461266597004e-01 -2.914859960950413192e-02
4.623197408118376317e-02 3.184017560477864911e-02 -2.868407659768201778e-04 1.886128211917192099e-01 5.854376396092519919e-01 -2.936816719705349563e-02
4.224517917808626177e-02 3.125204824486938621e-02 -4.755440319176268416e-03 3.185378450426524788e-01 4.867096992620728590e-01 -3.002497370596193468e-02
3.622996755493695237e-02 2.607253561789757076e-02 -7.741202311834588512e-03 7.259439972552428344e-02 5.733799902491077960e-01 -2.921493074132338816e-02
3.980439560561467582e-02 2.484640745235715265e-02 -9.086309247992321869e-03 2.216830787964661209e-01 3.701407683644993840e-01 -2.380017258074822520e-02
4.674315313496292534e-02 3.351269356406774702e-02 -6.427976349707181791e-03 9.049921965259939693e-02 3.303928665633703021e-01 -1.652544462884211751e-02
3.925767918312756538e-02 3.996358461817535457e-02 -1.295668742841060705e-02 -3.741198394361874152e-02 7.405632643320719799e-02 -1.938796662034759227e-02
3.712867883096530874e-02 3.037255848767334704e-02 -4.122972584191808565e-03 1.875549467723229002e-01 3.109189372150804043e-01 -7.005622452534998601e-03
3.777065035001846149e-02 3.113958279539952648e-02 -7.259458707863736260e-03 1.756810769700790920e-01 2.698998866823096865e-01 -6.307908090766999043e-03
4.436193133590627530e-02 3.198522711986371420e-02 -8.959097878682376059e-03 2.095329903275110206e-01 2.079038323231974794e-01 -1.485174105034089975e-02
3.489597850938452872e-02 2.828418650920897989e-02 -5.332729949948350479e-03 1.902508333956395015e-01 2.397094546391524972e-01 -2.369401135758813365e-02
4.176812882926782267e-02 2.603077067784140969e-02 -8.013791722372751170e-03 8.923100124385716092e-02 1.070390033907349797e-01 -1.744013574135157285e-02
4.146847840051266776e-02 2.704386375839467130e-02 -3.764731498902607054e-03 1.692930750419678332e-01 -5.476981431668004330e-02 -1.538878411044201748e-02
4.501315693802911133e-02 2.383518753093715956e-02 -8.434065212194918892e-03 1.064495756543396565e-01 -8.160448914634486905e-02 -1.950853678053418236e-02
4.164092818030513954e-02 2.363376141744458550e-02 -1.279014842552739228e-02 1.453585172036337969e-01 -1.213641978522687383e-02 -1.531073226785905315e-02
3.335021721736369099e-02 2.213106685055152636e-02 -4.770711323878351617e-03 1.272944333239119374e-01 3.051635153326797550e-02 -2.860870566200736723e-02
3.021714513245805922e-02 2.062770984902821333e-02 -1.142162018446027383e-02 1.896316649331766246e-01 -9.704541981101640069e-02 -1.950310158706025643e-02
2.575296207158036393e-02 2.339161290529406453e-02 -1.060233253042880408e-02 2.156627022161763246e-02 4.991577121276465773e-02 -1.159414621069681205e-02
2.913350211722962740e-02 2.624427728933315801e-02 -1.504230594799395304e-02 4.347869533795106940e-03 -2.491349304370609960e-02 -3.002947924679444727e-02
2.492866624047045468e-02 2.480251502714016579e-02 -1.638826018866358647e-02 -6.688648604632218587e-03 -9.067556907795469578e-02 -3.221671000009482949e-02
2.014349996295493328e-02 2.436859530007522839e-02 -1.289569303841556214e-02 1.578978619489071131e-02 1.049883297494242362e-01 -2.426895678418831276e-02
2.619916127054778415e-02 2.534566807623744172e-02 -1.181968814369045717e-02 1.166613997534374225e-01 2.262978886697557812e-01 -3.497811628944179352e-02
2.492514039568527809e-02 3.418067138625354578e-02 -7.165070139911411395e-03 7.572449721156800095e-02 2.556849034479866112e-01 -3.845750820256357838e-02
3.342544349694830802e-02 3.813377809887251446e-02 -9.083209208937209622e-03 6.529827465665417885e-02 2.996020377973677706e-01 -4.461187322194967025e-02
3.212314404010461338e-02 2.859059831099023535e-02 -1.542392489347022000e-02 -4.078470424653834331e-02 3.159180839654325279e-01 -3.151510939102419168e-02
3.173275803215507701e-02 2.564309817443150008e-02 -8.642529281923078122e-03 -1.007704796000753050e-02 3.218516168540590527e-01 -2.795467092447842875e-02
2.947086133538032171e-02 2.653642663509837851e-02 -8.189188117089171715e-03 -8.742495410743088280e-03 4.019299799922276817e-01 -2.944191676886180262e-02
2.578156980870893386e-02 2.507966059024007918e-02 -4.985154344468112342e-03 5.250333328694609114e-02 4.263809904456462019e-01 -2.400755802483475060e-02
2.416361489456263570e-02 2.141778854402381568e-02 -6.285873424229704298e-03 4.706008095285239834e-02 4.123121051250469571e-01 -3.289417517990769757e-02
2.319748923291007833e-02 2.882106992633187356e-02 -1.606239853279640972e-02 -1.130142364684769661e-02 3.964510964686834837e-01 -3.100683043979393302e-02
1.786712631154492928e-02 3.230756313526640666e-02 -1.160319139360223295e-02 4.555705401667734661e-02 5.313491119856547096e-01 -3.481261704815871716e-02
2.210420330524994967e-02 2.895607761774375913e-02 -1.847320616011410843e-02 6.110159144195390774e-02 5.721500772350743835e-01 -3.105900164041006800e-02
2.582711196003006915e-02 3.023215701439813455e-02 -7.004611565819593433e-03 -4.978174443463352639e-02 7.035271252746011506e-01 -7.127969472931395059e-03
2.333202921717460188e-02 2.267611480957203857e-02 -1.279922545116794763e-02 8.533412903616524603e-02 7.921414260803064655e-01 -1.180714307908470144e-02
2.841644593606844696e-02 2.304823917586587209e-02 -1.183713585789528122e-02 1.218051161077954442e-01 8.339677644652548905e-01 -4.079050918146234252e-03
2.675839223456314558e-02 2.197985019339057655e-02 -6.119408727962974415e-03 -4.765299989216473242e-02 8.668653958254364245e-01 -2.443082670014103466e-02
2.695382589776925894e-02 2.301491156656077994e-02 -8.620846307506091488e-03 -9.730020723136992289e-02 9.740062374031077663e-01 -1.213609730223523878e-02
3.189373831226571115e-02 2.492045814457650998e-02 4.638102764488533092e-03 4.193283131111170958e-02 1.038225272192626392e+00 -3.913606832130649138e-03
3.335373303805330009e-02 1.996166244821535526e-02 2.408155285662683109e-03 2.264682370037068154e-02 1.158217173958574486e+00 -1.040825355556372275e-02
3.525798473801392691e-02 2.289440770571530420e-02 4.082006542667104831e-03 4.071369364085610648e-02 1.219801149865875844e+00 -6.386808271040050541e-03
2.992555025441255914e-02 2.212540773382377923e-02 1.086537755246089199e-02 -4.549984941695640189e-02 1.267483375697003867e+00 -8.193001209633682044e-03
2.957184350169242762e-02 2.872123569816256022e-02 8.967865854341450227e-03 -2.802979842526374249e-02 1.326763327035796580e+00 -1.441311200350626001e-02
2.849856052823623170e-02 2.115591214615412247e-02 1.542776826363381759e-02 -1.805690259728232050e-01 1.374084711069749609e+00 -1.151595040517994391e-02
2.922586194054779818e-02 2.190477450503534179e-02 1.385258808052355906e-02 -1.101020671768577208e-01 1.457751007181399716e+00 -1.675111593291092951e-02
2.167550695080259354e-02 2.468200217554808798e-02 1.401537201944424993e-02 -3.745794689533680361e-02 1.495464714398786255e+00 -1.834288916693058852e-02
2.135025741072262701e-02 3.520851142399988171e-02 1.798133874018600920e-02 -1.220876426869925424e-01 1.522905975964575553e+00 -2.619291264519914633e-02
2.703730631436638415e-02 2.887131012695076659e-02 8.776663716202698362e-03 -1.229014852302504068e-01 1.473534065404469962e+00 -2.955646563256049061e-02
1.658252241348821127e-02 2.634057575987120564e-02 2.278161165431630275e-02 -2.119599137366437736e-01 1.506738036649879486e+00 -3.417583203151333682e-02
1.042084699963279071e-02 2.626921029676562713e-02 1.670991891297951559e-02 -1.518764171168964505e-01 1.496335629200596706e+00 -2.969734622417685016e-02
1.829409684908267844e-02 2.552359452906097226e-02 1.623215727582927315e-02 -3.176405505484960340e-02 1.503339644604535730e+00 -3.103458514246094230e-02
1.032156431476335783e-02 2.672576979384104837e-02 2.357392341464908947e-02 -6.702915658413684252e-02 1.605672559763053453e+00 -3.231668391549656627e-02
9.159048708245860759e-03 2.628153610227669523e-02 2.367130772984271658e-02 -1.353600463660816714e-03 1.603377808414120809e+00 -2.864413604920536954e-02
7.831248501418863750e-03 2.551818352557640862e-02 2.533912580902336620e-02 -1.280134818040810640e-01 1.827733924114691044e+00 -3.086445324950642596e-02
9.527370707472043038e-03 2.099930232232518831e-02 2.428875592379936554e-02 -1.645094259063059616e-01 1.877902517029857554e+00 -2.948330079985653218e-02
7.299618030304901722e-03 2.594669100706255976e-02 2.433791205043103756e-02 -1.798043196451926951e-01 1.935194781714363987e+00 -3.160624480600498359e-02
2.109099742585822390e-02 2.337506436469966378e-02 3.680816733090705450e-02 -8.885331884161762339e-02 2.088510535053828665e+00 -2.355902188989944870e-02
1.690013172646481071e-02 2.250981224894987517e-02 3.854277166063982407e-02 -4.169178728502190984e-02 2.156883715621467967e+00 -2.820593644915618189e-02
1.696791556439831983e-02 2.032407689188686639e-02 4.650512826385688747e-02 -1.505602398838979394e-01 2.192893146672115101e+00 -2.944881790010754966e-02
2.100368853716829548e-02 2.073319372404347147e-02 4.170623672514317537e-02 -1.550504391402552917e-01 2.186997728490023274e+00 -2.691760676218392032e-02
1.188924914904395530e-02 2.283052752353924991e-02 3.863230796246366894e-02 -1.792455900615253228e-01 2.132286306605406523e+00 -1.973019109433219245e-02
1.145793686774476683e-02 2.820504264121191651e-02 4.636900248762249044e-02 -3.625707095863633378e-01 2.117938612097756135e+00 -1.137910059352336030e-02
9.767483845130686335e-03 2.576461586787430480e-02 4.025594214428909745e-02 -3.608619260117721383e-01 2.095970615725166741e+00 -1.152360281042325713e-02
-5.590307595280938346e-03 3.660733022605008880e-02 5.927481488443819835e-02 -3.671562338912625068e-01 2.200384943353704603e+00 -1.534271398381431561e-02
-2.256669488834990925e-03 3.035929106108957790e-02 5.978497046245775937e-02 -4.190136027441659916e-01 2.330384546824174397e+00 -1.223863041398997979e-02
2.884588394663782987e-03 3.099055266990472304e-02 6.507546717815995696e-02 -3.851138028532317681e-01 2.462095646982741748e+00 -2.496637194002283497e-02
-7.309705083105693009e-03 2.417131443729445342e-02 7.892147546755301502e-02 -2.863872700724355846e-01 2.451438067209231075e+00 2.301946779776309088e-03
-9.283161333750296340e-03 2.790482329193177957e-02 7.575389818997546598e-02 -3.605165737396100190e-02 2.224252510916487680e+00 -9.464044756600746913e-03
-1.452014332171228453e-02 3.027134225669702791e-02 6.133947321853028267e-02 -2.869078836050065195e-01 1.565793838870545240e+00 -1.935342014098098348e-02
-1.261699555037780300e-02 2.864997133827099779e-02 5.422273572538699460e-02 -2.791306608264784717e-01 1.244626773535254971e+00 -2.234874765190824480e-02
-7.593853220242670690e-03 1.998399050761932166e-02 6.010198114656284396e-02 -3.180695256040075858e-01 9.485765700501360698e-01 -1.850028510174276525e-02
-1.383598587385257220e-02 1.865158095770112767e-02 5.036700504307800585e-02 -4.223785604523415671e-01 7.327588909642523962e-01 -3.112045979803829479e-02
-1.363883560931484530e-02 2.125796851196282145e-02 4.271049150302336228e-02 -4.257202938413311433e-01 5.681675456082700970e-01 -3.105656353854605381e-02
-1.562322682658981096e-02 1.987724007714750107e-02 4.623099456645310412e-02 -5.830502785713440744e-02 3.558819898937292669e-01 -2.981914214042896347e-02
-1.425996489736335547e-02 1.936999513446979043e-02 4.310084984505840877e-02 -3.855832751041343275e-03 2.961784530478299149e-01 -3.674689581945817657e-02
-1.443520190402240201e-02 2.359873721664880464e-02 3.712384307398494676e-02 -1.609411070302214086e-01 3.765582910632726543e-01 -4.845566613075347195e-02
-7.364481836859544314e-03 2.108540927942705034e-02 3.901038605863971220e-02 -5.137400087871450693e-02 2.424353751558197823e-01 -5.449484319922589387e-02
-5.513551805954248868e-03 1.610075479272838478e-02 2.875192221630240574e-02 -3.865204688431141955e-01 -3.926373997911884045e-02 -4.127546114328999732e-02
-2.969198536895257135e-03 1.001991876873215177e-02 2.516255226409330747e-02 -2.218087958481081701e-01 -2.100803034058641716e-01 -4.696575437893126675e-02
-1.518085049977217250e-02 1.333221671002555314e-02 2.451840090031676134e-02 8.991073663932196147e-02 -3.975116780444192810e-01 -3.850442556571687103e-02
-2.438827380656916066e-02 2.150487515207567812e-02 2.287304613688237453e-02 1.230909688691453341e-01 -4.904098088546711143e-01 -5.157524863402896537e-02
-1.608775157570598371e-02 1.424670216817517515e-02 1.924402094615568215e-02 1.280589420063916739e-01 -6.190649803494059356e-01 -4.378782219667944758e-02
-2.362976526949273764e-02 1.370396444715757389e-02 1.173455123800581923e-02 3.729317862775505255e-01 -8.826413485080781829e-01 -3.677848369171236864e-02
-1.894675367985565115e-02 1.524120915716404602e-02 1.015894132515415826e-02 3.145086391212588706e-01 -8.941197490423639094e-01 -3.618087139673285824e-02
-1.837017047369288517e-02 1.407363854642182215e-02 1.194590911176132697e-02 2.312970945952715907e-01 -8.220373028110786739e-01 -3.599825921757875830e-02
-2.134348679668759963e-02 1.332476212114999323e-02 6.574613133059376002e-03 3.080216552732943369e-01 -6.741058822637502335e-01 -3.017235326445825289e-02
-2.092005900473081770e-02 1.358726936783482935e-02 4.387728783988020798e-03 1.068591224920664301e-01 -5.971913698603036336e-01 -1.188180896913466379e-02
-1.704582668423949496e-02 1.212258863698948905e-02 6.170447481202268047e-03 1.249610604420852839e-01 -3.349480627302429681e-01 -1.303650319526664797e-02
-2.473687682238554647e-02 9.585887212378286365e-03 -3.338893836487083489e-03 -8.015285236125374579e-02 -4.092265439211871803e-01 -2.641198097819570656e-02
-1.661515144196368948e-02 1.050502022214097955e-02 -7.909895686218235134e-03 -1.898963838300122553e-01 -5.096518120700886945e-01 -3.758144162861613152e-02
-1.628289960060497893e-02 5.559068501333598242e-03 6.092112330552679200e-04 -2.049173096977067732e-01 -4.997233557614277899e-01 -2.441396697134720281e-02
-1.406619848564218817e-02 1.850054565434293852e-03 -2.433725214613768895e-03 -1.321814187265727691e-01 -5.487726116926404663e-01 -2.207070125027351878e-02
-2.472074895171917294e-02 -6.549176224903545743e-03 1.181147270238630531e-03 4.857888782022790758e-02 -4.239343956001140334e-01 -3.356673155752070217e-03
-1.867490039182640935e-02 -6.314300898971571784e-03 7.636196789000404550e-04 -2.365674479895867738e-03 -4.663066491789810142e-01 -2.717767587110866967e-02
-1.798464357851019962e-02 3.166738252208926049e-04 -7.404187075933654771e-03 -1.010001122728390321e-01 -5.848172376192178890e-01 -2.417981425376556151e-02
-1.797514325172332519e-02 9.097224401781752942e-03 -5.868624891380569419e-04 -3.982939476939887508e-02 -5.606115489512457639e-01 -1.812353103084447109e-02
-2.209382769395939333e-02 7.801832201460903379e-03 -9.477508401677936511e-04 -8.141931019213823062e-02 -7.358764971239958319e-01 -1.960465705413995396e-02
-2.127667267181331326e-02 4.668413586102269745e-03 -9.459430733489274101e-03 -2.325272541055591613e-01 -8.528757136591293975e-01 -2.893891966878215857e-02
-1.554425269617109098e-02 4.834666215844782636e-03 -1.423183836842362160e-02 -1.078511589289081196e-01 -7.380723523544747700e-01 -2.351387002210255164e-02
-1.763621736044372265e-02 -3.790330678957429516e-03 -1.532624540836019511e-02 -1.845656705441988121e-01 -9.154450248042571570e-01 -1.449713675787069229e-02
-2.880588609382730633e-02 -1.306170579013533201e-02 -2.425314035467927842e-02 -1.503407951886949201e-01 -8.073526767542938964e-01 -4.715820755076031122e-03
-2.502754363350648270e-02 -1.127183316160605860e-02 -1.272808317279486290e-02 -1.208484881998132254e-01 -8.843167718313386105e-01 -1.159462850948406783e-03
-2.590796255695052355e-02 -9.442197317432633394e-03 -1.759302712710385241e-02 -1.301744788478402803e-01 -8.045399764651405272e-01 -8.685958585931720377e-03
-2.199085387525885268e-02 -5.835813361541950482e-03 -2.756621134739795087e-02 -1.213285845599803153e-01 -6.745404401246811732e-01 -1.528894942151929649e-02
-2.135418052062243791e-02 -1.077440318585141596e-02 -3.936345001538749111e-03 -3.747932115830705790e-02 -5.059325149067717131e-01 -2.096175334175065172e-02
-2.269355971204633018e-02 -5.327477811002115891e-03 -1.172761167762913226e-02 -1.129934065751279360e-01 -3.113487293239944331e-01 -2.905521762917765566e-02
-1.603681409041014111e-02 4.116467310024759726e-03 -6.767117649475476449e-03 -1.878944235141490407e-02 -2.447965132424851364e-01 -4.208135699958489434e-02
-1.583921549752295363e-02 3.911904017207374316e-03 -1.087834121210456972e-02 -1.232389316768075192e-02 -1.968924266400556289e-01 -4.075685742250778620e-02
-2.198412191956293157e-02 4.082302630615055293e-03 -3.188395529839183062e-03 6.777255788847295903e-02 -7.920928955895355228e-02 -4.222462447292544413e-02
-1.753709583659807114e-02 4.242084153376240660e-03 -6.372866399872056942e-03 1.127772195942134403e-01 4.541494792773361627e-02 -2.664039625054582736e-02
-1.539766614775923276e-02 -8.268898290888551097e-04 -8.100153910802487811e-04 1.666179012198306664e-01 1.022375057737169579e-01 -6.332764458190168200e-02
-1.170700283410927578e-02 2.356098524329015582e-03 -6.290482237787525799e-03 2.144834271051292152e-01 1.852219905700181746e-01 -5.721651521872072460e-02
-1.301226440189053035e-02 8.978807056653301949e-03 -1.233045876645649797e-02 5.599826561102362599e-02 2.563092455596159835e-01 -4.391850559677120541e-02
-1.400277856325129154e-02 7.172941194448734410e-03 -1.479640733607193170e-02 2.242001765484633868e-01 2.744517200268840607e-01 -4.972718586819330211e-02
-2.347684875036609026e-02 6.761836791835741309e-03 -6.975788901434937239e-03 3.443148541665002477e-02 4.053046474533253951e-01 -4.379027656676907909e-02
-1.829799931699591792e-02 -2.166049793778483234e-03 -1.447570533475311949e-02 1.281276864127542381e-01 4.039289719362244013e-01 -4.575863618696493496e-02
-1.800790609712078078e-02 -7.261527814967944951e-03 -1.139496956878371936e-02 7.953371508637177567e-02 5.319245480727672337e-01 -2.177465481037663825e-02
-1.554545152643314193e-02 -1.098795579547822560e-03 -9.818519328463518048e-03 4.056559125014234241e-02 5.401478964195886023e-01 -1.250421288297448932e-02
-1.642099600747710247e-02 8.004013357943682433e-03 -5.864649542818442529e-03 1.195646328249166390e-01 6.064003939341239269e-01 -4.009693783174522047e-02
-1.832914816900451521e-02 8.292738795742146674e-03 -9.013371390884178380e-03 4.553171913485365430e-02 6.403604562865228278e-01 -3.820037726498555497e-02
-2.020636349708455209e-02 4.635716758537741962e-03 2.746290477951274234e-03 1.320694178666887153e-01 6.857408497496105815e-01 -3.449545563929657527e-02
-2.019813305427762065e-02 3.071411615336739048e-03 1.174157578040041505e-03 1.034890696758672540e-01 6.849782158893520378e-01 -3.663661831935329655e-02
-1.619340666465886661e-02 -4.108147457779443186e-03 2.370477634996981386e-04 1.935259401227567080e-02 7.859693673074230613e-01 -2.720877683608746017e-02
-1.872731355836221995e-02 7.897824529230624072e-03 4.177864905674566476e-03 9.197153468713578639e-02 7.193767748455915934e-01 -2.802969783297780057e-02
-2.526636903704246664e-02 3.329328636239663707e-03 5.510612642029011354e-05 2.293718480649923480e-02 7.683258850538636775e-01 -3.127910093861564766e-02
-2.274852716009980944e-02 1.449149503803326151e-03 -1.374201464507118775e-03 9.733459261544717689e-02 7.166960831802564602e-01 -2.345408128422414931e-02
-2.072051754245574084e-02 1.236144568637089457e-03 -2.187339410155003661e-03 8.586245114636660569e-02 8.269544283931490325e-01 -1.763458377071216304e-02
-2.321385251601422450e-02 -3.066763349777542128e-03 -2.324244632596561555e-03 7.716333730017141401e-02 8.166615074241413419e-01 -2.501262807748770925e-02
-2.483007748190593778e-02 3.081534897376945678e-03 -5.823562757121786282e-03 1.010761157171477242e-01 9.284002362325868285e-01 -2.390092668824255265e-02
-2.978252285214505468e-02 -7.792181618379393502e-04 -1.666810305516408519e-03 4.802646160337588344e-02 9.440461294244478774e-01 -1.572023761840119979e-02
-2.755517932642797402e-02 3.821769089695684074e-03 -3.638315988624712949e-03 6.362766225671030729e-02 9.834656453025686362e-01 -2.088322721867523490e-02
-2.402657252398109067e-02 7.346704311776271375e-03 2.704173757133193634e-03 7.135200796827989578e-02 1.016675396742070081e+00 -2.460231034348146426e-02
-2.421274785110697630e-02 8.486662153600903549e-03 5.192377790026930784e-03 9.594374837326209715e-02 1.010245212337064658e+00 -3.608479711627594205e-02
-1.109065330661054491e-02 7.619953462041023987e-03 6.573880574881035832e-03 2.138208865011488255e-02 1.037853529411727038e+00 -2.966834055789334401e-02
-5.514705766249814421e-03 1.013766194329581739e-02 3.575950155523449636e-03 5.551514808764062420e-02 1.018732408725860239e+00 -2.782395703593590688e-02
-7.264022640415725846e-03 9.937367059730721139e-03 4.173158399101178917e-03 1.215589708983433465e-01 1.010801332167833966e+00 -3.104596100250310922e-02
-7.649082336404785729e-03 6.616763120125797662e-03 5.009842984863649429e-03 2.378673173289359150e-02 1.007367025001814520e+00 -4.023811963404475001e-02
-1.483170002339194611e-03 1.525237237350065070e-02 9.397043056999510036e-04 5.612915424031369310e-02 9.917319766399644854e-01 -3.502868159517420754e-02
-4.481216181010026084e-03 1.465546748497944737e-02 -4.446542050827673176e-03 3.151932137006457219e-02 9.909052318090662004e-01 -5.926200650201525477e-02
-9.522828490527205335e-04 1.837924968763735706e-02 -3.527351391781119450e-03 1.479940459709411932e-02 9.445646143136474659e-01 -5.459348587899989780e-02
-1.302015688155029431e-02 4.729538709586068000e-03 -4.286436606080162859e-03 6.186031791784315885e-03 9.408945905153187628e-01 -5.775715269926812168e-02
-6.908899235495224479e-03 4.939019618467188275e-03 -6.818267339937372773e-03 4.204227582052711201e-03 9.045471111532541464e-01 -5.566602329101706659e-02
-1.280015299447593777e-02 2.717891793895524898e-03 -4.032081366562800806e-03 -4.449584829172454487e-02 8.798211256994277196e-01 -5.628919549066641742e-02
-1.581246577353221175e-02 3.707607152782100689e-03 -8.515287562719714431e-03 -1.385319480199887453e-02 9.126127265149199808e-01 -4.687136221350842596e-02
-1.788931624002245563e-02 1.216197462224757365e-02 -6.795895624567976911e-03 -2.770698871319406814e-02 8.767878695612731921e-01 -4.820895923218929124e-02
-1.850256302401688535e-02 7.535012507046080256e-03 -9.224271050214685741e-03 -8.806863233187404993e-02 8.983405428085440292e-01 -4.149052074840076793e-02
-2.013869175391224883e-02 3.588337793206610674e-03 -2.999406099365303779e-03 -1.970621990942596213e-01 6.642066587703059355e-01 -3.929468801350533003e-02
-1.650899584141114068e-02 4.239865463513394438e-04 -5.930934599336940005e-03 -9.670274770861661540e-02 5.327950130584391264e-01 -3.850578960044392929e-02
-7.673463875602102267e-03 -1.369989793485613212e-03 -7.083620690692529753e-03 -1.380561048159448245e-01 3.191104511128961541e-01 -3.223745123041425742e-02
-7.254521739985056623e-03 -3.677038647659536773e-03 -5.395792250380310184e-03 -1.805020715918052299e-01 1.647643292953275274e-01 -3.993789218011127573e-02
-1.165617981472193837e-02 -6.543027401344042072e-03 -6.916014571285794554e-03 -1.889776271883202019e-01 1.719015566251640981e-01 -3.181084785265816950e-02
-5.070305754873517638e-03 -6.739701701387920685e-03 -1.316290000462536081e-02 -1.527466828349066663e-01 7.233014930952551269e-02 -3.681612015706685337e-02
-1.591466454095516111e-02 -5.397455913421254437e-04 -1.070628421890557069e-02 -1.953336368775494547e-01 1.460482528164550597e-01 -3.285840269861656920e-02
-1.834847491422559457e-02 -2.205500238913933771e-03 -1.211440921994107189e-02 -1.531496505226581928e-01 9.217834705214988933e-02 -4.925219502916688974e-02
-2.637486606391488408e-02 6.412842099641938125e-03 -1.479870978435432471e-02 -9.948422178659616089e-02 1.525954910557270339e-01 -4.067517367651919680e-02
-2.243893877575280776e-02 -1.001849612936821276e-03 -1.503067605656376038e-02 -1.556744115022647146e-01 1.974422693417753061e-02 -3.084083512362307405e-02
-2.587327316444515413e-02 9.303556217848750476e-03 -1.139728884530551156e-02 -1.045816453361967518e-01 7.989621768539745261e-02 -4.879330669501087681e-02
-3.243563359856636158e-02 2.071296730476276937e-03 -1.124661790849096343e-02 5.119522475111534104e-02 -1.049988224466046616e-01 -5.314862736246969699e-02
-1.176641639202942978e-02 -3.622425737091708063e-04 -1.339328516902531241e-02 -9.204333544623413688e-02 4.569854833251285608e-02 -4.185037129999626820e-02
-6.464547164176111249e-03 -2.454778920524441736e-03 -5.955847349754073150e-03 1.029429124239921584e-01 -1.275948616467368624e-01 -4.131061493997530143e-02
-1.029993370049850712e-02 -1.020535681781945501e-03 -5.103508904389431056e-03 6.712614142895812798e-03 -1.863364596816792507e-02 -2.940057660201104289e-02
-1.714797072318332768e-02 5.699460092852137380e-03 -4.535735229285131620e-03 1.289146499095539244e-01 2.420839685327607748e-03 -2.847475233304973263e-02
-1.384298837441307051e-02 6.311252674009614448e-03 -1.006580910595404610e-02 4.056771272293339947e-02 -4.625143214554281422e-03 -3.084982621465215055e-02
-2.228309785479413302e-02 3.440599390612151046e-03 -6.656039888575923658e-03 2.275528063604407430e-02 5.605063347291904668e-02 -4.268408167635475564e-02
-1.999049471889818852e-02 1.199408679800852660e-02 -2.789106171346616980e-03 1.712220676050983104e-01 7.137414819108791990e-03 -4.282355423322984495e-02
-8.996746988791449670e-03 6.062069444308292206e-03 -4.436545211803200051e-03 6.395337019358232622e-02 -1.677943306239160562e-02 -5.813136197003640482e-02
-7.873663529768393579e-03 2.363805725808796818e-03 -2.576304061044309979e-03 9.828991577755603892e-02 -5.219810959159883190e-02 -4.731507469752548739e-02
-1.450343886414972791e-02 6.866449497355665496e-03 -2.088397743384928784e-03 1.360885850298278466e-01 -1.909744347809741449e-01 -4.570992528416177592e-02
-1.824294749215364317e-02 3.791770307648529344e-03 -7.092249040596576570e-03 -7.409490798424861469e-02 -2.577579901614938662e-01 -6.474343771252571988e-02
-1.488090055511502238e-02 4.664477284008906009e-03 -5.782697196765537728e-03 1.080860059846074500e-01 -3.332603183962786764e-01 -5.849998891629180908e-02
-9.728275221526099317e-03 2.550288356850813169e-03 -1.353691308695054163e-02 -1.436324537854846983e-01 -4.878153729029440222e-01 -6.147286089745771648e-02
-1.277380131239347003e-02 1.171512750674640925e-03 -5.331080298452750554e-03 -4.490163189040084074e-02 -4.937106410525756717e-01 -6.039983165634477819e-02
-2.017430047552993752e-02 3.085624519384167971e-03 -4.005244442731203947e-03 -1.410790522820265513e-01 -5.837183265418224298e-01 -4.975174269298221486e-02
-2.051254997156125998e-02 -1.313768413288811257e-03 -2.288902804492037868e-03 -1.463245628610087001e-01 -5.526005427408535731e-01 -4.078150699916349015e-02
-1.548025863106985631e-02 -1.128081016837780698e-02 -7.420336763777596323e-03 -8.681226955753075514e-02 -5.647735145958672209e-01 -4.514768743136874513e-02
-1.484787037734900880e-02 -3.902489188381718841e-04 -5.024413499676583239e-03 -1.188996024473172458e-01 -4.758500927368715105e-01 -4.323177431711223984e-02
-2.492233183679338007e-02 -6.909005149422301102e-03 1.386159841165912621e-03 5.213004386518075434e-02 -2.666075064882465484e-01 -3.651605544483284282e-02
-1.960167779491842413e-02 -2.035806648872959951e-03 -5.469256668945154942e-04 -1.779320970886748982e-02 -2.078252114459587518e-01 -3.902878930445809191e-02
-2.448209616446902701e-02 1.303408562576972027e-03 6.151897243733162046e-03 2.188958367116689840e-01 -1.998407887845250475e-01 -4.336729553136011578e-02
-2.793563100727800702e-02 -5.882226788663759897e-04 7.954871266630247906e-03 2.324769379506786693e-01 -1.083881801668398898e-01 -4.856534827513638020e-02
-2.345037963258089081e-02 6.017810798386875881e-03 1.238887809381683525e-02 2.752782773610210065e-01 -6.367206450213601376e-02 -4.392127376661308924e-02
-1.556941114034499432e-02 7.852582347595530796e-03 1.640681266520727100e-02 2.475032613711470042e-01 1.996845616282869884e-01 -3.885736012864470651e-02
-1.719093396772874982e-02 8.821732107927969177e-03 2.343570893512669784e-02 2.762755611212271978e-01 5.188105995710222684e-01 -2.429415368927418523e-02
-7.628101312351006150e-03 1.599612866948631196e-02 3.118495233886331430e-02 4.286868228873171316e-01 6.619473719667573475e-01 -3.387069820197064624e-02
-1.871441567752737609e-02 8.224227826621445525e-03 3.442957583579339675e-02 5.476968834410772535e-01 7.872550384380205823e-01 -4.613956655277544339e-02
-1.380435171962301165e-02 1.139831738812841118e-02 3.584250062087379618e-02 5.918943147999824461e-01 1.110763152150777255e+00 -1.072759527168841605e-02
-1.979151486082129235e-02 7.990592682341495293e-03 4.763149089679544201e-02 7.189764617747481656e-01 1.444943347876133100e+00 -1.883693699549670447e-02
-3.079230611229035255e-02 2.993440308610030749e-03 5.681093949874632676e-02 5.373815418325437188e-01 2.002725890950445731e+00 -1.680498994765497467e-02
