5.815800456760603088e-02 -4.294817678975361430e-02 -1.220562873640623769e-02 -2.475570361615011747e-02 -6.351425351892835136e-02 -1.675349215688378551e-02
5.733504177644727084e-02 -4.433933473076546311e-02 -2.711578142857135054e-02 -3.477950962648330979e-02 -1.578706915297754532e-01 -8.553121367259117550e-03
5.838276310979546857e-02 -4.444742161976960454e-02 -2.029923522020221638e-02 -7.644590968974447620e-02 -1.611613775493005440e-01 -2.316894421843098198e-02
4.971518747369726987e-02 -4.272270419708863037e-02 -1.346156473653636887e-02 -8.117503993273710028e-02 -1.040136129039763019e-01 -1.967115836684016003e-02
6.033476257277325949e-02 -4.286094399072273853e-02 -1.801231695193322713e-02 -5.331499994628250555e-02 -7.285653154655363176e-04 -1.728080271612079943e-02
5.708824256505249523e-02 -4.863558291901066283e-02 -1.528768981912281832e-02 -8.561451256151793310e-02 3.325795608081347915e-02 4.616954114204065845e-03
5.137868374985397196e-02 -5.163741685935177572e-02 -1.112322886483796403e-02 -1.391211525228007451e-01 -1.514471798215073252e-02 -3.024949152651804779e-02
5.241726045397092359e-02 -3.148778121644168343e-02 -8.271955416498333324e-03 -1.579737034671563067e-01 1.588404578492774721e-02 3.811035236314660275e-04
6.344846718400828922e-02 -4.142227316629772116e-02 -1.143099753069043434e-02 -1.473767023395633480e-01 1.571658713901724624e-01 -2.213993438462851134e-03
5.518201206862476810e-02 -4.691244655950734671e-02 -1.329759402478014607e-02 -1.220276284834344027e-01 2.276350187717141038e-01 -3.124333902389371184e-02
4.887298353633268144e-02 -3.206208670807073058e-02 -2.296306436659145689e-02 -1.786922057964511201e-01 3.647141490974445399e-01 -1.603014027297556404e-02
4.349362099063487641e-02 -3.957130756949801126e-02 -2.127612452808619325e-02 -1.432860710715045394e-01 3.190868627809578251e-01 -1.652813460446288935e-02
4.562101993181613691e-02 -3.916644254815530857e-02 -1.064308749854175895e-02 -1.837690952494472618e-01 3.269381138792189501e-01 -3.032403227040741250e-02
3.856157736075198350e-02 -4.258577758304270960e-02 -2.187103275834673122e-02 -2.332277554001487563e-01 3.321828529202539015e-01 -3.583263315801672733e-02
4.215852213592942432e-02 -3.272813346488875202e-02 -2.401841785644481808e-02 -2.573356465679603744e-01 2.849025380792526985e-01 -2.231154325022717544e-02
4.785706098838303502e-02 -2.313571161258292513e-02 -2.774562884329628831e-02 -2.101368151813115259e-01 2.185049902615215645e-01 -1.609614327610728313e-02
4.597233349776347344e-02 -2.750462498809951029e-02 -2.062968351391059052e-02 -1.794594980454176092e-01 1.240864871781100359e-01 -2.197358355641654271e-02
5.158113218457929805e-02 -1.882910611128906994e-02 -1.844543665836884117e-02 -2.213415272187136407e-01 1.216024976403304869e-01 -1.822097832285427682e-02
6.069387220126423732e-02 -4.578777071553966765e-02 -1.982594960504951986e-02 -2.263954752727141417e-01 7.581781221453011421e-02 -2.113237018487706606e-02
5.793743198939542427e-02 -3.868285981257137129e-02 -1.260481277466329875e-02 -1.606701525245310680e-01 5.478707061220338542e-02 -6.106090058380960438e-03
5.633841490519631012e-02 -3.801377831691901688e-02 -9.509003522902514938e-03 -9.770028641040380546e-02 4.466622537145267108e-02 -1.864475904162586281e-02
5.393173245689528161e-02 -3.800666531057324271e-02 -1.912258762586066529e-02 -6.870993250766756211e-02 7.050180439527460596e-02 -2.012048888383352954e-02
3.217461429317156063e-02 -1.595874220766381468e-02 -2.304927160173880774e-02 -4.482037434514683089e-02 3.302308928225445445e-02 -7.720295922657795934e-03
2.662054480998976916e-02 -2.372266558411351492e-02 -1.526414556308736126e-02 -8.597444535672792154e-02 6.525461419114642059e-02 -2.028458592168193991e-02
2.959384868447876085e-02 -2.753083211216854689e-02 -1.485000206487552266e-02 -1.198313292958494980e-01 1.623778513883106789e-01 -1.126642500908897962e-02
3.259222863834128348e-02 -1.718649040105425796e-02 -7.993799634392895204e-03 -1.357166744350385701e-01 2.017196069509562539e-01 -1.506770055887262164e-02
3.543226882209352113e-02 -2.895822400896140222e-02 4.828324297598385328e-03 -1.451159613326192810e-01 1.911390063616039692e-01 1.177779099964016210e-02
4.248695272335713258e-02 -8.476337149785372060e-03 -2.665954368264250585e-02 -1.595170387857740013e-01 -8.732849006515747137e-03 -3.406585154777756318e-03
4.768505975084703918e-02 -1.610213306774485251e-03 -2.320196826713022409e-02 -1.289485543680817803e-01 -9.568929248209162575e-02 -2.326492868115839774e-02
4.654527811834786172e-02 3.116945540246190971e-03 -2.229268201691120277e-02 -1.163617291855328639e-01 -1.318732478235652705e-01 -2.920912745012443218e-02
4.398581275965925130e-02 -1.772139971414810403e-02 -2.602979329361748695e-02 -2.219294034907832724e-01 -7.805695596413000925e-02 -2.175762994401268108e-02
4.426373941200596740e-02 -3.232015562268901118e-03 -2.759512472990255372e-02 -2.562030741936113798e-01 1.623622216706573779e-02 -8.729965188282250155e-03
3.265563666518311176e-02 -7.234756491372798526e-03 -2.286677313653390220e-02 -3.671336689322388658e-01 9.268979185717764191e-02 -1.392454169211145183e-02
3.558129897457969204e-02 -2.586192851579526691e-02 -1.852602802045250074e-02 -3.415947798275370539e-01 7.922109178385479400e-02 -2.025909388190423599e-02
4.538392161519398671e-02 -3.433071733079336163e-03 -1.591797770633596176e-02 -3.925097437769633490e-01 4.278816432862016933e-02 -1.426348459954716007e-02
4.416047009716708716e-02 -3.438175304078985861e-03 -2.289809219462912715e-02 -3.887316951714041569e-01 1.020079041367215472e-01 -3.361975937014811261e-02
4.849841542836078739e-02 -1.194322008016420432e-02 -3.499675880269087491e-02 -3.406668659071763194e-01 9.128359052184865929e-02 -1.460627350529388087e-02
3.566098209251067352e-02 -1.223204640216956837e-02 -1.372800805501472876e-02 -2.784682696027641069e-01 3.117083217780687240e-02 -2.102212722768305800e-02
4.124946817531872922e-02 -5.328618946769376682e-03 -1.115076205489407002e-02 -2.907523638011930145e-01 1.618058684515917001e-01 -2.657900442000694571e-02
4.669614300761640302e-02 -7.983269509756227983e-03 -2.982824887007407000e-02 -3.183395445620898490e-01 1.323117725274881307e-01 -3.454881013767235193e-02
4.049579154982883844e-02 -1.621201308138380676e-02 -3.107143604374307255e-02 -2.725299439489395903e-01 2.390457729861650005e-01 -2.064168427939471959e-02
6.274618338176791987e-02 -1.416701055232964454e-02 -3.202787570604603840e-02 -3.164079182069349794e-01 1.975910399213758328e-01 -1.641637432379830161e-02
5.482909293281276047e-02 -2.131978307582230170e-03 -3.068828776986759488e-02 -2.941707501122364787e-01 2.183011858495848834e-01 -3.080285803950717077e-03
3.463316638891295041e-02 -2.787924293750023569e-02 -2.202733771374443261e-02 -2.766360048785037606e-01 1.597995396772856624e-01 -1.089944511470519045e-02
1.583458567948106688e-02 -2.305435468663945622e-02 -1.256035829405599547e-02 -3.845935259663543215e-01 1.028718185019824316e-01 -1.421648321613966197e-02
4.703608868079928867e-02 -1.246904719532582195e-02 -1.532237578157735758e-02 -8.339978059801085586e-02 1.523495863119498916e-01 -1.246962429311802671e-02
4.080606861020473486e-02 -9.344608630871827776e-03 -1.073759701951326750e-02 -2.356234436728331938e-01 9.859892117356389152e-02 -1.430023285218939670e-02
2.938043573677604978e-02 -3.145975382886610772e-02 -2.471862126783030966e-02 -1.050183694786267635e-01 7.353425877930923338e-02 -4.237560187585463073e-02
3.084481250681140804e-02 -2.357039269228802802e-02 -9.797372341129095830e-03 -9.246368883290183305e-02 2.861036946036498718e-01 -2.634664760820755458e-02
2.825419008752069402e-02 -3.594421772060800435e-02 -3.017795124446448485e-02 -3.041022495282759697e-01 2.618375991782087575e-01 -2.635995433351781547e-02
3.390122671254210129e-02 -3.568314765684635348e-02 -1.504024320973779139e-02 -4.818251970674509166e-01 2.175837681847951344e-01 -4.023674619019468324e-02
6.253615329232786735e-02 -3.796028185870489735e-02 -2.407828742328543825e-02 -3.519836696868314796e-01 1.314953926673380902e-01 -3.687662784418690304e-02
5.667873125358517672e-02 -2.673050942686706552e-02 -1.456566950130327998e-02 -2.500070837859061368e-01 9.843559721652382632e-02 -4.917891221499246651e-02
3.443425153855571991e-02 -1.948422533418241870e-02 -1.384545031638023671e-02 -3.006242962188965251e-01 -1.560061261095730366e-02 -2.507954062083872157e-02
3.090880478802428971e-02 -2.154280167811518237e-02 -1.396102890036449162e-02 -4.494672981558580083e-01 6.944719119654509110e-02 -3.105679612507399046e-02
3.701148776744537378e-02 -1.039382645450651413e-02 -7.380869953593827137e-03 -3.745873056658052258e-01 5.235898227316321957e-02 -2.632863758340912505e-02
4.508309097684398692e-02 -1.281432372447267876e-02 -7.573398404454978472e-03 -2.860040783632716854e-01 3.874917278029502837e-02 -1.490510715956091387e-02
4.275744600392696743e-02 -1.199714830934890675e-02 -1.220025827229459514e-02 -2.600337821569245755e-01 8.745906997451617648e-02 5.909550942829190981e-03
3.419849784327685938e-02 -1.842088301223021238e-02 -8.338748714406374329e-03 -3.106602714160351386e-01 -3.521137395670291548e-02 7.335129458613247333e-03
3.581851688209605755e-02 -1.238807720362247212e-02 1.033480258251096018e-02 -2.108454820590422440e-01 -6.118154345648287723e-02 1.341585904824376015e-02
3.784490224178160139e-02 -4.279312940536351278e-02 -2.370301669491292618e-02 -1.376991563932925267e-01 -2.097299170266267443e-01 -6.555732061054372374e-03
1.441250682269386643e-02 -4.657692020993335624e-02 -2.424050173951919351e-03 -1.083037124462719186e-01 -2.919937632405652517e-01 -6.313450588743882604e-03
1.588693828414935311e-02 -4.335646929418261047e-02 2.911464034103861120e-03 -1.826936490262095203e-01 -1.925347789302973012e-01 -1.148922276218168267e-02
1.954304179720461193e-02 -4.393564764643727305e-02 -5.832066817083481070e-03 -4.728387690291448869e-02 -1.475762352026120938e-01 2.118744263793943816e-03
2.056484374930871856e-02 -4.571505636623524743e-02 1.986891562675452416e-03 7.468102681201087278e-02 -9.054953600076820486e-02 -9.173998964191180938e-03
1.910223377781823315e-02 -3.849988071216783880e-02 1.299529757373357741e-02 9.716865133708270375e-02 -8.039484857491607794e-02 -1.619917816088349907e-02
3.801634888643816435e-03 -3.676383487247873727e-02 1.299150438110818762e-02 8.143724246259838040e-01 -6.485279711432431760e-02 3.514701538113831208e-02
3.093498022820839050e-03 -2.866917843173146310e-02 2.084737581131074213e-02 7.687456669784975549e-01 -7.819649606411117893e-02 2.812073092207864958e-02
1.261807795338693375e-02 -3.249232943402970142e-02 -1.018985174722442100e-02 8.254949685156736106e-01 -1.562052854248512646e-01 1.468638442734918059e-02
1.324343640839394098e-02 -4.037383575186633683e-02 -5.851968482460889742e-03 1.072910220012854410e+00 -1.749516877443137511e-02 1.614536018179074314e-02
1.270592598884122751e-02 -4.267828525074018886e-02 -4.379801029146257463e-04 8.585245253055127090e-01 5.715429659922978411e-03 1.882482991611239553e-02
2.148857888402068775e-02 -4.222427467735461598e-02 -2.116682314978596269e-02 8.011621131444393029e-01 2.586460438699626080e-02 1.505650723694874384e-02
2.553787483473602196e-02 -4.113408835517344542e-02 -1.547599234399971158e-02 1.003259142461597753e+00 -1.041483971025056326e-01 1.313430945900296784e-02
2.403147166528084300e-02 -3.620651910768137721e-02 -1.973666776446814097e-02 9.618190269244082380e-01 -1.534916393245829569e-01 1.177527099620455202e-02
2.488306914917689031e-02 -3.452925174506053102e-02 -6.833697445797093373e-03 5.849224373828463275e-01 -1.183656381666537034e-02 3.648791379261854314e-03
4.304209668462342930e-02 -4.263418360981167249e-02 -1.816676423261065487e-02 6.074784512798244718e-01 -9.102867982554592452e-02 7.413123318832470603e-03
5.101464286570370210e-02 -3.482988799179149997e-02 -2.166455802911471107e-03 6.862088215475382613e-01 -9.566085147125072408e-02 1.479355743105057949e-02
4.959733929416709763e-02 -4.238981604683812743e-02 -1.396589000422721050e-02 7.213757383507088949e-01 -6.997607248906080601e-02 1.647656381804355960e-02
3.821009361473402810e-02 -5.201377487524447285e-02 -5.612949211179552034e-03 8.344700731136582839e-01 -4.689564618022945552e-02 2.843489470152103099e-02
2.912961752884189390e-02 -5.915130307960106415e-02 -1.215713973929960501e-02 8.736830920950391377e-01 -7.588979562264244749e-02 2.844135168663821864e-02
4.760873139590715564e-02 -5.575064197350947798e-02 -1.471313012189096048e-02 6.870650600274044173e-01 -1.077405083809889613e-01 2.437896954799817842e-02
3.751672399603120378e-02 -4.554383791170320273e-02 -3.260415469729721627e-02 6.624606185210351050e-01 -1.088329392130488044e-01 2.190812377357301971e-02
2.176287201084161488e-02 -5.057423645454025424e-02 -2.273877192123963109e-03 6.490344380375712152e-01 -1.143567002014619916e-01 2.568667365466339308e-02
4.348026421724753704e-02 -4.314989508414267261e-02 -6.743845281389437840e-03 6.421904717898153647e-01 -1.941210862183605571e-02 2.491430331760238412e-02
3.583594338876927576e-02 -4.152652550025977274e-02 -6.039032546901079712e-03 6.756654461532642930e-01 -1.941202267849374136e-02 2.362706627326977352e-02
2.308146024131873392e-02 -3.522111469743162415e-02 -1.608484507903290561e-02 4.596361414382122423e-01 -1.314093876934400995e-01 1.580784173988435126e-02
3.916204385261179421e-02 -3.008901924416332307e-02 -1.091962624348924438e-02 6.420113743756306057e-01 -6.597363912990912571e-02 1.550333710942944018e-02
3.262699976003360230e-02 -3.296910363788085191e-02 -2.274436200005441888e-02 4.277729934875089679e-01 -7.479858480636863982e-02 -2.237121703110910107e-03
2.350737609009114631e-02 -4.446407213649415657e-02 -4.787581206296687153e-03 4.187269101317228071e-01 -3.299527435342913123e-02 1.188091052927974303e-02
4.613654005470425173e-02 -5.166695474267249399e-02 -8.702729595446989652e-03 4.733599135684267711e-01 1.017619653655225248e-02 1.086054787376190996e-02
3.316253815777120417e-02 -5.100551147010264075e-02 -2.411040842736689171e-02 4.012843647120383217e-01 -2.749252035222630314e-02 7.302642066596180641e-03
5.054041857343036237e-02 -5.265278655869262692e-02 -1.939662604917097299e-02 4.298851360154243850e-01 -3.125162045507626218e-02 5.470412116515870754e-03
3.403754537062629593e-02 -4.793212584490953720e-02 -3.841584149346433108e-03 5.157830175638106196e-01 -7.270133788588986623e-02 -1.349550519238668436e-02
4.645354894388074862e-02 -4.987556474794007516e-02 -7.083119239342239304e-03 4.693797967702727503e-01 -1.245141229621350848e-01 -1.106224438762747932e-02
2.562937480487623501e-02 -4.731852739886738268e-02 -7.401887183860367259e-03 4.966009481898204792e-01 -1.751735815545464869e-01 -9.834474181473713827e-03
1.028201267664103497e-02 -3.631500456288709600e-02 9.349531244125908191e-03 3.594432098596865854e-01 -2.261679680876735876e-01 -1.286555496727346225e-02
3.623037045880495022e-02 -3.738158088219645236e-02 -3.443962300248404329e-03 4.078900224454181100e-01 -1.896720394075644134e-01 -4.852478319061869286e-03
3.819795611341314512e-02 -3.688291482794093384e-02 -7.749262430740588847e-03 4.415458694648562998e-01 -1.816952890542366805e-01 -1.683177071519392082e-02
3.651353416139883901e-02 -2.619749486720136106e-02 -6.922486483439571625e-03 4.447872443416430177e-01 -2.070174956011789358e-01 -6.130817108762300592e-03
4.342897567348881493e-02 -4.126889967589383867e-02 -2.036824590096858456e-02 4.362554485463385201e-01 -2.935016090103916009e-02 8.240677019126471312e-03
4.417638060222134344e-02 -4.523816762804713093e-02 -5.072367029873292577e-03 3.434125366822811110e-01 -4.160512867212922024e-03 -5.237713606837304109e-03
4.179601522033397215e-02 -4.648237262962093275e-02 1.505353064256576001e-02 3.278055223941946927e-01 -2.107822023338873918e-01 2.271221298803363046e-03
4.446279163802686896e-02 -4.228525453250906591e-02 -4.650995019080511605e-02 4.668432118116446761e-01 -9.261371508850897716e-02 7.492995732481236813e-03
3.664225135127364280e-02 -5.868450867955828792e-02 -3.051229952486045338e-02 6.061157151539838805e-01 8.856346590433049337e-02 2.205420569266747580e-02
3.778665114875130737e-02 -5.805841061326233454e-02 -9.838709004120871349e-03 4.504047217710713813e-01 6.532844079001455528e-02 9.433110025397924842e-03
3.506532250719145150e-02 -4.422106315119725406e-02 5.684520320884678402e-03 1.780921912956261455e-01 2.334383425878253440e-02 2.154726289860441838e-04
3.187159210571886836e-02 -5.112723315814192426e-02 -1.499563803530851169e-02 1.369528127650267713e-01 -2.006872810186617964e-02 2.589947418794089681e-03
3.091895088702541899e-02 -3.821753411016234891e-02 -2.585256278713016220e-02 2.961940500726811809e-01 -2.635911763576632635e-02 2.533364827553906407e-02
2.739848669346628060e-02 -4.777755174706060232e-02 -1.145626840476043906e-02 5.106058801691308879e-01 -3.377796951414435006e-02 5.295509474800199484e-02
2.523586893596357211e-02 -4.996811020054921226e-02 -1.491820305563590354e-02 5.089182285833347974e-01 -1.160474751063390354e-02 6.012589810410483987e-02
2.034234681228361957e-02 -4.128265976474786159e-02 1.358220536313792248e-03 4.378375710227691564e-01 1.098354278706214354e-02 5.223776865987928703e-02
1.512506300727445990e-02 -3.912532337387129855e-02 -2.079549595606194901e-02 3.343703578135633903e-01 -5.252539912763328628e-02 4.263706962443836179e-02
1.183624517214135544e-02 -4.542369989359216348e-02 -1.964311690647713160e-02 2.843092231454550922e-01 -5.553008169053121751e-02 5.612621769161383473e-02
1.231109370156985294e-02 -4.953870511044162345e-02 -6.424448376610325528e-03 3.019750637190454223e-01 -6.993664442385118252e-02 5.205752236638606228e-02
1.357318549167307528e-02 -5.637198783741114577e-02 -1.089481363343863807e-02 2.829977866407284437e-01 -5.798791059557821537e-02 3.998785237251841623e-02
2.940699712234939173e-02 -4.876612479630852703e-02 -1.091297246652594977e-02 3.453585185502859312e-01 2.774364197089311534e-02 5.049334024857072417e-02
2.787510535677161297e-02 -4.924842864671719056e-02 -2.481773564499989426e-02 1.994958473046821723e-01 -5.398789571006325748e-03 4.359585439993799577e-02
3.531327056039820778e-02 -6.280630363132251592e-02 -2.151459386226450832e-02 1.781764058258828443e-01 -6.377510347682554918e-03 3.567853493984043944e-02
3.178248108111650372e-02 -4.522334472139237505e-02 -1.200123435338834588e-02 1.494307409282609467e-01 -4.631268935441897744e-02 1.677706570040221959e-02
2.841193406404585869e-02 -5.144711879617341194e-02 -2.002423103963213435e-02 1.666064025529740145e-01 -5.242729223930445853e-02 1.853563509351498217e-02
1.908599151479519265e-02 -3.887554586018318603e-02 -7.152458064746958222e-03 1.684485816157643978e-01 -1.168589881143573400e-01 2.419967475588970934e-02
3.120513418538305508e-02 -4.003592882516095880e-02 -1.796528296950583581e-02 1.836324772348658096e-01 -4.095281675959071277e-02 3.005876701237611415e-02
2.841374108082907884e-02 -3.408720898449518755e-02 -2.515876235158748253e-02 1.736144506673241716e-01 -3.054905013877021874e-02 1.918428411089211430e-02
2.707849845467963715e-02 -4.730307024887395878e-02 -1.292609044402781571e-02 1.406938265537941435e-01 -2.331308580790734941e-02 4.894620749942134134e-03
2.454040964806617625e-02 -5.095752816861610912e-02 -2.203688986878066247e-02 1.039100665426184456e-01 4.447948871599337328e-02 2.815516328794051559e-03
2.417505542881898464e-02 -4.877907558203466165e-02 -8.762908891748411033e-03 8.260205446985521838e-02 2.037368597529598882e-02 -4.715299445294981713e-04
3.655298134947047167e-02 -5.525531046958242348e-02 -5.423617682190295941e-03 1.294950358962138337e-01 8.632392841164829647e-03 -6.348887640064226554e-03
3.558254615443726121e-02 -4.308679305906228107e-02 -1.969307296157990494e-02 1.068554088364252752e-01 1.943450780156220567e-02 -9.264976349513797532e-03
3.316215330088799484e-02 -4.740007688496994387e-02 -1.340736397235714472e-02 6.198367823039859642e-02 -2.475687344057283384e-03 -3.607326388963371169e-03
3.182064218964120866e-02 -3.609056639734291305e-02 -1.530161429981274912e-02 6.293049042049839170e-02 1.008247942749476364e-02 -1.258345537376618153e-02
4.478290154175573745e-02 -3.343729008212846521e-02 -1.358197860886722896e-02 8.540172818872823757e-02 -3.418783921979790669e-02 9.527257683571527204e-04
3.179070948570354715e-02 -4.633016889507450553e-02 -1.396542136459033578e-02 8.516009736036907196e-02 -2.991546265598987037e-02 -1.006016797342155350e-02
3.253719925470306695e-02 -5.201831364773533417e-02 -7.235243571644733862e-03 1.026401399470318193e-01 1.225611061146496782e-02 -3.110516846429062492e-03
2.979338316855553379e-02 -4.565909480641981016e-02 -3.442240545202857049e-02 9.752569819932163653e-02 -4.709805442393488230e-03 -4.700695574694637759e-03
4.042211725399576239e-02 -4.522746724122147371e-02 -3.200215121543847907e-02 2.788977660432410133e-01 1.136609909350493053e-01 1.129555323780426050e-02
2.597860998875681920e-02 -4.673082250189753567e-02 -2.025153560204873138e-02 2.319308382957940562e-01 5.420097138076542670e-02 9.656576845758697500e-03
1.719096243814458719e-02 -4.085760159474469133e-02 -5.972948170140601754e-03 1.133368906009920990e-01 -5.258963102093319741e-02 5.938959631614606702e-03
2.921028081911108618e-02 -4.189249474834569331e-02 -1.205640863671481045e-02 -9.728656809229420041e-03 -2.867380124667134877e-02 1.220420282689414077e-02
6.874155467043157469e-03 -2.936001539787726905e-02 -2.894073827525889264e-02 7.986282527546549603e-02 -6.034207170989061564e-02 2.593753575325273911e-02
1.808941200235278726e-02 -2.325001216889848593e-02 -2.936448051062873210e-02 8.711057827839026324e-02 -8.577349715776573166e-03 2.766856440816006790e-02
2.814951028664830143e-02 -2.980677806332258928e-02 -2.769620477941514558e-02 1.232403284629092211e-01 2.983504895723878420e-02 2.997758991109612803e-02
5.381318251363304689e-03 -2.443209725447186009e-02 -2.183028566983097329e-02 8.150086252152631550e-02 1.219880606550238257e-02 1.731054107730587224e-02
1.966668472435198142e-02 -2.095986937221021654e-02 -2.216816240552776929e-02 5.419988372539724653e-02 -3.063464678883077302e-02 2.228102404931250891e-02
2.927768951901709923e-02 -1.903038640688367589e-02 -1.646094179411639047e-02 8.305165803105175881e-02 2.322417150310382775e-02 4.292106773720142515e-02
1.200653511666851733e-02 -3.412470025681411945e-02 -1.479925921879299278e-02 4.549987547282056954e-02 -2.835396100051401636e-02 2.596657087423864113e-02
2.695901093630807821e-02 -3.251619367098815966e-02 -3.106303242299079947e-02 6.305505498607184844e-02 2.163694292343368644e-02 2.130985384504987742e-02
3.958171218234313171e-02 -3.700060512938817270e-02 -1.555531294050493951e-02 1.437521707382781733e-01 -1.775777258090047994e-01 2.632810951837480720e-02
1.129690262990846322e-02 -3.726373837912513864e-02 -1.569454701371625349e-02 -1.400608858909146819e-02 -1.110122844593656177e-01 1.567877905731095145e-02
2.212874741588084782e-02 -3.645184399805300596e-02 -1.171273661336275085e-02 9.001679123482647649e-02 -2.027184053558007612e-02 2.040815522032205301e-02
3.642505974102216992e-02 -3.213737555517608147e-02 -1.585749241807576926e-02 1.194541277645163324e-01 2.169584132453357406e-01 2.523057028928468032e-02
1.365311043591527565e-02 -2.971927656820996799e-02 -2.569128366902234673e-02 -9.321388094093390961e-03 8.696277994093110086e-02 1.231561277842886659e-02
2.178986744651958962e-02 -3.193117189508076770e-02 -2.901220422629929852e-02 -1.214811886342746228e-01 -1.706628206878133339e-02 1.357693907324249031e-03
3.305675865696050542e-02 -3.244876098312578228e-02 -3.571402363770403987e-02 -2.140598926681116787e-01 -1.017817405602866182e-01 -4.193083119828836317e-03
1.311831279855089211e-02 -4.096775157765619041e-02 -1.246712514629244595e-02 1.857453042025250869e-02 -1.158446754482511491e-02 6.061806319976719044e-03
2.622447859037975795e-02 -4.109071764482313122e-02 -1.074056297846248675e-02 2.198526231052853191e-02 4.214120848132059394e-02 -1.732051643877433869e-03
3.854310864390367297e-02 -3.925722977437837852e-02 -1.046205066260830208e-02 6.524828796009653209e-02 6.980847282740976212e-02 3.888837010477849947e-03
1.222814209811766417e-02 -4.882331545460887046e-02 -5.808812321915435284e-03 1.312055790081874916e-02 -1.539790714716479138e-02 -5.376737705266337874e-03
1.750500300784965310e-02 -4.193278394721489111e-02 -3.871747791524882132e-03 6.282276192574458296e-02 1.861674567756010402e-03 -1.764861763006882883e-02
2.961404508491431026e-02 -4.024454496839800083e-02 -9.103482795409512107e-04 5.872752098868951748e-02 -8.446460384842166200e-03 -1.567703302106286667e-02
2.697063249870963741e-03 -3.921374397071078488e-02 -1.255051673963564207e-02 -1.160999603120975963e-02 -9.688661429191346153e-02 -2.351178251699341873e-02
1.482530708511598655e-02 -4.359521542905649139e-02 -9.092763213880861173e-03 -8.883218231417694399e-02 -7.886632083006177296e-02 -2.360463908671103783e-02
2.737384842387834832e-02 -4.562576305659898912e-02 -2.156732465931404663e-02 -1.342056554205540431e-01 -3.762270048244904103e-02 -1.945252735393657867e-02
2.091587008829158545e-03 -3.193002743483657618e-02 -1.055228042179651160e-02 3.031537740851933047e-02 -2.985792427221574223e-03 -5.794155194300383560e-03
1.229586043012535768e-02 -3.478037817768914880e-02 -1.799391901508579084e-02 1.420963489534867417e-02 -1.204179561540346700e-02 1.275228085370370490e-03
2.779416543001847484e-02 -3.573341194087195638e-02 -1.848455834020967803e-02 8.466796204564903949e-02 -1.545674731542035808e-02 2.284574157409798023e-03
3.508936233126567356e-03 -3.744850431756299725e-02 -1.108367310603208811e-02 1.453733306282417315e-01 -8.332060576663431750e-02 1.968275367151364232e-03
1.684349578667757030e-02 -4.143317568953566732e-02 -9.229353406852158770e-03 7.596710111293973611e-02 -6.120083115226269965e-02 3.877276933968610163e-03
2.801147711889173317e-02 -3.733601537111470164e-02 -1.351948406318675966e-02 -6.542185118966149793e-02 -1.009714017164876215e-01 2.803952053030625644e-03
3.763212008698928884e-02 -3.867591776000485482e-02 -1.679029900702599942e-02 -1.441470743286305256e-01 -2.035123624827918087e-01 -2.462933951178407355e-03
1.840288381380958058e-02 -3.178736905380803723e-02 -2.304728893148244584e-02 -2.235920547242997367e-02 -9.662701813306331933e-02 5.209954818845441036e-04
2.651164108944183834e-02 -3.603565526082412596e-02 -1.243896930652571564e-02 1.467735429635064204e-01 -1.055508702792038456e-01 4.646820340483396108e-03
3.657152565787204213e-02 -3.735308026406338605e-02 -1.373548105158728383e-02 3.470365397110227734e-01 -6.462597411457111918e-02 7.862700694437554580e-03
1.129211717657542871e-02 -4.002681607059194180e-02 -1.031109836045335237e-02 1.048100692416657487e-01 -2.358248817404401051e-02 3.228700728611923979e-04
2.430531847884505672e-02 -3.673639013555328459e-02 -5.687954726798727378e-03 -2.774853248203204559e-02 -1.134520083861310785e-01 2.838551436395866847e-03
3.416758088192035914e-02 -3.146123105231969641e-02 -6.153685110882267661e-03 -1.796719881559255549e-01 -1.598600177521653232e-01 -3.998206763192164656e-03
1.044701052872438682e-02 -3.648174858981343555e-02 -8.970207094933568825e-03 9.162171668454328899e-02 -1.239626906232637049e-01 3.825389097539558247e-03
2.105180375058493883e-02 -3.683195801827116728e-02 -8.664957551641760958e-03 1.408999354419858963e-01 -5.242564161848038001e-02 7.688605226583780650e-03
2.813737425564595204e-02 -3.888944880665815701e-02 -1.138716887816598744e-02 2.029948096769963739e-01 1.475516444030120118e-02 6.029819152122183404e-03
3.322704961526115608e-02 -3.308700056942213280e-02 -1.035614764487247097e-02 2.848576080755465534e-01 7.360807968141992730e-02 -1.019671527155510422e-03
1.135963193975249655e-02 -3.772605228659339088e-02 -1.339306873061746339e-02 2.360819230440571181e-01 -1.453394147612038952e-02 -1.468611834794512037e-03
1.961509646072934210e-02 -3.422487918004141205e-02 -1.255071528205331521e-02 1.559749562225855868e-01 -2.883820055895685436e-02 -6.468722715201313637e-03
3.406540856302786580e-02 -3.385889307107062263e-02 -7.074936928346264864e-03 1.800833046432695483e-02 -1.021263828340917140e-01 -1.097711769030550004e-02
4.378761535931910420e-02 -3.881180710564603731e-02 -1.566431971448944971e-02 6.316714098196793761e-04 -1.959607359303879859e-01 -1.351536782403013962e-02
8.696644533446509090e-03 -3.382284452069225789e-02 -1.561150248074172353e-02 4.261758678684350599e-02 -1.233272292125672659e-01 -6.694814712256523179e-03
1.481972561717537218e-02 -3.393072164516958145e-02 -1.912801531888214113e-02 8.822877934661399468e-02 -9.330996195490902367e-02 -6.757660050550175559e-03
2.268181636008048327e-02 -3.377856574296914105e-02 -5.536655221045905240e-03 1.014975455034616142e-01 -3.738517098998619254e-02 -3.372537378126703664e-03
3.067964792430375245e-02 -3.766957586716502410e-02 -7.814969948759187268e-03 1.485198576363366274e-01 -7.541208180883227086e-02 -5.796169936115849654e-04
9.188264341112199057e-03 -2.555504037322863659e-02 -1.499460869636620730e-02 7.315717117824210858e-02 3.230076402338662167e-02 -7.805024169144533265e-03
1.616786765418158286e-02 -1.736769114887218302e-02 -2.202974598561008301e-02 2.556884890052393833e-02 -5.338707936016473532e-02 4.151832025678903713e-04
2.583638713053423158e-02 -2.254207185639184319e-02 -2.456184888353352136e-02 4.847231873879414427e-02 -1.334389565947744494e-01 -7.376294171664190061e-03
3.274610955911794186e-02 -2.552263149717801799e-02 -2.622288244285470027e-02 1.378356446648209277e-01 -1.559703473529113760e-01 5.764898390177876190e-03
9.432055562485473083e-03 -2.621707857842020886e-02 -1.506843765241139277e-02 -7.123453422598385876e-02 -1.290187120005000521e-01 -4.432742652049058993e-04
1.700462787912570065e-02 -2.932575093598356608e-02 -1.870038100106519163e-02 -2.928028709467935323e-02 -7.004402410181194416e-02 2.001818609046713063e-03
3.176508616833648158e-02 -2.399457519742634326e-02 -1.692554508134502811e-02 -1.984476381596075260e-03 -3.095413050179956355e-02 3.171723679480231619e-03
3.509297156258103789e-02 -2.543967444595733596e-02 -1.510660467274382857e-02 -1.300865346478069506e-02 -8.834203946421854969e-02 1.084766451298192075e-02
4.633010921864903764e-02 -2.491123626078190628e-02 -1.628518016274327351e-02 -1.081500475820253715e-01 -1.630146274764095182e-01 6.650597150507896356e-03
1.345711246706812400e-02 -2.952246915472764993e-02 -1.350214137252270241e-02 8.424894585446093126e-03 -1.586411999274972284e-01 4.097267626211178321e-03
2.177387300801916781e-02 -2.955732354710727955e-02 -2.019091693029928525e-02 -3.115503625111464003e-02 -1.556789405383710856e-01 2.796623726573074960e-03
2.914680495615856043e-02 -2.889847521644124326e-02 -1.647225901935461811e-02 -3.539809704211237251e-02 -9.700675459831160918e-02 1.758580917240141085e-03
3.595000278354452961e-02 -2.461038624787847268e-02 -1.991299645511535044e-02 3.749779661687503013e-02 -6.008761755179682640e-02 6.831126061048554098e-03
5.310946873757313447e-03 -1.634148523705190870e-02 -8.582900187136810466e-04 2.369274707313375472e-01 -4.679699597089256174e-02 -5.666270875427118110e-03
1.378499090776236571e-02 -2.502072238460804898e-02 -1.144154167712085890e-02 2.716508485310840659e-01 -6.994908001042674829e-03 -9.868759549174186546e-03
1.808444673911851694e-02 -2.662692518652986021e-02 -7.107270314697156088e-03 2.852577470479664701e-01 -7.006700372153523704e-02 -7.090914275661499948e-03
2.354674805824776701e-02 -2.496322180338655244e-02 -1.235947146732924162e-02 2.996863094596952104e-01 -6.341556146975484143e-02 -9.904159194900096982e-03
2.573806229457184166e-02 -2.426253953092376639e-02 -1.156052327480588948e-02 2.523933925065736106e-01 -8.236109900272599316e-02 -1.634872586332641181e-02
3.385360714928330184e-02 -2.332421274458894300e-02 -8.439287669557316018e-03 2.360178219164690561e-01 -8.555173155989885536e-02 -1.525482987214139136e-02
4.888016534355638099e-03 -3.086801514860874895e-02 -3.095021350025956020e-02 1.708974891734037563e-02 -1.503058936079878227e-01 -2.278546476302990148e-02
1.289146085829208019e-02 -2.173907425475365973e-02 -2.287521203464493169e-02 6.363619846582806161e-02 -1.146235773634181748e-01 -2.607058969989757558e-02
2.366957902117714993e-02 -2.254584771092563861e-02 -2.440495932385711164e-02 7.975841052637479278e-02 -3.369529569832253879e-02 -2.938658181761704541e-02
2.952671809066789374e-02 -3.043997018330785176e-02 -2.771302632384264886e-02 1.195601465904236153e-02 -2.296394575439948335e-02 -3.106791211668436317e-02
3.588443582937826670e-02 -2.691264052648714017e-02 -3.717006574021852749e-02 -7.466816538269312187e-02 2.480328694927745516e-03 -3.792462953510642582e-02
4.888762111403460731e-03 -3.847618447426566501e-02 -1.057457964078128976e-02 2.088068912648013975e-02 -2.535627278005863072e-01 -3.622353201037665366e-02
1.027263797715574981e-02 -3.881433816283762217e-02 -1.678065659739669258e-02 6.752388077117595089e-02 -2.934797685950963353e-01 -3.107187665877777366e-02
1.382323319571300210e-02 -3.891598491670460180e-02 -1.162166135248238197e-02 7.616761328411723875e-02 -3.342770213793079259e-01 -3.545881452360016145e-02
2.248523428780937333e-02 -3.594504327846188146e-02 -8.456476707261406656e-03 2.529689938188541681e-02 -3.049503449044406178e-01 -2.498852585745189869e-02
2.542361037654447889e-02 -3.143931509463477464e-02 -1.282201754123213355e-02 -4.683676895823156439e-02 -2.410313404107194968e-01 -2.216171035287129235e-02
3.294758766557417257e-02 -3.467720006101118746e-02 -1.882729858608789275e-02 -1.576088473584562333e-01 -2.039084579508173845e-01 -2.354220681193194484e-02
3.952354657493523798e-02 -3.215265302415110799e-02 -2.250619445401980112e-02 -1.889778932135834921e-01 -1.851954204978974172e-01 -2.500492800104085409e-02
6.660478389847269975e-03 -2.880302441042256051e-02 -1.459858365260685575e-02 1.235177687532533763e-01 -2.652470549358578178e-01 -9.284683268271460774e-03
1.205267216973263111e-02 -2.978162207860627839e-02 -1.096486394049844826e-02 1.463136264538187348e-01 -2.497832585084244772e-01 -7.049042395827868034e-03
1.977690473732937951e-02 -2.917074606771513992e-02 -1.495319577199544225e-02 1.514006172569509479e-01 -2.023771977515107789e-01 -8.026378796721246947e-03
2.346888655403025353e-02 -3.319478206396928727e-02 -1.471176529219092588e-02 9.697734440812219581e-02 -1.749343166861556109e-01 -5.820802553954687597e-03
2.530671022590202587e-02 -3.333319878261425256e-02 -1.641745833314189884e-02 1.012736481699197111e-01 -1.610864358754787173e-01 -7.540328826048498488e-03
3.232113329250442535e-02 -3.367039026474274305e-02 -1.377819813913555569e-02 1.180797763423872132e-01 -1.637204301123435790e-01 -9.569889893888520321e-03
3.498746518259854971e-02 -3.780667845138235145e-02 -1.625449582991622677e-02 1.429704236750471147e-01 -1.407664169740769911e-01 -3.183977720814724476e-03
4.946782288868141475e-03 -3.835790964644741896e-02 -9.005651105918721644e-03 9.329866381640343487e-02 -2.904503899941053291e-01 -6.451001231143622082e-03
7.881852304809852661e-03 -3.413929909227934878e-02 -1.269858578642002467e-02 9.269535741494304426e-02 -2.888529694677886006e-01 -1.116081109461378867e-02
1.158342364554421425e-02 -3.880279143983264567e-02 -2.677483518089829317e-04 9.108865559778747678e-02 -3.019631950182115609e-01 -1.155872558677239689e-02
1.821035509247029630e-02 -3.948217324711063986e-02 -9.583296448223255215e-03 6.203386825655536618e-02 -2.298108750363400399e-01 -1.859218757047058357e-02
2.177871816726429863e-02 -3.964055447456278636e-02 -1.050158675794876650e-02 6.579635208266559898e-02 -1.960169870516511592e-01 -1.688451241488546362e-02
2.189721784092593659e-02 -3.814714676458284826e-02 -7.397077196132750831e-03 6.382651693550607519e-02 -1.727447819753319125e-01 -2.063395196991674868e-02
2.172709463303445013e-02 -3.851438148355171287e-02 -1.133629216781018023e-02 7.545065423015967498e-02 -1.540746221429574458e-01 -1.754162755148787334e-02
2.828295864991321393e-02 -3.937855785238721096e-02 -1.002369162575522665e-02 9.431325506550394810e-02 -1.382503001005148668e-01 -2.482992363511935321e-02
3.546078578965651540e-02 -4.203945007155158314e-02 -6.178124310444010892e-03 1.166940266765243567e-01 -1.091969925509690686e-01 -2.929395039374894580e-02
9.382597884507251629e-03 -3.881199692606074336e-02 -1.328209082726578005e-02 4.694079528753640485e-02 -2.202589768711917251e-01 -2.378592438914582663e-02
1.219381176210936057e-02 -4.288774152019948771e-02 -1.627094708362863962e-02 2.770454479416552263e-02 -2.226464311833554477e-01 -3.400967548543620128e-02
1.500790574124927917e-02 -4.228455347320948798e-02 -1.392312156733949147e-02 1.831742817084717340e-02 -2.402257462168650159e-01 -3.689789226524340521e-02
1.879489191544331597e-02 -4.688505237919198682e-02 -1.657638191661925386e-02 -9.936284171873204993e-03 -2.493350721238331014e-01 -3.276855819515635260e-02
2.057637731006411660e-02 -4.759083716267593911e-02 -1.801153782130043846e-02 -1.227619047640832878e-02 -2.340220109784770519e-01 -3.282216510555455852e-02
2.330567074742917466e-02 -4.682078706804087415e-02 -2.005027104195655774e-02 -7.415532162235947619e-03 -1.984264384202132359e-01 -2.484976625944091896e-02
2.558157074386777780e-02 -4.718813659546026301e-02 -1.372102474115705073e-02 7.331483074151031419e-03 -1.866856849306433030e-01 -2.269755540624844234e-02
2.893427072722822707e-02 -4.410274960626758833e-02 -1.473986678147032325e-02 2.754184147761240542e-02 -2.270479422005362291e-01 -2.263489794447098857e-02
2.985690546688132135e-02 -4.035700748511827224e-02 -1.811503464701674782e-02 3.355848380035587886e-02 -2.333243392574183561e-01 -1.650549296105467342e-02
3.222149934591593545e-02 -3.637775938183632901e-02 -1.828052448155981224e-02 6.515577635828978531e-02 -2.137098723622271601e-01 -1.295247337910389145e-02
3.673860118784109952e-02 -3.178039664855056984e-02 -1.460510717427832006e-02 1.107967114425035260e-01 -1.411409081562196299e-01 -8.854941300222886336e-03
3.611822800419518809e-02 -3.409761282426765350e-02 -1.266029165296589376e-02 1.213491935121192300e-01 -1.040868690159843929e-01 4.017640579971308449e-04
3.913221879821353333e-02 -3.593010695853809944e-02 -1.459709923073043703e-02 1.205887125622621403e-01 -1.078424792472904709e-01 -3.320830693921229381e-03
1.884079224396244256e-02 -3.604648118226694981e-02 -1.753881639670240578e-02 3.305233301376320904e-02 -1.896911019374442897e-01 8.108824164229064962e-03
2.075808135569954041e-02 -3.230719973821825214e-02 -1.214531379114180965e-02 5.693561413206692928e-02 -1.863927453030812809e-01 1.790196946669638488e-03
1.624495384670844242e-02 -4.544086495607105314e-02 -1.199912486588483596e-02 5.708757155284532175e-02 -1.623231141491368879e-01 1.009285465881280298e-02
1.781139681507404315e-02 -4.166526609936214293e-02 -1.183592435483438177e-02 4.815891492427112897e-02 -1.408868843440423679e-01 7.320546355110695014e-03
2.231264088244406044e-02 -4.111151629211742820e-02 -1.549563853489316356e-02 3.258220072018165603e-02 -1.234247311460439506e-01 4.017869395861166197e-03
2.305305101661571376e-02 -4.343538155363409203e-02 -1.811949336144497158e-02 3.817731069051583104e-02 -1.122027146471663017e-01 1.229877888548995372e-02
2.305335028536583536e-02 -4.046784806001053197e-02 -1.828774801961030594e-02 3.126406246789564108e-02 -9.954833326727488552e-02 8.982337281762491771e-03
2.278236091483813036e-02 -3.640289596294540853e-02 -2.213484799953924220e-02 2.014409186661788795e-02 -8.731519798384101971e-02 5.737082914930714643e-03
2.491927867986278022e-02 -3.990683878256193889e-02 -1.692696633602835954e-02 3.126800624499211784e-02 -9.525815792726195774e-02 4.731708095936427473e-03
2.285022698046350331e-02 -4.150396427684517608e-02 -1.623578063203018340e-02 1.622744474249599930e-02 -1.054958098536318001e-01 1.285394663185108859e-03
2.312874794446510146e-02 -4.141030675376264347e-02 -1.608326179969093994e-02 1.889167323560339215e-02 -1.036258148606877677e-01 -5.324873180764405980e-03
1.912042325120663286e-02 -3.750330294434297412e-02 -1.773180457149792222e-02 2.286845447374072707e-02 -1.096331068258750152e-01 -2.536208893355036947e-03
2.093034462343271174e-02 -3.816156668472807378e-02 -1.616117018271084893e-02 1.470371181237685974e-02 -1.122240329643918594e-01 -8.279703840452967006e-03
2.341148886512946573e-02 -3.908266114977456546e-02 -1.643900036556156241e-02 1.150886999857692918e-02 -1.101401306042025102e-01 -1.516721380062781808e-02
2.616281018362404467e-02 -4.053719022569385322e-02 -1.867694665897068340e-02 1.950936036021738706e-02 -9.833146641175070923e-02 -1.851571979863981046e-02
2.957124565821100948e-02 -4.131251106116701211e-02 -1.911261530567837097e-02 1.083063804941297205e-02 -7.624377042395739934e-02 -1.851098653936519497e-02
2.752807647631441354e-02 -4.291603257316522341e-02 -1.746872954536282663e-02 -2.083787612889691915e-02 -9.901248302840263971e-02 -2.064054980473105372e-02
2.797272348839470110e-02 -4.651458800754856154e-02 -1.657730237167798215e-02 -4.918823541431083940e-02 -1.200729774391367521e-01 -1.898824439912824222e-02
2.720635817438685558e-02 -4.153576773610400535e-02 -1.514929228391642679e-02 -4.081094375884815328e-02 -1.233106179854866202e-01 -2.325952743894822011e-02
2.722275980579962756e-02 -4.241931107018892533e-02 -1.436106778537682427e-02 -3.507986962567818251e-02 -1.083190340307971650e-01 -1.998310661360912580e-02
2.556453371355339732e-02 -4.362006533818975351e-02 -1.514717950601668361e-02 -5.168555113142396518e-02 -9.728191706580141540e-02 -1.934689238592398816e-02
2.669272995945715446e-02 -4.332541666095669763e-02 -1.574270511332942490e-02 -3.659594382295428688e-02 -9.638006886831247677e-02 -1.316523003943479743e-02
2.771563164232367094e-02 -4.302824420326033933e-02 -1.672150411475414877e-02 -3.470452395314588268e-02 -9.973766932235260396e-02 -1.178519166851414376e-02
3.000954145104976420e-02 -3.970338104259230061e-02 -1.215785423761772677e-02 -3.739332944355911598e-02 -1.145403313771164999e-01 -9.678560641452478921e-03
2.971309572626950821e-02 -4.049970478125079765e-02 -1.190698404889117823e-02 -4.234708458112271257e-02 -1.081901504302546502e-01 -1.274837235912705188e-03
3.184341552664956415e-02 -4.264816680123859061e-02 -1.223953484039791428e-02 -3.459329396096984255e-02 -1.069086189981034024e-01 -4.557728031152009397e-03
2.884916181682635125e-02 -3.995090301083455836e-02 -1.442423159583638981e-02 -3.539327636085370238e-02 -1.100686128961643334e-01 -1.757969887048313994e-03
2.984259162545131738e-02 -3.874457204545096733e-02 -1.421928383617854230e-02 -4.287908066728299272e-02 -1.071868509238915607e-01 -6.539421381507911323e-03
2.995362642905880640e-02 -4.048324713128610697e-02 -1.377251411570246109e-02 -3.495744916431942073e-02 -1.035210338920509593e-01 -3.191005248109396973e-03
2.875801953327914579e-02 -4.102341249818979713e-02 -1.752641851621145053e-02 -5.313379348472706265e-02 -9.395874297123341101e-02 -2.732973152031942677e-03
2.766771693488565692e-02 -4.363705905761752768e-02 -1.685717710720652240e-02 -4.617904183878953489e-02 -1.102854078414811229e-01 -2.818272868541677086e-03
2.786084188933553654e-02 -4.476805567570352196e-02 -2.119220334714749798e-02 -3.624392635292544157e-02 -9.772545495323485543e-02 -4.690845670553814642e-03
2.786764577863582587e-02 -4.595228372011857937e-02 -1.908763385468631446e-02 -4.070259896516815329e-02 -1.021622731892844471e-01 -5.436844009102036537e-03
2.758580231943964095e-02 -4.469178188922167533e-02 -1.775422714417052017e-02 -3.825007317184085653e-02 -1.017715271041854386e-01 -2.234760839327532955e-03
2.695269061287141818e-02 -4.247797964357954287e-02 -1.648395761980925300e-02 -4.899815551109812373e-02 -9.922733246929804629e-02 -5.835534669270117485e-03
2.764711584515195178e-02 -4.232458224751986520e-02 -1.735570153705379148e-02 -4.660149355143203970e-02 -9.489797473624443647e-02 -7.802656230373770235e-03
2.641422829514704362e-02 -3.898860522989248262e-02 -1.763746952634476228e-02 -4.224907091015796951e-02 -9.600784877612607293e-02 -6.558309487707220976e-03
2.264554804540781438e-02 -4.438871068378923146e-02 -1.956277447857623919e-02 -4.018854064769410150e-02 -9.879373520776835171e-02 -1.268257184748107155e-02
2.250145799615502554e-02 -4.260577862000071436e-02 -1.514595396824280904e-02 -4.464984980774234363e-02 -1.061926370659082297e-01 -1.670107713055742765e-02
2.135979167358793840e-02 -4.098213593673903643e-02 -1.830441855376879756e-02 -5.542867603477093230e-02 -1.005736537573953954e-01 -1.558832841110403475e-02
2.416767067760919666e-02 -3.894456886091251374e-02 -1.858690688119440937e-02 -4.236549773917849815e-02 -1.001416327596907768e-01 -1.676411365318444813e-02
2.587899529139247451e-02 -3.919516801788932442e-02 -1.795511215951128836e-02 -4.896374151810212877e-02 -9.030804314203463856e-02 -1.803924223363474397e-02
2.681338536153313884e-02 -4.239585618442385379e-02 -1.618597641196323211e-02 -4.076177336752732916e-02 -1.046675053305353292e-01 -2.364399715386190579e-02
2.831910965286521184e-02 -4.119949038134427394e-02 -1.672650316779061841e-02 -3.697473245563687172e-02 -9.732046892647626402e-02 -2.529031682844041715e-02
2.833281860198048202e-02 -4.389892089350849042e-02 -1.576673489830837660e-02 -5.297805038906735348e-02 -1.007342595114262829e-01 -2.848403616621188184e-02
2.637530429061494402e-02 -4.396540722066426959e-02 -1.630709067671276546e-02 -4.486903890498975672e-02 -1.033303973948516974e-01 -2.611654527441515175e-02
2.677868711816029645e-02 -4.668615958167795371e-02 -1.514175889096547323e-02 -3.747853206342273424e-02 -1.021123028727037307e-01 -2.335664747192399415e-02
2.356063986140751951e-02 -4.716250930317458789e-02 -1.597190568658513055e-02 -3.667708070480716481e-02 -1.096291070229115788e-01 -1.927706508258219403e-02
2.843172049141971455e-02 -4.438405627211891580e-02 -1.395945146069826892e-02 -3.469072286722694326e-02 -1.095441893651002835e-01 -1.903529045259021862e-02
2.693387723835237446e-02 -3.955413917792640482e-02 -1.277642700535958076e-02 -2.936090770262147348e-02 -1.075292264125901343e-01 -9.718151313493659377e-03
3.028377734752451048e-02 -3.825280949561524202e-02 -1.561640822888715752e-02 -3.641381846430714192e-02 -9.940477574320395748e-02 -6.922532213643079260e-03
3.014311996269761207e-02 -3.804309930878554957e-02 -1.652140129850399042e-02 -3.206459038822617735e-02 -1.028129487720621377e-01 -9.458781126724350938e-03
2.968589924303437558e-02 -3.895936483820209434e-02 -1.604976865651219775e-02 -2.525630892690939114e-02 -1.014712172871017060e-01 -3.974505636082326272e-03
2.956010524086858521e-02 -3.952966645594804818e-02 -1.602829582873710468e-02 -2.528660222574441799e-02 -1.007152627731203315e-01 -4.638163666792807435e-03
3.414445469772744990e-02 -4.002101142524325250e-02 -1.254590957743595414e-02 -2.315981486793449590e-02 -9.953127949766413241e-02 -5.319085951126913646e-03
3.474221060709868636e-02 -3.984910512610404659e-02 -1.182306266671045991e-02 -1.812592017244438539e-02 -1.049303906550446835e-01 -5.136678677739062344e-03
2.971537979375331665e-02 -3.999201965831752220e-02 -1.575022865680697493e-02 -1.265553614056773128e-02 -9.944520889457729440e-02 -5.059919600512012908e-03
3.010469889411820921e-02 -4.054565154717060249e-02 -1.927764564367739908e-02 -2.634301242202851182e-02 -9.925409936548054701e-02 -4.897420808681228303e-03
3.242049944674307155e-02 -4.578201428940924245e-02 -1.600164666042480643e-02 -1.630974817570475521e-02 -9.536312844638045183e-02 -5.375907226067335072e-03
2.743213844170062574e-02 -4.243181388429846657e-02 -1.806351493622548876e-02 -1.737544419641687612e-02 -9.445011789601082119e-02 -7.917906541959002578e-03
3.104038365120672868e-02 -4.192500513105924809e-02 -1.536727413343380588e-02 -1.576274242150462954e-02 -1.018997395832894615e-01 -9.970730444946994744e-03
2.908061625986690588e-02 -4.039338160375739728e-02 -1.774551262774892724e-02 -1.313242462691996751e-02 -9.260456345873650796e-02 -8.444054944012287928e-03
2.655531715109318847e-02 -4.033132830866705681e-02 -2.003872379489285427e-02 -2.089052189946008151e-02 -9.370482691878058434e-02 -1.126938229277714421e-02
2.590760227349548847e-02 -4.102107774313230870e-02 -1.811845871324391233e-02 -1.769626906612547720e-02 -9.516133891442056514e-02 -1.364866582521691296e-02
2.611951473629005663e-02 -4.088256417863084247e-02 -1.467699285276496957e-02 -1.967977438415082977e-02 -9.952277004913086256e-02 -1.031651015902014523e-02
