-1.310050847676323335e-02 1.942389656335793274e-02 -6.276535633927382563e-03 2.026366807673488646e-01 -5.052952516866925786e-02 3.426946471109452996e-02
-8.822394580479156825e-03 1.473551214814167003e-02 -1.763318758069024050e-02 4.147681670809716392e-02 2.353015999992087715e-02 1.349589272701888672e-02
-9.182234950061077608e-03 1.454540286413833101e-02 -1.522400545304965214e-02 -7.131265398330611897e-03 2.979949597133610406e-02 -1.650269026106599302e-03
-6.028555865681075113e-03 1.336969144445896915e-02 -6.064838442115555450e-03 -3.185580166388747581e-02 4.927622006561518941e-02 4.165173556700331979e-03
-4.767375972232078610e-03 2.696431558872268430e-02 3.941169535873673135e-03 -1.072728131601051287e-02 4.440588081412472771e-02 -8.597201785253406198e-03
-5.274992178266818023e-03 1.959385481726016662e-02 7.630452818158106609e-03 2.276720248631130400e-02 -2.062732267726717986e-02 -1.053393264559992874e-02
1.573450156601166171e-03 8.602973957289030901e-03 8.164476324023534071e-03 2.388531289560144252e-02 -5.294464902621687230e-02 -7.339004765685152969e-03
-4.431697643486517610e-03 1.191322047626824400e-02 9.396548238687463250e-03 3.073323665627815393e-02 -1.127424966809179308e-01 -1.181056866542580172e-02
-8.582270019355103807e-03 1.736744522441735494e-02 -3.017376605656402200e-03 -4.279304715967571088e-02 -9.898294244103315875e-02 -2.878044722651200427e-02
-1.760213877306380159e-03 1.560154515951495992e-02 -9.401284259531600407e-03 -8.312776663044257885e-02 -2.596032286476418482e-02 -1.896438610812362785e-02
-3.981922485398437309e-03 1.173858830352477074e-02 -9.235381489573216141e-03 -4.576434827654162624e-02 -7.401479499116177252e-02 -3.899494132348368947e-02
-1.046500064644901619e-02 -9.622220296043338186e-03 -2.187354097723800961e-02 3.496054573475774422e-03 -5.636613672214518811e-02 -3.235103923725462377e-02
-1.243575804370113981e-02 -1.695939168054227952e-02 -1.726141929079977322e-02 -9.154075898315010501e-04 -1.152894210592305124e-01 -4.041589547225444418e-02
-1.988372055642718961e-02 -7.142208429030264157e-03 -2.342486574481029982e-02 1.641025971897904770e-03 -8.566167760564656619e-02 -4.655071194149751346e-02
-2.370517728507120711e-02 2.160671383469453966e-03 -1.218555363311570050e-02 -1.076770525173505189e-02 -1.228413196254327377e-01 -4.771494038251954117e-02
-2.582872897216869842e-02 1.184871270267554965e-03 -1.413228627171908558e-02 3.475021532745547342e-02 -7.087554770435622320e-02 -5.222792254619822855e-02
-2.611656363161185199e-02 1.405824349463421531e-02 -1.222093442831838350e-02 5.608879776616829821e-02 -9.810245935433162257e-02 -6.482028370126073635e-02
-1.992196305680834362e-02 7.740105515838385623e-03 -2.040021672488701032e-02 8.165783105458561397e-02 3.828997124807023873e-03 -5.679902506434434534e-02
-2.789141556947544870e-02 6.299667642342089355e-03 -1.704907156702238635e-02 8.848481750604290930e-02 3.020804065607389857e-02 -5.949288440740993500e-02
-2.081230628320886178e-02 1.549054850009300155e-02 -1.696894805183848942e-02 5.921945530385445272e-02 -1.479402703562125547e-03 -7.015894352431446823e-02
-2.005824235390097146e-02 -3.541308202883764866e-03 -9.129962467275709592e-03 1.559934069540042448e-02 4.338262409316913544e-03 -5.147652794751439442e-02
-2.032872469423831555e-02 -1.312291508256024399e-02 -9.256339629189716534e-03 -1.356173858521871230e-02 1.465486163659871464e-02 -3.419423522970598678e-02
-9.138469711997705344e-03 1.268231554097638651e-02 -1.932544776592437508e-03 -1.731494771238792710e-02 5.957192904040170545e-02 -2.233853504477175192e-02
-1.765286208223264264e-02 1.412480092350225716e-02 -1.502231463533640343e-02 3.882220043977357374e-03 9.035440266029300116e-02 -2.722444629110675959e-02
7.095405719842699278e-03 5.604653575557460438e-03 -1.334382842364839616e-02 1.064883236596844349e-02 1.604212706086257656e-01 8.088889219691116142e-03
-1.976485031147216798e-02 2.071069015429048699e-03 -2.288354890224021665e-02 8.223674686531437864e-03 1.678056518337126823e-01 -5.303156375485676248e-03
-2.804609314519537072e-02 1.990814172930561315e-02 -6.187746594625513630e-02 -1.753439546927642798e-02 5.781530368650326102e-01 1.345894738824240412e-02
-2.835558730864675206e-02 1.921786837075219884e-02 -3.609676986338108962e-02 2.768532640038782189e-01 7.283688846099396763e-02 8.955892536162699327e-03
-3.642885180319972022e-02 1.339780017910812381e-02 -4.782801688457564981e-02 7.039855474388483081e-02 6.716969875009818347e-01 -2.452432728907234447e-02
-3.334220002755648726e-02 2.061169910514632636e-02 -4.768526504040140890e-02 -1.012527762741504134e-01 4.144042369461739539e-01 -2.899455742713333284e-02
-2.875556182572339137e-02 9.387373037171979975e-03 -2.909371510996461296e-03 -2.935455601974443912e-02 4.525684573954771861e-01 -3.021919708900985824e-02
-3.060904979326953268e-02 9.416379562443229906e-03 7.946931712620258770e-03 1.823791122673440179e-01 2.221307655358371325e-01 -4.524471258412356145e-02
-3.272299988872404142e-02 1.553689411330336917e-02 -9.529476247918930443e-03 2.116144257365936698e-01 9.439938911740351768e-02 -2.110216370339602909e-02
-4.448190958905907239e-02 -2.806529092772703897e-03 -3.102912318346753850e-02 1.694136840195589744e-01 5.623731861852045849e-02 -3.066210530017061259e-02
-3.447399707131790919e-02 1.375212841925401754e-02 -2.185203745118421970e-02 1.387148659910996118e-01 1.904076384598768767e-01 -3.227372576640192420e-02
-3.875932061842831539e-02 1.151193651480774197e-02 -2.858720382826700213e-02 9.286851687386314669e-02 2.740030066883258342e-01 -2.456708257661246314e-02
-3.213570354965242931e-02 1.419265875277226502e-02 -2.934904065546502239e-02 -1.574479345332201879e-02 2.716923294901075758e-01 -1.317221770026080936e-02
-3.729423533088583459e-02 4.894360142788824544e-03 -3.173986176503666712e-02 1.210665704907108176e-01 2.922711692065876332e-01 -2.957368156187340988e-02
-3.492748768152052763e-02 1.481554198124979040e-03 9.829918155276312630e-03 1.998130563930369807e-01 2.137616870476115871e-01 -3.105955810340984419e-02
-5.301227799509856953e-02 1.302266179641504854e-03 -6.349084556286575809e-02 1.741441881946615977e-01 2.067320770103159289e-01 -5.990777221309952216e-02
-3.260588611393521602e-02 5.368426309034630278e-03 -1.176640212386842466e-02 1.668906427740135534e-01 1.540134705052430830e-01 -7.068411373222167893e-02
-3.754543671849264186e-02 1.264037955052081316e-02 -2.828352730138175564e-02 1.207369264567562661e-01 2.036074871327460678e-01 -7.356861703093732496e-02
-3.497941285641760489e-02 -1.383435038201879901e-02 -1.747775671250843821e-02 9.215193769491454578e-02 9.106129940217769225e-02 -8.168950558666190909e-02
-3.856657805738488570e-02 -8.823675152010046919e-04 -1.941091887886309264e-02 3.884775585342457177e-02 1.889263124779488878e-01 -5.966822499646380618e-02
-3.939432934400075720e-02 -3.311060469380742825e-03 -2.672940610266394401e-02 1.350829102827370010e-01 7.809662220696986235e-02 -5.406212966357328703e-02
-4.441387518790521766e-02 -1.442002572374333907e-02 -1.964321593584540671e-02 2.134877447791408978e-01 1.597417796400826123e-02 -5.742298928185408241e-02
-3.714044038949148446e-02 -4.425290236726475354e-03 -1.616166042715427853e-02 1.318538908466391490e-01 2.789409394758674693e-02 -4.919218199239303035e-02
-4.660377765682361534e-02 7.716887895613830026e-03 -1.279429304751812657e-02 6.804755672761461649e-02 9.452257203240907457e-02 -3.704920569675427405e-02
-4.308747065208337612e-02 6.412638792332166042e-03 -5.319104892477555246e-03 4.589702640046591786e-02 1.459313878017816923e-01 -4.384385400618678180e-02
-3.749586430219562644e-02 2.761307445265345425e-02 -6.887417536449724764e-03 1.484502237596766472e-01 1.425101011612413537e-01 -6.528343964480672057e-02
-4.127758525046917176e-02 1.696425878672415052e-02 4.164040304325877795e-03 1.468097509759715147e-01 2.150866651885434133e-01 -3.951939108012766932e-02
-3.872867033149655913e-02 1.732193498332907505e-02 6.209297143796282947e-03 2.279628757200438671e-01 1.171067013157464504e-01 -4.171331245591647363e-02
-3.156724106169151584e-02 3.357191571412339315e-02 5.093672541404581366e-03 2.800575539277241344e-01 6.485200261974927161e-02 -4.721365598025416277e-02
-3.612781489641165439e-02 2.385093716347384471e-02 -9.472972215855107736e-03 1.210641656972084729e-01 7.792759340586488670e-02 -6.135886345056705549e-02
-3.525145189707593052e-02 -1.153130456613497921e-03 -4.533751114583511876e-03 1.029898575553806622e-01 3.289844079729151854e-02 -3.626582072735685253e-02
-4.011411272487169083e-02 -3.163600255845719963e-03 -9.326290688865659928e-03 8.701056545282519206e-02 -2.298410031545161658e-02 -3.207611394713676123e-02
-3.407463434891108700e-02 -5.363175231426037595e-03 -8.202399395298973217e-03 8.302397040470234357e-02 -6.593109449939649203e-02 -3.729099979405472304e-02
-3.561526055208610181e-02 -1.096075623254858661e-02 -1.286023809299446929e-02 1.969250755288827759e-01 -1.566432510015516519e-02 -3.275709444972108725e-02
-3.135576897228429388e-02 -1.386084932835878782e-02 -1.190353013060216347e-02 1.451249785999322306e-01 -9.789971781063107337e-02 -2.572321876518101139e-02
-3.480136858410617234e-02 -2.830826611831943444e-03 -1.071780999897094244e-02 1.009134844073164561e-01 -7.603546012275967658e-02 3.415125388632851895e-04
-3.449956727108186710e-02 7.655339074450439023e-04 -9.063780453672246051e-03 8.320636918641732827e-02 -2.567451762067325324e-02 -1.527489333756360153e-02
-3.953165628228258455e-02 5.170308207715396294e-03 -7.327788178789873541e-03 1.032565859781148510e-01 -1.431655963362757009e-02 -1.519095579365886337e-02
-3.943270514253050668e-02 1.747832691176843568e-03 -1.070008193818164366e-02 8.741644133677498041e-02 -1.644721466249961933e-02 -2.799726130648233155e-02
-3.872552392780988229e-02 -7.052055380972654030e-04 -9.772210137986708789e-03 6.459179823017467681e-02 -9.001926438973908984e-02 -2.744783354716909263e-02
-3.844375171802699026e-02 -8.180262604342350679e-04 -1.739999177425649579e-02 5.537804837881710185e-02 2.894847540179876569e-02 -2.626961409754363652e-02
-3.572941647911340168e-02 -5.272885184314131390e-03 -2.858193153897664596e-02 4.049881804649008848e-02 2.794932535043952171e-02 -3.255867730664865900e-02
-3.422409755686675603e-02 -9.806975983855529058e-03 -2.070837854269923228e-02 5.167749626848829742e-02 3.927540802509355000e-02 -3.586484071722748773e-02
-3.376132553246207618e-02 -1.582717309549768608e-02 -1.864647157525008148e-02 7.183924016213572017e-02 7.124957637708448366e-02 -5.047046141443318340e-02
-2.680521912712515928e-02 -3.073505800815582237e-02 -1.661040273022239278e-02 7.841732811852109020e-02 1.464787015543484172e-01 -6.853764405937477766e-02
-2.561640605856096986e-02 -2.817597758127652827e-02 -1.409397403339776589e-02 7.154298297242041305e-02 7.569864479884061415e-02 -6.432573572899180636e-02
-2.563178968458873497e-02 -3.161721541552618003e-02 -1.328727265673189384e-02 9.018045091645746081e-02 8.572503572267385630e-02 -6.592442205673394728e-02
-1.956526693787052212e-02 -3.333898526064019152e-02 -1.044335854949304809e-02 9.632956566079375893e-02 8.037940233572693494e-02 -7.582553871173704219e-02
-2.609425502292960983e-02 -3.705606301252518942e-02 -1.157056710848326786e-02 1.168838075003661714e-01 -2.713690018689744743e-02 -7.991678691185130634e-02
-2.460924561235525165e-02 -3.947625596460528630e-02 -1.211330785270919863e-02 1.188010038095546755e-01 6.695468750886474953e-03 -7.631418156017034937e-02
-2.934351541476930975e-02 -2.375360689171199940e-02 4.464319762647883660e-04 1.340663512644938993e-01 -7.165769504169072768e-02 -4.101195444969542997e-02
-3.360560918492817156e-02 -3.093548049563111385e-02 3.520867858699261443e-03 1.755097684061394381e-01 -1.124566448065584812e-01 -4.564027194569874463e-02
-3.643316403120729768e-02 -3.441370041133572089e-02 6.510201473554882989e-03 1.788034296652831479e-01 -1.181603016410092133e-01 -3.738454780196647648e-02
-4.209338356033325707e-02 -3.048903436575533046e-02 9.748486600512806799e-03 1.998604043886477166e-01 -1.640598439620964133e-01 -3.432562158318901852e-02
-3.797831357518490630e-02 -2.188874127148504947e-02 1.209325315604958817e-02 2.600590292486066324e-01 -2.030536338847092614e-01 -3.263795497235898874e-02
-3.999971831211614204e-02 -1.296659634396446492e-02 7.624894033086943024e-03 2.522182939298227011e-01 -2.113253215397851992e-01 -1.729430237669727505e-02
-4.082222980410191854e-02 -4.780275863178822318e-03 -3.869931972334039738e-03 1.451608908904047923e-01 -2.018261540441230462e-01 -6.129958164264141807e-03
-3.835172581938264130e-02 -1.040864349177528063e-02 -1.595605632033081367e-02 2.860052401552564544e-02 -1.554130056760792133e-01 -1.660178138346849255e-02
-3.814348442163353892e-02 -1.420136258012146858e-02 -1.990015698327678162e-02 -2.992818576849861148e-02 -7.946698918332488482e-02 -2.321494248646709113e-02
-3.788710687221239631e-02 -1.467689956088919813e-02 -1.996814568724115946e-02 -3.965323522804119205e-02 -1.104687289216476215e-01 -2.402874790933762911e-02
-4.198925445912549820e-02 -1.899813470146658259e-02 -1.462742755100270020e-02 -3.721692987402663855e-02 -9.548403204626416951e-02 -3.359323756816712248e-02
-3.846556109642452342e-02 -2.477747424666653167e-02 -4.990991930194449422e-03 -2.573932569076756507e-02 -6.583746558608657984e-02 -3.257392547471734540e-02
-3.111210523773232442e-02 -3.576899457664812348e-02 -2.447300669070617829e-03 -1.874827886175698538e-02 -1.164948164436908906e-01 -2.618261900411937224e-02
-3.088191561853886533e-02 -3.447122049705987623e-02 -2.392525877480400354e-04 1.346598767512348534e-02 -1.180202222017437963e-01 -1.956691455181088293e-02
-2.965212061779952044e-02 -2.831809515648842784e-02 -7.293511097389251963e-03 -7.249427142832745759e-03 -1.749876562344195308e-01 -1.455210411998360785e-02
-3.007818850743046793e-02 -1.779205708910210071e-02 -4.535813791810755502e-03 -5.478929488809868714e-02 -1.740948550157328245e-01 1.776813042545745056e-03
-3.249541426611025907e-02 -1.851361831908253028e-02 -1.171647626876126669e-02 -1.155944477913924684e-01 -1.580331537350762316e-01 -5.232212720145461250e-04
-3.089316994460282462e-02 -3.124383214613929774e-02 -1.647777442111882096e-02 -1.635159763332481864e-01 -1.756346257638772279e-01 -1.305820028111451085e-02
-3.145421039447424821e-02 -3.117008241733221566e-02 -1.620002562439980254e-02 -1.648132145063025411e-01 -1.311705379052940657e-01 -1.765097975758612298e-02
-3.144647534315306303e-02 -2.611112650862141074e-02 -1.485833901191810358e-02 -1.165869730637839885e-01 -1.629278796388494710e-01 -2.794371153014467077e-02
-2.713268104197608457e-02 -1.893095084462415034e-02 -1.629219522511925200e-02 -1.061370061965751233e-01 -1.546792714203528984e-01 -1.134143231325828068e-02
-2.830445839007798836e-02 -1.783637225246279684e-02 -1.807144422892897895e-02 -9.422710446219445535e-02 -2.223408539842524345e-01 -2.252574976375957064e-02
-2.789373093041401866e-02 -9.699381647136479795e-03 -1.289836321769605165e-02 -7.896015664369067377e-02 -2.400724286194055590e-01 -1.717596115517542807e-02
-2.727722062728547836e-02 -7.028599602160622755e-04 -1.439971376304645390e-02 -9.514025619578196646e-02 -2.442095289601263486e-01 -1.552855491314799989e-02
-2.406625969299674983e-02 -9.756631489509819816e-03 -1.223692097609969942e-02 -1.341519208850054934e-01 -2.193499052673490990e-01 -2.387410597765708339e-02
-2.407410457435098586e-02 -8.055354769613273097e-03 -1.498775217933893955e-02 -1.397480803977932673e-01 -1.484856613802457148e-01 -2.390688176858116881e-02
-2.075263678739044243e-02 2.779965190099213408e-03 -7.632986863932475496e-03 -1.285929162170647566e-01 -3.246928767460323662e-01 -2.838140006410108315e-02
-1.871487795247825728e-02 1.465736291006161695e-03 -3.140139478535752815e-05 -1.727387260809396530e-01 -2.879974362159861689e-01 -3.091502681318313711e-02
-1.837217728629161884e-02 -4.660001737312416403e-03 2.011539648420657134e-03 -2.098707222995528088e-01 -1.965364904110054600e-01 -3.457451986914983344e-02
-2.562919538004638370e-02 -1.496928627383083132e-02 5.256263446092812597e-03 -1.428069167328163691e-01 -3.076625560279371285e-01 -5.707166554650432849e-02
-2.400847205892007660e-02 -2.345024183823985267e-02 2.803539008481847894e-03 -1.306665131572823657e-01 -2.262812040420555115e-01 -5.105273033279545541e-02
-2.350667237520599750e-02 -2.467657090273658177e-02 3.747569665290384489e-03 -9.771674625444859430e-02 -1.222267342901953158e-01 -5.194628161190526644e-02
-1.920364029168289410e-02 -2.292996943985847746e-02 3.224417467331680553e-03 -7.680886530261425704e-02 -1.859014364705457723e-01 -4.923176215943871753e-02
-1.529028511709934653e-02 -2.553668081231216455e-02 1.518599567621153890e-03 -1.294258384376809901e-01 -1.265206089112773657e-01 -3.749651910928752246e-02
-1.422142270750551170e-02 -2.430448928373721978e-02 -1.096138081514680396e-03 -1.490923408487271340e-01 -1.657001237394253174e-02 -3.706273911152795780e-02
-2.321803617066570818e-02 -2.679298460124808143e-02 1.424121258426697123e-03 3.703114427826090238e-02 -9.306269235251218505e-03 -4.196844949070395459e-02
-1.960654318522469727e-02 -3.094591886843349113e-02 4.486635697392521438e-03 7.374439216560242649e-02 -7.418615502512818614e-03 -4.001941309453380807e-02
-1.947546795873290881e-02 -3.835762935248484412e-02 6.352227393888604245e-03 1.465787614386675486e-01 -3.037759172095414427e-03 -3.003134281237905892e-02
-2.711850349969150559e-02 -4.344324690003123490e-02 6.261144837939880414e-04 5.501059850083364622e-02 -2.285216259785969803e-02 -2.257533450962664889e-02
-2.142566612203729987e-02 -3.617126827428537167e-02 9.232093716625089375e-03 2.455877444350151595e-01 3.421367594163855774e-02 -2.030424910720340925e-02
-2.274231811586223742e-02 -3.479383787889148150e-02 -2.010712456097367429e-02 7.890804642469702312e-02 -4.957678872198053588e-01 -4.283935535057269844e-02
-2.306042783394083445e-02 -3.601282305944264461e-02 -2.110246472752017044e-02 2.209024722993500056e-01 -4.087177160972794154e-01 -2.946334235003838023e-02
-1.659811097221363524e-02 -3.976770181494310857e-02 1.112132837408699726e-02 2.919788289492445399e-01 4.795407461245211889e-01 -1.312885138237912357e-02
-6.211837202944339720e-03 -3.485299677890584674e-02 2.191888099974179105e-02 3.950557704725584651e-01 5.453127096652076178e-01 -1.583993019157110133e-02
-1.231664348719871578e-02 -3.458251320429360509e-02 8.938308482081824824e-04 1.162755513796986107e-01 1.869614565346062324e-02 -1.928665831065032310e-02
-1.001129730080383903e-02 -2.903818724452307889e-02 -3.474165759456140923e-02 -4.536821248395059847e-01 -6.115191313673096207e-01 -3.147872317497175249e-02
-9.806609584686567377e-03 -3.944202349243120659e-02 -8.804375631880634323e-04 -1.433386776008666874e-01 -4.392287827101371001e-01 -1.917467879277693493e-02
-2.557635689837735489e-03 -4.455944331766444055e-02 2.656952404960033487e-02 -1.724435207086224553e-01 9.858045869185352861e-02 -2.814564348898861493e-02
-6.886579278358153679e-03 -6.471846532110939187e-02 3.941905636282050374e-03 3.778231348478534174e-02 2.871876466792738225e-01 -3.397105682983411062e-02
-4.396331544430582931e-03 -5.959128702169190495e-02 -1.033127201544276064e-03 -2.044052943428948527e-02 -1.110089830008022388e-01 -3.651617623910052846e-02
-3.059177457119761044e-03 -5.762445964656953690e-02 -2.387293843221865997e-03 -1.869129560377231700e-02 -3.333350481580144020e-01 -3.389289797123113540e-02
-5.529471337797920924e-03 -5.237760825204163667e-02 -8.097297339321310461e-03 -3.810582242569077183e-01 -3.800745330724819016e-01 -3.956363125556462690e-02
-4.964444772509537390e-03 -4.962835687128376583e-02 -1.517877912832184262e-02 -2.499065328381988305e-01 -4.485902264505400305e-01 -3.847139948175409829e-02
-3.283308527973415394e-03 -5.446261508987308708e-02 -1.156921252379192189e-02 -1.048499410859454750e-01 -4.575647796899147690e-01 -4.302005432052736361e-02
-1.175466883767831323e-02 -4.410962896901951535e-02 -3.318494080775391541e-04 -2.489159065657188183e-02 -9.015089327960300603e-01 -2.285105756706492727e-02
-1.064291826532232088e-02 -5.262990843101780086e-02 7.971271343596375569e-03 4.809448614039164155e-02 -7.955797055598111678e-01 -1.478319548600877387e-02
-6.701232103900750525e-03 -4.790068477467329666e-02 5.739547734973760029e-03 -4.890056232005372816e-02 -3.574427360563661726e-01 -9.283600072134693543e-03
5.310804891688045148e-03 -4.733534871166712732e-02 9.045133951596867616e-03 1.026435073455760245e-02 -9.038606505695099269e-01 7.602195492767252309e-03
1.344756304464938060e-02 -5.143666417299536803e-02 5.948666762817078624e-03 1.088565632687680699e-04 -6.886903370331532992e-01 1.493364391924533905e-03
1.192739624973688378e-02 -5.158411831537143555e-02 -3.154669623668004963e-03 1.058489679154731716e-01 -7.027210789375563094e-01 7.124918473811868262e-03
1.407183636717849497e-02 -4.973798782030003363e-02 -1.043842158856347901e-02 -2.202335782002310671e-01 -1.200006159734439137e+00 1.045854801316966481e-02
1.612925740692037341e-02 -4.954006905166064706e-02 -4.295114017333234724e-03 -3.074471368521694559e-01 -1.110686405257888643e+00 1.212082395067012701e-02
1.283699654636109508e-02 -5.876676416880054904e-02 -4.474294775322407158e-03 -3.172640970791301140e-01 -8.110860438543093798e-01 -7.447928043410317368e-03
2.598405639662779501e-02 -4.187836005317634169e-02 4.288847045656019041e-03 -1.514777264582582716e-01 -7.143248287633722216e-01 1.238955616701039111e-02
3.002120712423708704e-02 -4.640181511426544336e-02 -4.947673025227639076e-04 -3.419235937528370406e-01 -4.029131540212040896e-01 7.544359014758366885e-03
1.919926067217936350e-02 -4.565117717741398046e-02 -5.216659490935277033e-03 -4.245377151484626133e-01 -6.040275027985282374e-01 2.469590043759632009e-03
1.456389773175125260e-02 -4.508554229000868996e-02 -2.814164685530501364e-03 -3.390974125664981687e-01 -6.762128677497474261e-01 1.539118402528797877e-02
1.885151497342803240e-02 -5.081746193241659659e-02 -3.851748773292834604e-03 -1.547744154908683167e-01 -8.024578260348926850e-01 1.506292270208850134e-02
2.767492346437913295e-02 -4.556440199276136360e-02 -9.204111762433506150e-03 -3.275242750256278090e-01 -3.115967996640839899e-01 -1.734608145645006802e-02
2.360174061688792568e-02 -5.086954611667974385e-02 -9.159204611275909014e-03 -2.712403459807533057e-01 -3.961541350428812724e-01 -2.237443768656685941e-02
2.388272298243360875e-02 -4.547315792702458920e-02 -1.982622861569094397e-02 -1.275991309904001003e-01 -5.635128368340723837e-01 -1.342232949189263447e-02
1.747381426346153108e-02 -4.505006603362895351e-02 -6.420533309357184804e-03 1.394880768487495315e-01 -5.204364907754246428e-01 -8.753137835865043440e-04
2.538109673335207928e-02 -4.029733119111631595e-02 -1.356218967475844583e-02 7.664757836499631882e-02 -6.317277487963143257e-01 -4.086548117997461466e-06
5.202997142494305421e-02 -4.873725263929753332e-02 -7.836381091732333437e-03 2.086838044920598378e-02 -3.012592299899866655e-01 6.240481258650137746e-03
4.283186231107435904e-02 -4.633583763991187821e-02 -1.400413435170441701e-02 -1.250484591315035865e-01 -4.541284106589775216e-01 -8.049096324625903574e-04
4.195396233000234926e-02 -6.560983024499701666e-02 -2.153266869300093922e-02 -2.659400155330959858e-01 -5.148496915948107544e-01 -1.793451512544675872e-02
4.850486940651643764e-02 -4.553740668594589980e-02 -1.493724722734179888e-02 -3.346414404849950008e-01 -5.493889884427830550e-01 4.017769102538141200e-03
4.730311523420576564e-02 -4.113704049520744421e-02 -2.195233762392853616e-02 -2.190070847084055194e-01 -6.838252738695497213e-01 1.101763713079203198e-02
5.793704118023770833e-02 -3.953281015081577809e-02 -1.293172481315953137e-02 -1.984578109875237695e-01 -9.191242624255133720e-01 8.389830202076477977e-03
6.289439654761086462e-02 -4.733785621695091317e-02 -1.273606862293454045e-02 1.821460822406496469e-02 -1.008320592195850685e+00 -4.604541078854816963e-03
5.793309382416025194e-02 -5.749003895023836047e-02 -1.553386686534283245e-02 9.035894928649519306e-03 -9.158468108796978813e-01 1.488037627206329622e-02
5.957765055876641097e-02 -3.965994691266404998e-02 -1.089737152497266548e-02 4.772982289164515168e-02 -1.053551115920589698e+00 1.287159603741857422e-02
5.906180593242709581e-02 -4.544618703007615584e-02 -1.249670890044664306e-02 -8.587259191169956118e-02 -1.176157644841109073e+00 2.576797307271896931e-02
6.025215921352681386e-02 -3.214198536837241382e-02 -1.616874707137949674e-04 -1.373703403616970131e-01 -1.278018375638821924e+00 7.910619776883821841e-03
6.781116899806874376e-02 -3.008326764550826524e-02 -1.532331469959069548e-02 -3.068369648787478976e-01 -1.153948676611239677e+00 6.991638279214716124e-03
5.232931305709938308e-02 -1.367337741643111053e-02 -5.536640973259870924e-03 -3.395627274344398816e-01 -1.554766524514783699e+00 -3.059603357357423836e-02
5.485356186702644576e-02 -2.353637555643769974e-02 -2.006776039901114750e-02 -4.565690135345391587e-01 -1.432472808133757880e+00 -2.205762745963404936e-02
5.039214369216995365e-02 -1.840994608324449458e-02 5.337390461607194325e-05 -2.430870337866170572e-01 -1.815653534304160432e+00 -1.031599546669834458e-02
5.670385171109731948e-02 -1.536474278944951859e-02 -6.238432090106299510e-03 -3.300738705076254331e-01 -1.798627547169496577e+00 -1.121031656045110014e-02
6.235360159774796379e-02 -2.408613068169825761e-02 -1.221458656860802128e-02 -3.938510036453906626e-01 -1.726941318539688242e+00 -9.050124912010692330e-03
6.552338357483196429e-02 -2.401187869284196127e-02 -6.407097524663285526e-05 -1.356851271807612835e-01 -1.639659391240779529e+00 -1.531965968978746620e-04
5.500470852771803532e-02 -2.395457690768179257e-02 -7.385227314298276058e-03 -9.070394456364165581e-02 -1.517568866425003327e+00 -2.140986073430138290e-02
4.956960926816609408e-02 -1.727274477951945206e-02 -4.745426833652421905e-03 7.344875512747248147e-03 -1.526423031486160209e+00 -9.867674272898901283e-03
5.223791182254085980e-02 -6.873848094515642819e-03 -8.191211260571651387e-03 2.316959783745900503e-02 -1.517281114435160561e+00 -8.988340874077136236e-03
5.372900985632840520e-02 -1.717369817808124879e-02 -1.921819109921091284e-03 6.587568011061002704e-02 -1.459786697044165082e+00 -1.927271582625099053e-02
4.426743084150333574e-02 -1.119808037791232037e-02 -5.713970330203502201e-03 1.076035960004786442e-02 -1.492392954828285268e+00 -2.016157628886447103e-02
5.135203259893238170e-02 -1.869828205652646069e-02 -2.691179862219811314e-03 1.253668353689535997e-01 -1.279097718111521731e+00 -2.185632815192192768e-02
4.266034709038839245e-02 -1.490910143184113329e-02 -6.617643031145800658e-03 -1.111917531163618932e-02 -1.314741228201227186e+00 -1.080349115355722436e-02
4.704624188121229317e-02 -1.776569473535795016e-02 -9.218557356794887525e-04 1.482723944161980778e-01 -1.247934371523235830e+00 -2.611754015354199321e-02
5.064391522574931276e-02 -1.169151545848853141e-02 -9.218466650918744065e-03 1.677310040397492555e-02 -1.342426739986261275e+00 -4.622392175849481671e-02
4.714436124771975017e-02 -1.661277477965607957e-02 -1.487534075639479481e-03 5.053928153094831149e-02 -1.209737772576357173e+00 -3.057590033852487094e-02
4.486686466950091934e-02 -1.935870872064582651e-02 -3.544722512940773340e-03 8.322586051590551148e-02 -1.258967628892592838e+00 -3.838986443810662313e-02
4.914260635345723410e-02 -2.006243248575798402e-02 -8.717013674232151899e-03 1.588811283386492024e-01 -1.291087841808675751e+00 -4.008777785004647570e-02
4.666497427741754522e-02 -2.178259215004257898e-02 -2.427163766688583690e-03 6.862744178038929221e-02 -1.211968351832661384e+00 -5.063543832161575275e-02
4.288165921698980365e-02 -2.493075281841149876e-02 -1.684072317967771903e-03 1.094272907323779048e-01 -1.275182894877814332e+00 -6.593971228538959839e-02
4.196018273650133773e-02 -2.166341011007898165e-02 -1.768077344517837712e-03 7.625259515779356234e-02 -1.260456045946671821e+00 -4.688718818798447152e-02
4.165971834807757207e-02 -1.856913015316816878e-02 -2.627865597268352893e-03 8.710940591020426005e-02 -1.327572360138971730e+00 -5.163399162954341454e-02
3.902101513797320842e-02 -2.820435990840825229e-03 2.956930531056972677e-03 8.181967909682369422e-02 -1.219675475685555455e+00 -4.847379827238451622e-02
4.242604742957835351e-02 -7.000905221256664007e-03 5.637855206063191460e-04 1.289991003435262129e-01 -1.305030152808175581e+00 -4.036042968609984682e-02
5.124286871650145236e-02 -7.372311487828771617e-03 2.254636983232000125e-03 9.982496777543480027e-02 -1.089431965626763477e+00 -5.312200169889334106e-02
4.693229513949573328e-02 -5.102538447745543111e-03 3.778937146851901741e-03 2.666214060406373876e-01 -1.218937473793030968e+00 -5.094710984294403139e-02
5.143095702543478559e-02 -5.478239118566478882e-03 1.473983621469748817e-03 2.930019891914134034e-01 -1.228539272569921126e+00 -4.473835306637816839e-02
4.065668613422446925e-02 -2.674256078663979266e-03 3.019066379321866389e-03 1.888160194689234850e-01 -1.126440225119289096e+00 -2.772746749432981189e-02
4.200717630169054084e-02 -5.491251805704013868e-03 -2.196349901412847361e-03 1.396874506000186089e-01 -1.091850319087014798e+00 -1.871277967818844520e-02
5.041909211651302708e-02 -7.373586573746000912e-03 -2.016227325416730665e-03 2.354589725822826551e-01 -9.794070499828825271e-01 -1.282101700723446355e-02
4.469799648763007893e-02 4.521317388705847632e-04 -4.996036181199037252e-04 2.976354698236715612e-01 -1.009174513756747160e+00 -1.103202227092767163e-02
5.022210222669070551e-02 -1.372315938633819274e-02 -3.467717970707051567e-03 2.142811112977322241e-01 -8.683439742216635393e-01 -5.845490535676565666e-03
5.127459355073184927e-02 -2.122213293970007936e-02 -9.909210726557121651e-03 1.876870007952424479e-01 -7.728297719909911212e-01 -1.579975936147061388e-02
4.813949152216567134e-02 -1.022887155006288983e-02 -1.497484282454676630e-02 1.648402843186611011e-01 -6.790339656099911858e-01 -1.037829783756713184e-02
4.296817013218194592e-02 -1.094119563648061205e-02 -1.471162827237579296e-02 8.384698040126636887e-02 -4.980803653296030920e-01 -2.496955710306387674e-02
4.111192539687435338e-02 -1.120258275386021123e-02 -1.488146379582273859e-02 7.286606803895250006e-02 -4.711047026399656223e-01 -1.567317977118290809e-02
2.849967228838112820e-02 -1.022828421412270462e-02 -1.224818979956406040e-02 1.247651671130508150e-01 -4.008266371062902400e-01 -4.218370553807113815e-02
3.125970459203566976e-02 -1.450215917428624096e-03 -1.433062583428376668e-02 1.645537799988173455e-01 -3.399122029574913051e-01 -4.447850622649258262e-02
3.232839654472131896e-02 -5.393819342073115711e-03 -1.911738143392244238e-02 2.022913745250284889e-01 -3.461295278440722489e-01 -6.308679591668203690e-02
3.196839821570197221e-02 -4.878385813903648310e-03 -1.732003015307026494e-02 1.301103940363052269e-01 -2.441306454063466025e-01 -6.264438462841923072e-02
2.990784349213313278e-02 2.995770484257008655e-03 -2.377921090818459204e-02 4.621286017363630816e-02 -2.437288359539997729e-01 -5.448397570104260984e-02
2.789783404702671221e-02 7.286101542363526175e-03 -1.588884869347467754e-02 1.536254927629958078e-01 -7.742192667308187004e-02 -7.310100341077810371e-02
3.036046815691569034e-02 3.691950213115790472e-03 -1.620553074254352244e-02 1.294659973708770506e-01 -1.130195804931124620e-01 -5.543960536888594554e-02
3.670696707584016061e-02 9.042093179909061786e-04 -1.447126425355481361e-02 1.582700812505302423e-01 1.095187787919040256e-01 -5.475860496424156398e-02
3.890555935393346515e-02 3.952978042133627537e-03 -1.914224358418362137e-02 1.954550926112036402e-01 1.949424872125097019e-01 -6.353054474785681249e-02
3.709694534773973207e-02 2.974760096434855665e-03 -1.213684523807465054e-02 2.427908337072684497e-01 3.181411458081320753e-01 -4.505257283508594390e-02
3.143636101690128193e-02 -6.661418075886517453e-04 -1.655674382740571215e-02 1.370103732348743886e-01 4.662235600019818405e-01 -9.059115882638825445e-02
3.319871160634076113e-02 9.531494321655656701e-03 -1.264024749399006442e-02 1.808618358957956862e-01 5.218902655859639639e-01 -7.923525208456985713e-02
3.322703227016351318e-02 -1.313802248306906832e-02 -1.576235878938767043e-02 4.802285701409562263e-02 5.185690460012228886e-01 -3.877310181259285837e-02
3.632958066099073458e-02 -1.126960889694001919e-02 -1.611276020430257860e-02 7.747293323615804528e-02 6.377902624582416635e-01 -3.530378946839352050e-02
3.154209428186325465e-02 -1.629820947918121307e-02 -1.597119638283926724e-02 8.676856411413670644e-02 7.374269659926169229e-01 -3.315485235503854572e-02
2.265656420135082200e-02 -1.651712608989123685e-02 -1.317925032735836610e-02 5.509936557916630950e-02 6.843185904905019212e-01 -3.406813230516729518e-02
2.383036479429187504e-02 -1.810340416490687637e-02 -1.518278044165262408e-02 8.869545582095347824e-02 7.488080920095295800e-01 -3.632417400884613984e-02
2.972515351905585107e-02 -1.725157752989013929e-02 -1.269069282306423130e-02 7.876678864919102463e-02 7.706005378888011181e-01 -4.304788597116706445e-02
1.705342569469627326e-02 -1.153538847612467846e-02 -1.431881115129716997e-02 2.252136396454195930e-02 6.945703935036675603e-01 -5.766533783501629623e-02
1.388100109659496165e-02 -1.138873319090059552e-02 -1.089576666274851002e-02 5.322971233306880712e-02 7.196696765715362432e-01 -3.529344252062101284e-02
1.720782010820392713e-02 -1.941999058839085496e-02 -1.017750017374020877e-02 4.094607178631083123e-03 7.815217028768850493e-01 -3.021116299849367637e-02
1.984487541259170179e-02 -1.517879549753085693e-02 -1.015200582240863292e-02 6.426224678882284068e-03 7.059571705938789687e-01 -2.388516605364803674e-02
1.571557981974868942e-02 -2.053249958316858553e-02 -1.289632039546814712e-02 -3.048768384515318508e-02 7.023111703696318653e-01 -2.662337028391132537e-02
2.335404739767631480e-02 -1.632694624292225713e-02 -1.462137596800570927e-02 -2.921432071468149996e-02 6.544821153025842664e-01 -4.396884967861971333e-02
1.209720657817009958e-02 -1.542866749768279783e-02 -1.353397287571869723e-02 5.322140023312174617e-02 7.626787707387738813e-01 -3.096474678995451632e-02
1.222852368977586819e-02 -1.724258313059621670e-02 -1.581076747174649244e-02 5.010752895717658639e-02 7.309471847119298760e-01 -3.056943299621005944e-02
1.312654367191220736e-02 -6.445523539214935600e-03 -1.266731181554431318e-02 1.479374185650498587e-02 7.387537024976252864e-01 -4.318095773629448964e-02
1.082555520958077694e-02 1.296665772994560518e-03 -1.792535887848578646e-02 6.638804667770149825e-02 6.846366265757085623e-01 -3.916457221318947468e-02
1.274009221678455012e-02 -7.040029300481510932e-03 -1.563434820620698829e-02 -5.307086925855403203e-02 7.743181421094424977e-01 -5.437174310057960036e-02
1.631770568696569793e-02 -4.045222410184498574e-03 -2.166630111962083993e-02 -1.875746246437481335e-01 7.977042204904545297e-01 -5.138396671876190036e-02
6.291380827578240374e-03 2.557589639245211213e-04 -1.390226946819757281e-02 -1.141314362881066385e-02 7.839162040226277384e-01 -5.336843733221048602e-02
8.151330549343143925e-03 8.189205645771061373e-03 -1.842945149063784926e-02 -9.537772295193332195e-02 7.500561340191703730e-01 -6.179209683295098371e-02
1.012396841285912764e-02 1.037706468696739798e-02 -1.691271391594258156e-02 -1.924568470730461112e-01 8.624074866938756800e-01 -8.456994143222681948e-02
6.170074660601037632e-03 -1.679423074326803051e-04 -1.466040758860387427e-02 -1.106134700277027483e-01 8.385764046973768204e-01 -4.597414912338769477e-02
4.256620663054752618e-03 -6.495101351609118209e-03 -1.710203978243560186e-02 -2.015782770743913543e-01 9.425702298917048028e-01 -4.489900501379705949e-02
5.939704155019395401e-03 -1.490906775023788204e-02 -2.732788856354090301e-02 -2.422959518098730392e-01 9.814345381963954784e-01 -7.637653734225448299e-02
-1.685129511536225541e-03 -1.490884396513275992e-02 -2.187961570282673240e-02 -1.201613377951588624e-01 7.295501579145410309e-01 -5.085249920046115701e-02
8.706978497553987794e-04 -1.681033449149754375e-02 -2.794521868449001412e-02 -9.132662991539998443e-02 8.073303241917931805e-01 -5.891585538486716206e-02
-9.939569703294740682e-03 -1.358758286150149770e-02 -2.680638315387330606e-02 -1.472082445133741924e-01 7.816656659754394054e-01 -5.383829788781425291e-02
-1.113189527807175588e-02 -1.124627472833580367e-02 -2.681925218696494528e-02 -1.061650844278904937e-01 8.364389133443157487e-01 -6.555217801456236781e-02
-1.412354852040188270e-02 -1.839966122931737530e-02 -2.500283399717052879e-02 -5.600471998517456834e-02 8.076888601582435934e-01 -3.483839800415781257e-02
-7.099509271165767299e-03 -2.067718698081807711e-03 -2.757191373180507832e-02 -1.738494444524565086e-01 9.035685710392711290e-01 -4.621610012484347191e-02
-6.444551314859606889e-03 6.624422391172226157e-04 -2.719884235975744691e-02 -1.024674226212409639e-01 8.514702718459589148e-01 -4.859022137304989247e-02
-5.927543144591715732e-03 6.417342728004299564e-03 -3.370635804841791427e-02 -1.552791115260762078e-01 6.997770754118863845e-01 -5.062207605308789715e-02
-1.310149141655747064e-02 -5.195159230359335314e-03 -1.500427104064341877e-02 -8.995778313811966798e-02 6.652770541989481146e-01 -2.646710681833625012e-02
-9.709749699618627078e-03 -1.868273125619150654e-02 -1.535523814453432223e-02 -1.135301381265257925e-01 4.815287263733859513e-01 -1.347852551084316106e-02
-8.306629600172038205e-03 -1.551722957427491625e-02 -1.812463637681174800e-02 -1.513407270119827563e-01 4.421832095095079018e-01 -1.729666563773586685e-02
-6.830762036198226479e-03 -1.680871571056001199e-02 -1.170440655331528301e-02 -5.548284264219948553e-02 7.373880463606247160e-01 -1.261024996166629350e-03
-1.428005703422645422e-03 -2.201038003085926259e-02 -2.270143918884459655e-02 -1.377807120230067350e-01 7.861109955648986070e-01 -8.522713067686803548e-03
2.375992653949251035e-03 -2.549871699516517362e-02 -3.001403997203941354e-02 -1.000270800793212900e-01 7.266049260709162017e-01 -4.704260637428932593e-03
-2.749009580063565064e-03 -2.510954366047399994e-02 -2.416430836391174342e-02 7.823040411429735622e-03 8.286777598254368993e-01 -4.062533648377592184e-03
-4.953142778142026297e-03 -2.481451047974272961e-02 -2.574757571839142445e-02 3.931056428526313873e-02 6.891228943665236306e-01 -2.024990892877201118e-02
-1.003952430922405020e-02 -2.727669196244133717e-02 -1.775277591347984574e-02 4.839673212970566595e-03 4.869908795452742023e-01 -2.510775282038725173e-02
-1.451472629126666740e-02 -2.878174974999407262e-02 -1.922820294035851307e-02 -1.622589524821332896e-02 4.755958266273967450e-01 -3.141663684444920279e-02
-1.125615770805072149e-02 -2.483896272189385288e-02 -2.599978978634308324e-02 -1.317683631873465405e-02 5.161159636531325035e-01 -2.396241493895708702e-02
-1.653707839891860321e-02 -2.059942537280395197e-02 -1.666570098761668839e-02 1.195609479596009689e-02 4.552813553920044276e-01 -3.325277859309250239e-02
-1.659324501303740401e-02 -1.684569234178029049e-02 -2.202849971132951612e-02 4.724055885247042258e-02 5.243496823718207800e-01 -3.334874991444992942e-02
-1.566413273338388562e-02 -2.044098239449444049e-02 -1.907604469320256513e-02 6.868214858769126907e-02 6.157984015795560095e-01 -4.315516083444807804e-02
-1.952023628382707626e-02 -2.338058121061221267e-02 -1.579662975441165074e-02 1.066966889953983311e-01 5.592302960874007134e-01 -5.183441462286957069e-02
-2.228619275843836400e-02 -2.605222882098955778e-02 -2.036686241546728504e-02 1.341816602500558835e-02 5.927587269647212054e-01 -4.364799938245868954e-02
-2.608832455239837311e-02 -2.051633836460087928e-02 -1.604854595962310060e-02 2.573725969627997934e-01 2.893684087029040897e-01 -3.561819955184897246e-02
-2.633637527569314754e-02 -1.456908774530820717e-02 -2.368409757682536643e-02 1.268143531704640226e-01 3.494233101640383254e-01 -3.234783835696734833e-02
-1.954482468216307486e-02 -1.374667364017349153e-02 -3.063024639941183680e-02 7.094814018255281296e-02 4.362092514978009317e-01 -3.773449058044628379e-02
-2.366040126133572494e-02 -2.098718756635715305e-02 -2.100598189516267311e-02 1.465316507709492344e-01 3.037370578552380240e-01 -2.969959750293608286e-02
-2.340215870217495289e-02 -2.333897164241387559e-02 -2.743380426853118947e-02 1.633718173077003954e-01 4.183195705100582473e-01 -3.314215011224596469e-02
-2.270455124823437046e-02 -2.446337123408089120e-02 -3.177265805239669338e-02 2.017562376784904354e-01 5.826072885589170802e-01 -2.918768362382100079e-02
-3.542893908428380173e-02 -2.384053314498418841e-02 -1.548961550444906410e-02 1.307888504985254274e-01 5.195014002961243493e-01 -3.500686789877579391e-02
-2.730818171309393541e-02 -2.490363257951361264e-02 -1.831062368073292645e-02 1.765328050770027524e-01 5.819507692726331172e-01 -2.069720072569451036e-02
-3.362651162740987187e-02 -2.410585294185210378e-02 -7.424853743561443675e-04 2.333199751303615399e-01 4.220217476600445217e-01 -6.450963356483394549e-03
-3.078003073975622839e-02 -2.576987898428631865e-02 6.483774520906732119e-03 2.731675072203605392e-01 5.050727621096101627e-01 1.257933070407056520e-04
-3.141975987437627821e-02 -2.559849590894359289e-02 -1.240869827167062622e-03 2.117686570913316080e-01 5.359087876150089302e-01 1.762879745820392389e-03
-3.759801632326504467e-02 -1.722595077356467788e-02 6.843731587922424753e-03 7.635182179839526684e-02 5.723143111969362096e-01 -2.245749443376935341e-05
-3.866623374117879319e-02 -1.326210415526554547e-02 2.777457057790699846e-03 6.538862487409088931e-02 6.859341312149868086e-01 -6.412326388183970521e-03
-3.356417657959961942e-02 -1.528301283077444089e-02 1.643659675997527492e-03 1.163969403356912014e-01 7.636206194596338870e-01 -1.288236277253694377e-02
-3.534964268667026288e-02 -7.407644127057473604e-03 -7.816590493421871066e-04 -5.173249839918905857e-02 8.362518857030970532e-01 -1.400330352032423860e-04
-3.453263996278051196e-02 -7.392182988473750514e-03 -1.983931398343186103e-03 3.498989326108080389e-02 7.603481166001904157e-01 -1.464754415619537627e-02
-3.175977619420185943e-02 -8.555166658838736504e-03 -9.171703700202565868e-03 5.538442192443537859e-02 7.075663154481516282e-01 -6.501217339570395347e-03
-3.959958704397940898e-02 -1.432891050246248160e-02 7.335394856513355322e-03 7.680158773160485064e-02 6.459043322837284551e-01 -1.316866900016020955e-02
-3.634290401813437821e-02 -1.103340061373612492e-02 -2.799023389131238826e-03 1.943206741575290164e-01 6.092369475436361093e-01 -1.002075490108263363e-02
-3.798470609421497612e-02 -1.548384428662961942e-02 -6.871133208972091122e-03 -5.190077090339301202e-02 7.207321101730648216e-01 -2.859341226362504401e-02
-3.966475692462386599e-02 -1.391337300380996074e-02 -1.064991273808160721e-02 9.309329983864846059e-02 6.239404424161436591e-01 -3.129709322722662446e-02
-3.614442080778017957e-02 -9.512042119730182432e-03 -8.261096005682005972e-03 1.466479995527940339e-01 3.775182404828431593e-01 -2.815694412088323370e-02
-2.696805720127506620e-02 -2.173240370601338140e-03 -6.291191361334061427e-03 -7.430326638992752752e-02 3.109618750222932215e-01 -1.736617041529452815e-02
-2.881063889204469111e-02 -1.008146747039924927e-02 -1.909906810225769913e-02 -2.121002120102243316e-01 8.483161717770563992e-02 -2.166815602973481275e-02
-3.133034804260963896e-02 -1.155208722624048376e-02 -7.169627575703330091e-03 4.320661672355183974e-02 3.446903486437086772e-01 -2.411531760187791973e-02
-3.054260013248797159e-02 -1.240413540283547000e-02 -1.966395561663131231e-02 1.824454864263751544e-02 2.573297476530458372e-01 -3.294975318093332911e-02
-3.240752284795442306e-02 -1.468971736544205653e-02 -2.598071325756223793e-02 5.640280569753473167e-02 1.404905052843704871e-01 -3.716902310150857480e-02
-3.619059581371612822e-02 -2.450925476637799694e-02 -1.709259763429943346e-02 5.076025097009523313e-02 1.056664923286464164e-01 -5.352855949049479395e-02
-3.556398141214238418e-02 -2.591947381180918775e-02 -1.751487077316189744e-02 -5.755045635157796102e-02 -6.121072809179096963e-02 -5.486318308714510650e-02
-3.774537455876241648e-02 -2.465823656630575234e-02 -2.075709666894995364e-02 2.846725880122165375e-02 -2.445697198876501943e-01 -6.033269961989468078e-02
-3.955525070200598126e-02 -2.058724834746146135e-02 -2.375125355027510321e-02 -2.824344245457274805e-02 -3.888209497745342413e-01 -4.415646199352656759e-02
-3.577352388898440150e-02 -2.079945316072019657e-02 -2.542417934054011508e-02 -1.073775409280482672e-02 -4.168039526293091934e-01 -4.015494564170852404e-02
-4.137966262151970137e-02 -1.886765282749754483e-02 -1.907138173278284665e-02 -4.300535810018595029e-02 -4.836891153841707536e-01 -5.031304252645504155e-02
-4.142324533673698295e-02 -1.768440527126467418e-02 -2.486757329604702416e-02 2.855266821889993964e-02 -6.879087715164757810e-01 -5.221609718164682556e-02
-4.024431471094788021e-02 -1.389999255394765328e-02 -1.959222370716368067e-02 -1.071396136617733114e-01 -5.774897090875876771e-01 -4.403361285270104841e-02
-3.734723401174809554e-02 -1.311215042886827026e-02 -1.356820595495275561e-02 -5.979311769418402256e-02 -7.308898559915059101e-01 -4.159796349722499897e-02
-3.939136007069291706e-02 -1.390500058410578700e-02 -1.315979329470153003e-02 -9.669180020597922115e-03 -8.772490842197271377e-01 -3.416437600403708641e-02
-3.714692471304036070e-02 -1.271799091470340176e-02 1.373774929246784904e-03 4.092587776097036945e-02 -8.191656340579007711e-01 -2.285203161272288466e-02
-3.590445482335141020e-02 -7.460922540008114653e-03 -5.905554437768439913e-03 2.222778839165092876e-02 -8.197565513434894591e-01 -2.694839925829600399e-02
-3.552954758802355506e-02 -3.733553965455546804e-03 -5.980919469570911140e-04 -2.484483307814225068e-03 -8.560596942491961459e-01 -2.777275596211228534e-02
-3.367715656019200365e-02 -4.745923678070300411e-03 -4.745101165588072600e-03 -4.899114422496439469e-02 -8.107351319160769343e-01 -2.569309054958397384e-02
-3.189968197547905782e-02 -3.245642866180677068e-03 -3.831878620102202593e-03 -4.375853216375466537e-02 -8.108367277540672324e-01 -2.029409043725159678e-02
-2.788742154675786719e-02 -9.093573075917399731e-03 -4.553709170982550569e-03 1.001015338873456756e-01 -7.773361112136069062e-01 -1.003843352164599141e-02
-2.797409339716025109e-02 -1.218678275595228358e-02 -1.248680504338110786e-02 1.358384038275049499e-01 -6.933849675284005087e-01 2.050694114255266205e-04
-3.323283637951995190e-02 -1.666494678014356079e-02 -1.418730286712480138e-02 1.637044686081987055e-01 -6.482969662586194337e-01 -1.237158558853705681e-02
-3.373822599165028635e-02 -1.769664874574367747e-02 -1.533012566674224475e-02 1.040091986398916785e-01 -6.779444818237709836e-01 -1.554370937327892964e-02
-3.181066030521192273e-02 -1.230790609217676142e-02 -1.835488325687088806e-02 3.745764569513873599e-02 -7.726485059762463470e-01 -1.536561072149094341e-02
-3.814126878715657504e-02 -5.563776614961222881e-03 -1.307286636351458198e-02 9.853748672296921973e-02 -6.529979694209709917e-01 -1.739333529151441959e-02
-3.627872084749050874e-02 -5.939673415688689548e-03 -1.341711755601666944e-02 9.975228429220252269e-02 -6.275987912052334305e-01 -2.516658995318370867e-02
-3.400938348173087461e-02 -4.325713453585577212e-03 -1.382125758644421609e-02 1.063970142194465979e-01 -5.776393456263207993e-01 -2.294549072656514033e-02
-3.229950043064606230e-02 -4.238763363809384087e-03 -9.427270081432209681e-03 8.160067596155481939e-02 -5.660685753752373595e-01 -3.370236029609605111e-02
-3.065380590074735442e-02 -7.931565952772650502e-03 -1.277223604443382399e-02 1.669790817742055899e-01 -5.635548898144028263e-01 -3.113335945563179899e-02
-3.122401170689018124e-02 -7.082529497942439620e-03 -1.674503625169528054e-02 1.615847928639169498e-02 -5.640250568999368719e-01 -4.401431217577479044e-02
-2.985060935669043083e-02 -1.025016927598267936e-02 -1.235936782615611185e-02 1.316600972058048699e-02 -4.250182546329649425e-01 -3.908178721930106320e-02
-2.957386034130794761e-02 -1.469184021868606346e-02 -2.426360396996012081e-02 -5.538222327568918107e-02 -3.403020209676060337e-01 -4.541876734288285283e-02
-2.562866917965983884e-02 -1.884199542384914702e-02 -1.011204409848183439e-02 7.276048663553628948e-02 -3.070567935448985097e-01 -3.215689740406201674e-02
