-7.371375108161820622e-02 -3.110699355706484509e-02 -4.621867507056648394e-03 2.025498729137908405e-01 -1.167401320852296497e-02 1.633304402055105534e-02
-7.349480289200008287e-02 -1.351035981507880956e-02 -3.763730431594725090e-03 5.336413129381345488e-02 -8.452681561483554179e-03 1.118680939311970067e-02
-6.398354905774088219e-02 -9.135774067716895611e-03 -6.574684997183458113e-03 2.224573276649475986e-03 -1.297437741478202344e-01 -7.377812005914034105e-03
-7.061249257034571403e-02 -8.060975765022723727e-03 -3.680961030871704454e-03 6.320217357140495151e-02 -1.660052163841633788e-01 4.118777617942851951e-03
-6.353718384971912547e-02 -1.464255617936666663e-02 2.811182621594437991e-03 2.021294408311670732e-01 -1.895588983682726381e-01 6.277985947548954046e-03
-5.988412036577569347e-02 -1.475996856897404674e-02 8.456266942359930150e-03 2.000889942135653798e-01 -1.849032597035927816e-01 1.921232607198401082e-02
-5.474002800705547039e-02 -1.689574246194413057e-02 -1.799528728875751660e-02 2.144432412408119604e-01 -2.572719672008725866e-01 1.801561967167394484e-03
-4.973393672236749857e-02 9.443665562027984224e-05 1.280998747210140842e-02 2.085081402397140626e-01 -4.390875704930163881e-02 3.144091360167285132e-02
-5.787096089891123618e-02 -1.197346153831875884e-02 5.250715874861922039e-03 1.455456783973125001e-01 -1.672833814538862707e-01 2.365978223408966505e-02
-6.095155700066094001e-02 4.123088254205163443e-03 1.640055475250201678e-04 6.220692284173545694e-02 -1.393223163449603119e-01 1.033807683317047345e-02
-6.444427276266305460e-02 -2.592942493510154173e-03 -4.838109111910321447e-03 5.454224318516898151e-02 -1.422446952724241709e-01 -5.207817652598159541e-03
-6.129850060741048184e-02 -1.642449200657080180e-02 1.836035992967832708e-04 5.588615163102306216e-02 -3.698919517670323093e-02 -1.062785793585974831e-02
-6.679589428108009819e-02 -3.595219832268679860e-02 -7.068931069776560050e-03 6.392006232031935409e-02 -4.307354095449134057e-02 4.482655728335472982e-03
-7.129430856249148463e-02 -1.667657581410456058e-02 -1.688754854480556400e-04 1.063276569141183986e-01 -1.081325312674575581e-04 3.440606850561653794e-03
-6.567618558979518295e-02 -1.038750706104642034e-02 -7.342836230069219039e-03 1.247070998054465307e-01 4.725987737428554575e-02 -4.942286427638183923e-04
-5.306071818154524389e-02 -9.120429391736857572e-03 -5.703403356322744866e-04 1.133536133479582514e-01 5.809093948539788277e-02 -6.114883185665562562e-03
-5.202404904810396108e-02 -5.821414147067984109e-04 2.946243304996931656e-03 1.295902282287678675e-01 7.532253586546077372e-03 4.093123857841273437e-03
-4.726044582896943985e-02 -1.159351287866522244e-02 2.194842739438845891e-03 1.214802629532222983e-01 -3.411885880749436495e-02 1.238206024344387993e-02
-6.348734935803637680e-02 -2.188423446937473246e-02 -3.265082690390774811e-03 1.274058173225182111e-01 -6.740859699715504028e-02 3.594119555510941200e-02
-5.039201001509265032e-02 -2.141227672036442528e-02 4.925253237183874200e-03 1.599797454248689521e-01 1.449602136351332143e-02 3.626297621109304120e-02
-5.758571329817263607e-02 -4.577313016884630367e-03 5.920704729694692414e-04 2.171327201517006256e-01 1.075270221761011613e-01 3.332233983471452610e-02
-7.292110454525869978e-02 -1.750546155630268788e-02 -4.997634790900040702e-03 1.439165278582108243e-01 3.585851806192358326e-01 3.354004079852872244e-02
-5.646591146439796510e-02 -1.597304632880150455e-02 1.517776580353208393e-03 1.653495966884422907e-01 4.124633360087311962e-01 2.939618845996829280e-02
-5.228392764705874773e-02 -2.084415792927760136e-02 -1.132682323905806476e-02 4.142465470078068313e-01 2.945594474837165966e-01 1.086998645480292090e-02
-5.981887184632906501e-02 -4.260126641239037060e-02 4.944621960302431063e-03 4.756154559197272036e-01 2.501989871007987420e-01 3.039109356621334107e-02
-6.151730681052558491e-02 -8.788160204210826790e-03 -7.566900687931421565e-04 1.908668310422317049e-01 4.632728989555823240e-02 1.341890808236692427e-02
-6.837835487539126178e-02 -2.824079920107582659e-02 -6.882701639041005626e-03 9.781567049364026101e-02 -1.116160750691826270e-01 1.288614555273430960e-02
-7.344994011138376855e-02 -2.147372261195621551e-02 2.044425972036634231e-03 1.814270956904837362e-01 -5.369927293708396526e-02 -2.409363441303921227e-03
-8.114599617373388640e-02 -1.073863872255956253e-02 -1.039084182155175506e-02 -8.519643268892184915e-03 -3.596273976413466578e-02 1.394746483479319087e-02
-8.285624240761382819e-02 -1.467733410527803650e-02 -2.042681040249465230e-02 6.264032355525546436e-02 1.016534491099938403e-01 -1.430320413685056162e-03
-7.397527338272007202e-02 6.837244855046886727e-04 -1.171629416069462637e-02 1.901694590602926727e-01 1.614427662999360913e-01 4.450014715154370151e-03
-6.367906115213149698e-02 4.433433821070779804e-04 2.292710413194232189e-04 9.635355342054760519e-02 1.283643927315270272e-01 1.373341127853537147e-03
-5.505551353881327908e-02 -6.184450448518574034e-03 -2.638923537691489907e-03 -7.785149925975755336e-02 4.584490879443749861e-02 -3.539399651289162722e-03
-5.168009677004690994e-02 -1.838118161362615327e-02 2.250584823340145979e-03 -1.786184436997473035e-01 6.823329923652328433e-02 -1.777927965580870795e-02
-4.459812953259449653e-02 -1.765498242787494343e-02 -7.102222220329384994e-03 -1.606925680768562237e-01 1.367786148517173284e-01 -4.246037371137613946e-03
-6.775739598867469571e-02 -3.006253808131490943e-02 -1.974705433516091291e-02 -1.516708204302097684e-01 1.632079979817022408e-01 -7.329060009242697842e-03
-6.493682542035562888e-02 -2.022244932581086785e-02 -1.510799930318965090e-02 -1.700490032724178979e-01 1.845616086217690410e-01 1.792795392592206119e-02
-6.798097990378443312e-02 -1.971409389740506543e-02 -2.585432914721799702e-02 1.070844692087104776e-02 8.753460440014072808e-02 3.665509392155513746e-03
-7.180429709066193933e-02 -2.238430793289870879e-02 -2.812143379455629699e-02 -1.264678494358659755e-01 1.211213768398419349e-01 -1.436495788442107222e-02
-7.991438140076786989e-02 -1.038539354994593399e-02 -3.014176887618155720e-02 -2.181341687139244090e-01 4.372750404665180085e-02 7.187227532726655349e-03
-7.479072132064491785e-02 -6.786954911189830610e-03 -1.329010706567052003e-02 -1.532403242923440455e-02 -8.778072045528785561e-02 7.836185906111205884e-03
-8.189869616968410704e-02 4.683389988910305682e-03 -4.545518047487512314e-03 2.178924581948448458e-01 -1.265736288834183321e-01 2.014799441084983919e-02
-7.696965377807563069e-02 -1.450091580485946344e-03 -1.535793077009359187e-02 2.526009537466153421e-01 -4.009385244643462465e-02 1.298167871480687685e-02
-7.630313025313475994e-02 1.036975970245246001e-03 -2.248842300509279468e-02 1.717222777995210115e-01 7.969945980613694914e-02 3.274726832969844514e-02
-7.356591706000016606e-02 4.759935904630801552e-03 -1.326576356528620659e-02 1.043185819673142084e-01 1.052726610173281563e-01 3.380709314786700670e-02
-7.339484289078720969e-02 3.422574165792704494e-03 -9.166838484455444580e-03 6.607423285503091770e-02 1.343221171426112470e-01 2.572562849310373878e-02
-6.565205086931187595e-02 2.899844561701011170e-03 -9.800659771256034491e-03 1.171886802525513860e-01 1.423485717381185733e-01 3.624480956725857628e-02
-6.495048659809411762e-02 1.933492516916711368e-02 9.487080277953502394e-03 7.729576219976751206e-02 4.011267788036848025e-01 1.542550220737489569e-02
-5.993906993182605142e-02 -2.094120180661964651e-03 -7.067877406129699502e-03 5.142185964190675723e-02 2.193217493193182488e-01 5.190298714549333031e-02
-6.636412660554950882e-02 -1.690871799810053644e-02 -1.342122677644518036e-02 4.437607443295178977e-01 6.222951461522491234e-01 6.190117404402883244e-02
-7.304002906413120666e-02 -1.769579113596883232e-02 1.090543924048287261e-02 4.602215557291181730e-02 3.766582568368365691e-01 1.391135434328036671e-02
-5.926554552457516389e-02 -6.435959994386166935e-03 1.943912899251359905e-02 -2.423569946094207214e-02 2.769545008419337928e-01 -4.517931079769041403e-03
-7.184993792497182397e-02 -1.368219719993735844e-02 3.073042458394009691e-02 1.724632671775048198e-01 1.199491944581715513e-01 -6.657524385328158004e-03
-6.225021573274144154e-02 -6.879856140496299656e-03 2.486953475688211124e-02 3.737725847025752390e-01 2.045556093960748945e-01 -1.746098884491003840e-03
-7.013515886333997196e-02 -2.001865478738644889e-03 2.628301498942089975e-02 3.574732553039533522e-01 3.082077590069703943e-01 -2.661188492901619355e-03
-7.755364172533808775e-02 -6.352766167677745962e-04 1.684704854936858176e-02 2.564868156648019704e-01 3.822924840346157427e-01 1.860562110178397939e-03
-7.769623199560482529e-02 3.777860482604331136e-03 2.009419103285961516e-02 1.258872315531458230e-01 3.126425135412054246e-01 -2.700257457560000050e-03
-7.559810263289724885e-02 1.130171475937121438e-03 -1.398697545529496711e-02 -1.295226483729336187e-01 1.558703960050376036e-01 -1.201282535201896907e-02
-7.372036940293820451e-02 -1.035879524771475720e-02 -1.697263872921592198e-02 -2.340423806505704044e-02 6.465836367389124484e-02 -2.448389049778218127e-02
-6.772093411181595579e-02 3.236509875406831487e-03 -8.932051414049235749e-03 1.185431777870618736e-01 2.809886060878621569e-02 -3.624166631826616480e-03
-6.042605302139845980e-02 7.305229272349364304e-03 1.540333467343552032e-02 1.851757560497307997e-01 -4.891923954377040348e-03 -8.591580671371557010e-03
-5.892551863860926581e-02 4.811882011070011192e-03 6.618685463627010934e-03 1.022769568483698210e-01 -2.233450536364504219e-02 -8.291271199140868089e-03
-5.766245519018849131e-02 5.348646054751222956e-03 1.009566955206356309e-02 5.201517995467985940e-03 -1.118616000303050140e-01 -1.866189096465869363e-02
-5.396955823791989987e-02 -8.761337130640795934e-05 1.424971228248150812e-02 1.008002305104086643e-01 2.904217214339616104e-02 -3.899175574244154348e-03
-6.147527409785399910e-02 -1.756081822130230478e-03 3.629284443219166212e-03 1.544237562009656561e-02 -4.215196234396785535e-02 8.162565265073574734e-04
-5.565107037641181531e-02 2.218370686454038522e-04 -8.055776091258903815e-03 -7.263345584591238309e-03 2.655468445302816560e-02 -1.443494430374891134e-03
-6.011869088566960950e-02 -4.526195761662648968e-04 6.663815588305227466e-03 -1.853281866250019311e-02 -5.869986153440232696e-02 1.698249458370959530e-02
-7.644958246691375969e-02 -9.899902154228659712e-03 8.612090576340492021e-03 6.818839670616128751e-03 -7.940413650597612227e-02 3.593406689820870942e-03
-5.959436178908420617e-02 -3.424053047982576498e-04 1.578095857076858288e-02 -6.949969040288234146e-02 2.188115881009611210e-03 3.284664648570811973e-02
-6.259670336694846127e-02 1.007502435224891897e-03 -1.409996827479220727e-03 7.245816151551608131e-02 -1.344749670091490157e-01 3.443989257739698412e-02
-7.148493208518824638e-02 5.879990808679424509e-03 -2.030432877680204973e-03 -1.934784782126613284e-02 -1.254185180394055445e-02 3.092917066268878121e-02
-6.186329468719884567e-02 -1.168880533382065691e-03 9.918185116298355863e-03 -1.087958274979799467e-01 6.776211754643805818e-02 3.664707133082301116e-02
-7.112506050701561389e-02 1.163681125611452406e-02 9.884172274408770109e-03 -9.604687152919268167e-02 3.280134817697067523e-02 5.973589422462922266e-02
-6.715267802396591990e-02 5.845349304201734666e-03 4.884713080528430007e-03 -5.626273215282522749e-02 1.247108870926936716e-02 4.101419265085817778e-02
-6.744244738224480784e-02 3.245121758305992334e-03 1.055941112970110174e-03 -4.838750714552598337e-02 -8.565995634858417085e-02 3.440362929266435610e-02
-6.356759341797348084e-02 -5.482186769058245909e-03 -5.682731158049320053e-03 2.941413039373277569e-02 -1.748217682588349142e-01 1.906968213295870754e-02
-5.681636417300447994e-02 1.502250530763046300e-02 -9.545712108713494404e-03 -5.556551304038485212e-02 -2.008818200740243864e-01 3.779798457330831030e-02
-6.663599906637217296e-02 -9.362588802849076963e-03 -2.643380349260977813e-02 -4.118482552876281261e-02 -2.118829800292768017e-01 3.785176948931183449e-02
-4.715449948693248294e-02 9.122321584535046310e-03 1.108744519402346529e-02 -9.504907034790499587e-02 1.481563765120349173e-02 1.928870013748910928e-02
-5.210180306506626696e-02 2.714213863975022535e-05 -6.702291082303843406e-03 -8.381290488846719622e-02 -4.032514207128432004e-02 3.072175128070196715e-02
-5.894853192223857563e-02 4.596204011147651813e-03 7.321339463374820777e-03 -9.581906940740882173e-02 -2.484144208574169330e-02 2.329440373680944591e-03
-6.075495889532783744e-02 7.670434677760479963e-03 -1.697164307582404996e-03 -5.182780076584173751e-02 3.698033708181630574e-02 5.103373970212511483e-03
-6.561923088864320130e-02 4.025317406896128380e-03 -3.125439733926593799e-03 -5.004773955389500012e-02 -1.115137481183440665e-01 -4.505705179635917726e-03
-6.470410910668157600e-02 2.988672943279445382e-03 -4.767986642493338145e-03 -7.303988145408008004e-02 -1.709067133183905518e-01 -1.410757317627234567e-02
-6.748669230816764508e-02 9.880035552008966868e-03 -1.072127537277946241e-02 -2.427605696403539737e-02 -1.410587563717971560e-01 -4.212294546345327073e-02
-7.120111755592251068e-02 6.248787333258650281e-04 -1.838913836627974197e-02 2.856415447119332526e-02 -2.819763153514435669e-02 -2.822448988934137676e-02
-6.834753053617007024e-02 9.263876795950115595e-03 -2.434996777356138176e-02 3.293354021354263916e-02 2.485089355936572972e-02 -2.209591851613695868e-02
-6.748082393413949720e-02 1.911504137819618893e-02 -2.095882762186199177e-02 8.126224621118123548e-02 1.133501973199844415e-01 -8.766934524170742066e-03
-5.882162214638829434e-02 1.794669829619482612e-02 1.035258464575972148e-02 7.756973262199841346e-02 9.166224799531917655e-02 2.002682431221551509e-03
-6.580681629213699924e-02 2.231321940413310764e-02 -1.068765312668333578e-02 -8.084740138085183547e-02 5.952140856054383145e-02 -2.009058100541125449e-02
-5.743280500001611555e-02 1.704322272906881597e-02 -1.246577891748865130e-02 -7.299013273255981760e-02 -5.258986883157090210e-03 -2.086712066280342615e-02
-4.774369652691416027e-02 6.787238819188660607e-03 5.917672200918183689e-03 -7.008224978481654432e-02 -1.074700007009637137e-01 -3.029032187410880470e-02
-4.220004199312001048e-02 -1.156293683176465564e-03 -6.414418161964502429e-02 -1.160700715536797933e-01 -1.107480466082498387e-02 2.383828270039029321e-02
-6.625085302308506008e-02 5.188919253190697745e-03 -2.919202972201656587e-02 -5.155251819094259363e-02 -5.089248059616545694e-01 -7.781891172282852029e-03
-8.260320586533724529e-02 2.326838325567553295e-02 -1.176415330267779891e-02 -2.944057253907585991e-01 -1.929157191696255838e-02 -2.777358658888878784e-02
-8.271276004392939807e-02 1.450777135965568114e-03 1.038729476392588613e-02 -2.753810647943006340e-01 -1.550550837911084667e-01 -2.238360530682011185e-02
-7.752798095465705808e-02 2.189946412218556071e-03 3.356088036604032432e-03 -4.845886269075126707e-02 4.091889442592883813e-02 1.869602915179953417e-02
-7.745273676702463250e-02 5.770099015407753086e-03 3.753896622907093583e-03 9.966191279939799752e-02 8.009829662390555161e-02 3.825913930270991026e-02
-6.745634045650947264e-02 1.071439989668196945e-02 -3.672406276578665807e-03 1.245404157903041639e-02 -1.138751684356931063e-03 3.696289577881513994e-02
-7.313104803293615785e-02 1.365378494130040782e-02 -2.429828464555117140e-02 -8.212526069813527729e-02 -5.676326727097417285e-02 4.783157200116715940e-02
-6.980505751030374739e-02 1.810645825685795046e-02 -2.579273095768985780e-02 -1.936832405208490510e-02 -3.145692344330074802e-02 4.575837756855764132e-02
-5.971483635845851318e-02 -1.170330581616868884e-02 -2.222747026023104422e-02 -3.466036675193163163e-01 -1.126923171356170733e-01 2.221749310337384903e-02
-6.699221837316204908e-02 1.479028195775384255e-04 1.837403843731849618e-03 -1.970385414383811762e-01 -1.666451472019855884e-01 1.296225974154923549e-02
-6.645263009514805475e-02 6.772458263302062742e-03 2.920796802287331517e-02 8.208666595098440544e-02 -4.636578150188856023e-02 4.153452052840560238e-02
-7.178380239459859757e-02 2.841896272955828084e-03 9.446525988299009358e-03 1.788465957237408699e-01 1.354104123158096640e-02 2.207415976753661011e-02
-7.901890610767986489e-02 7.029012787217942156e-03 1.655296307340986539e-03 5.534816067226021319e-02 1.137584095854314442e-01 2.629528219227335317e-02
-7.550834631791858431e-02 4.788344136475582505e-03 -9.405127418999847944e-03 1.643004285479863213e-01 5.764425880779842915e-02 2.781834493494994912e-02
-7.102859457439898716e-02 4.698078773570152009e-03 -2.152324688230611294e-02 -1.711708619698698863e-01 1.375736680605282036e-01 3.065652221456084334e-02
-7.730294326473290123e-02 1.052454272660660953e-03 -7.197751664179796727e-03 -3.036219047628101464e-01 2.733564781450876016e-02 4.612130227549097322e-02
-8.095073375271508165e-02 6.322187877973858491e-03 -3.196412833143674748e-03 -2.152899315217981779e-01 -2.950060710215025514e-02 3.046363256898862101e-02
-8.151584933645399100e-02 3.193564869414527649e-03 -3.189949644805872842e-03 -7.004865034075993813e-02 -9.310202290413406578e-02 4.649341131786056958e-02
-8.932226476602768417e-02 -3.008773671139704751e-03 7.217616122880743390e-03 -2.337123634192755928e-02 -1.114255170201864514e-01 2.705526871176878317e-02
-9.162910692122455680e-02 -1.008745545032020859e-02 3.016154707305651606e-03 -2.201464281142772456e-02 -3.995401025444440812e-02 1.882825135870792171e-02
-8.381503098663461993e-02 -9.836219302981459578e-03 -1.041657351011847366e-02 -1.529741524194903890e-01 -1.388177233551115830e-01 4.369900048086670930e-02
-6.398129059240308114e-02 -1.620751619587831177e-02 -1.118921471952322166e-02 -4.158739891932224791e-02 -1.301944042928590839e-01 1.976360561097664087e-02
-6.465139732204484846e-02 -1.007073324594815432e-02 -1.305798642094953277e-02 5.210849343212275477e-03 -5.522290794257965485e-02 6.042201512583141379e-03
-6.266954094924100105e-02 -3.744229770850809359e-03 -2.241499036317567972e-03 6.992112784404316828e-02 1.399713786051760139e-02 -5.244573799043717247e-03
-6.323552268903069595e-02 -4.470819605335816203e-03 -1.455014565958367978e-03 3.111381625557127842e-02 -5.556451309383900021e-03 -5.598859684724830088e-03
-7.548313487252818199e-02 -3.011049413120946323e-03 6.998457571814054035e-04 4.101185291290875695e-02 -4.875664784038844651e-02 8.454534487542547661e-03
-7.803589507251959545e-02 -6.817515364778497025e-03 -7.804544754750647462e-03 3.257034530895138585e-02 -4.946118583680560177e-02 -1.115642439644703261e-03
-7.073410073835494083e-02 -1.082692707428532970e-02 -8.657362341857613441e-03 5.099781776232750752e-02 -1.163224159663738405e-01 -6.625789038886220617e-03
-7.166833694196438065e-02 -3.609098688743170389e-03 -5.371235048307970716e-03 1.133549888649793003e-01 -1.568758564395303645e-01 5.469186527118677713e-03
-7.488537704623067504e-02 3.933024424206907907e-05 -3.262665740529624436e-02 1.181980422995414087e-01 -1.910703627518273717e-01 5.991752010328347698e-04
-6.747118221467671151e-02 1.213609241445922672e-02 -2.786548221365942046e-02 1.225334179062549100e-01 -1.145742754663600926e-01 2.387822713539102751e-03
-7.242628973126126468e-02 1.285248687963286979e-02 -3.873504205680776413e-02 5.057734636771549219e-02 -1.329556972645623003e-01 9.279077546652070990e-03
-6.648834673472668599e-02 9.158148944667390823e-03 -2.303140006046201782e-02 6.116403888349680046e-02 -1.268110169110597540e-01 1.065183169867317710e-02
-6.556982110160476662e-02 5.663308421857275385e-03 -2.477134917389908764e-02 9.300433768936763879e-02 -4.942544560858997543e-02 1.718177986571581273e-02
-5.244184381541695111e-02 1.049805585096747276e-02 -7.316169325046403826e-03 1.065246940444469909e-01 -9.201681177277251655e-02 6.936807233359380126e-03
-5.217202721956398087e-02 7.000792119014412514e-03 -4.068461817952145898e-03 1.230245477824956461e-02 -1.680307430937423852e-01 3.483449756765098944e-03
-6.222716105485080751e-02 -1.489730696533912192e-02 -4.774471872955932117e-03 -5.582682550684230083e-02 -1.556552947765958983e-01 -1.239546108919575146e-02
-5.787295411651370569e-02 4.283211190012166901e-03 1.197011019065885584e-03 -6.780041265615954771e-02 -1.211501459442600181e-01 -3.436043209296744602e-03
-4.789315008204404756e-02 1.078380933118048765e-02 1.378847119904436092e-03 -8.736205266288314675e-02 -3.991309382553628188e-02 6.166527931318737180e-03
-5.067567849908397731e-02 1.144481679340762087e-02 -4.990239707428234528e-03 -6.322276941472974865e-02 -1.267960193722826763e-02 2.037023041632099810e-02
-5.579989294022322938e-02 -2.751848825293400124e-04 -6.156926492594638756e-03 9.601185899275771832e-03 7.080381229818584476e-02 1.730427837638805894e-02
-5.504875667658241239e-02 3.632374045918386994e-03 -1.409853780904112008e-02 -6.575196638185823450e-02 -2.795216929305210235e-02 -4.241594039440836020e-04
-5.935177703692252199e-02 -2.634225925569849084e-03 -1.706728165955272158e-02 -1.755814854787157708e-01 -2.140625629171980238e-01 7.309416998724985529e-03
-7.150569232697841227e-02 -1.238805721085978889e-02 -4.598109448090387241e-03 -2.054341700598393827e-01 -3.142989039843497867e-01 1.838371182574034465e-02
-7.309123083315861857e-02 3.143073031520345062e-04 3.583712422028151323e-03 -2.189594820856348989e-01 -2.991394932275255325e-01 1.583824981650442526e-02
-6.107905301502138118e-02 2.361960999364877932e-03 7.266985665233177683e-03 -2.249101837212371668e-01 -1.524983785411423709e-01 2.741275588493130924e-02
-7.454500298134533742e-02 -6.105195021096036269e-03 5.134508996573527995e-03 8.772383975379910437e-02 -2.149165245993387430e-01 4.937483296390490599e-03
-5.924961778225160819e-02 -2.451519252459305291e-03 -1.932732748597357220e-02 -1.390414357814806212e-01 7.217635389329991880e-02 1.414420831345955185e-02
-5.693909733464418838e-02 1.635011831918865193e-03 -6.505236825697147118e-03 -2.957018138917538730e-01 -6.001211325966809840e-02 2.517209179312708198e-03
-5.144088029486124786e-02 -1.278999543735497881e-02 1.063989418148392208e-03 -1.910951774319370189e-01 -1.090381463437337800e-02 2.760410449110614270e-02
-5.409681826593232268e-02 -1.158009213760694467e-03 1.568968027347822369e-03 -1.295907352802789791e-01 -1.991703818189667977e-02 6.403331757158948340e-03
-5.101347307849898871e-02 -4.030799073102160450e-03 4.970947782355239486e-03 -8.718026030390194081e-02 5.744860460351637610e-02 2.357963045526608598e-02
-5.428712881080799413e-02 -3.966643420111729858e-03 2.982245966263036285e-03 8.204342540790346416e-02 3.646272288688024582e-02 2.279134871291558714e-02
-4.451708767356117591e-02 9.294923127989087068e-04 -4.744036983377053485e-04 -6.179995230033783621e-02 6.003148243835752795e-02 2.090024578672541530e-02
-3.704191128783981130e-02 6.546417872846928103e-03 -3.646688876122100575e-03 -1.251169568544345523e-01 9.236441247728047199e-02 2.698689552340793885e-02
-4.658651815537620533e-02 -9.464435244669479330e-03 -4.028840196612121227e-03 -1.211665196989495930e-01 1.468407895392903340e-01 -1.198460570789138327e-03
-5.352997548603050104e-02 -9.670585273095642226e-03 -8.673193876290744009e-03 -7.943998125547037381e-02 1.900769014744117802e-01 5.772035045991904742e-03
-5.610410983127432638e-02 -1.750630356895920003e-02 -6.292035898924921988e-03 -3.834124347947192452e-02 1.668290560268919365e-01 4.037857783094866461e-03
-6.303341608880148883e-02 -7.389502288364387106e-03 1.325052835691453712e-03 -3.557566233406651152e-02 1.284685573390550450e-01 7.536399153342762149e-03
-5.073610230576065805e-02 -1.425476759103362114e-02 1.596198958942335322e-03 1.390999416864382721e-01 1.690330360983717806e-01 1.611945283809585600e-02
-5.881878691022112554e-02 -8.246721152270194977e-03 2.700049537176535397e-03 -6.025347569670233550e-02 1.149820232968782191e-01 2.037119676477342975e-02
-4.585481538318850886e-02 -8.423120204616250245e-03 2.051315435638828566e-03 -1.611149161103751226e-01 1.381836044041442058e-01 6.617883452332291166e-03
-4.733861099494891811e-02 2.102996463528493572e-03 1.527914608011690656e-02 -1.006740194089198182e-01 1.547613359379138576e-01 7.219454360639751718e-03
-4.961404315540694776e-02 -6.207728689711851139e-05 6.801880146198147070e-03 -1.534253395928808494e-02 1.716121372467981632e-01 3.370689441393234093e-02
-3.884612381440877282e-02 -7.906800470581839407e-03 1.446311275300402044e-02 -9.694797782667829641e-03 1.481974166240201951e-01 6.320304575809590659e-03
-4.219796873136768406e-02 -1.158529006578539258e-02 -5.099396598295599659e-03 1.833589993110094352e-01 -1.330798281022268215e-01 9.744002657722503069e-03
-4.301421522092077621e-02 -1.536924136120917765e-02 6.186017210180805304e-03 9.086705157586985604e-02 5.867604313501194602e-01 5.025216702714003190e-03
-4.777060682144731313e-02 -1.999859492208101198e-03 -3.683507767242744091e-03 -6.799101302378360301e-02 2.162764100972982828e-01 -1.137310363868399531e-02
-4.052925504175022842e-02 -1.092210518493501141e-02 -5.026177206130161279e-03 -1.818096941282277279e-01 -2.767785697010157198e-01 -1.004132890025886612e-02
-4.308503391758977674e-02 -4.287624357966261963e-03 1.083098307908839097e-02 -2.093209066455093414e-01 -3.968849917427694218e-01 1.077678654313058045e-02
-3.957600359097705744e-02 -8.652964241430142339e-03 1.679039127210313342e-02 -2.537811903690243565e-01 -2.410234374877660291e-01 1.690754295266727950e-02
-4.562848310453797296e-02 -6.849179150538616673e-03 -1.435075323428207372e-02 -9.012626546905656844e-02 6.675643603056723163e-02 4.210447951105459989e-03
-4.045057135256622388e-02 -4.937515432695284076e-03 7.146141288220497767e-03 6.335186804412271666e-01 1.439463456883374737e-01 1.700612109549770601e-02
-5.253614928648257798e-02 7.150959443915020763e-04 -7.964545177294390932e-03 3.557784735985356633e-02 4.389835293733793109e-01 8.103667239181535850e-03
-4.501068099244098092e-02 5.426455955898554923e-03 -1.223490794475080856e-02 -3.093663303084027705e-01 2.742238541299059640e-01 2.187086764458895383e-02
-4.291747407941984283e-02 5.670815266976370972e-04 -1.884546471537240642e-03 -2.889303646722916064e-01 -9.591131448880706178e-02 8.633825120075896628e-03
-3.505405985961273369e-02 1.529242590434800979e-02 8.161153602160214904e-03 -7.788394383454957937e-02 -2.937421786837807192e-01 9.190978861971531300e-03
-3.273288152330735418e-02 6.474310825398351711e-03 1.233236075747601301e-02 1.570595494288264948e-01 -3.831058581099214821e-01 -2.438677591647481213e-03
-3.825394755904096278e-02 9.981002460539789567e-03 1.344772101562755062e-02 2.408238905735595181e-01 -3.104697464948572017e-01 1.231961651434447177e-02
-3.742117623304049012e-02 1.121985092889118745e-03 -1.629903236583185588e-03 5.710977107493205723e-02 -9.304087129200795669e-02 -4.070744371534580283e-03
-3.366429078407328496e-02 4.373872700214658828e-03 -6.058946735280651419e-03 -1.615299396882677041e-01 -1.172603556369073222e-02 4.323486943762173745e-04
-2.790351754186958660e-02 1.408448661675460942e-02 -9.344737756082632796e-03 -2.364976539632993868e-01 -7.094834714168925249e-02 1.541095090262829250e-03
-3.242369685524955358e-02 2.713941050150720478e-03 -3.868834726090120135e-04 -1.908306791871351993e-01 -1.160706693075214402e-01 2.424732575363276309e-03
-2.960963862972784688e-02 7.225703336536156568e-03 -8.769890918886677489e-03 -1.858584866830610693e-01 -1.721857808340035156e-01 -6.545345894518218334e-03
-2.882169606741507434e-02 8.914988363897809881e-03 -1.063665202164165713e-03 -6.994450457463341486e-02 -1.618777605702675648e-01 1.164412058994371757e-03
-2.657506896680246825e-02 6.366003019990261469e-03 -1.954934415316439411e-03 -4.162426707464770247e-03 -8.718909769023616696e-02 3.286528786148271847e-03
-2.820073633320558520e-02 9.647210322234903504e-03 -1.409184698685422843e-03 -1.069294108673473354e-01 -3.693752564066331984e-02 6.294180707865732090e-03
-2.308787025595610692e-02 -3.527076192286061722e-04 7.176287961876970378e-05 -5.313490549304416416e-02 3.125848502116432975e-02 1.413535636989356192e-02
-3.063168906445226658e-02 2.738467025282830154e-03 4.916267466847867862e-03 -7.210771201907482941e-02 7.947263970026634261e-02 6.921053435329818995e-03
-2.750112432468045792e-02 -4.213796016490751160e-04 -1.502582100288113454e-03 -8.416703609099936145e-02 2.311040773991742195e-02 -7.164149241957967415e-03
-2.659588695577932288e-02 8.459763891894069368e-03 -6.924994344656085210e-03 6.386691260156550365e-02 7.170093574251709678e-02 -6.826828822717638870e-03
-2.594602878018224118e-02 8.704862801131097935e-03 -6.045245389845091410e-03 6.498339568437198899e-02 2.714142633417033698e-02 7.025178605355460182e-03
-2.368165760327839431e-02 1.661746785102177423e-02 -6.343405681539140972e-03 -5.817129704055471612e-02 6.834796991359058660e-02 -4.744391131966309121e-03
-1.911445408370781099e-02 1.710526347602708136e-02 -6.776035380043649026e-03 -1.717632171498337801e-01 4.802884375545474899e-02 -2.812799713094581589e-03
-2.194153146932857623e-02 3.799661819909345463e-03 -3.972741588727402018e-03 -2.059525903753964271e-01 5.023946093008297559e-02 4.851410706843097519e-03
-2.665607302928764757e-02 1.177067515926042557e-02 -4.190217704039350677e-03 -2.215458071129582929e-01 4.194989314556351115e-03 -1.829531091855527434e-03
-1.960652247284788360e-02 1.736389042118676243e-02 -1.153415881961522560e-02 -1.859962788445103099e-01 4.921140988636178021e-02 -2.710754609113558752e-03
-2.183185498969015745e-02 1.997637508217016758e-02 -9.128253193185761893e-03 -2.100210938565300334e-01 2.284911737258533276e-02 7.293649173067654097e-03
-2.085508243587974944e-02 1.919148352900797855e-02 -9.820345163261426369e-03 -2.617281450062112769e-01 -3.202328371286069977e-03 -1.673184060801376390e-03
-2.198976796603013817e-02 1.684378776945094636e-02 -8.570525221524349924e-03 -2.930607670986768443e-01 -3.787908088077446278e-02 2.214679257171674361e-03
-1.498719619299356161e-02 9.525810860387010776e-03 -3.442637499694450876e-03 -2.852019134134035072e-01 -3.246245481391617227e-02 1.926327681520622129e-02
-9.093849472659211453e-03 8.258673030117198027e-03 -2.044326461792422833e-03 -2.564751205442001303e-01 -3.401618354722317494e-02 1.028361655135630499e-02
-8.254808711864540169e-03 1.190810819243785443e-02 4.621970795893493023e-03 -2.069948556881547885e-01 -2.959277789662296404e-02 4.476301614285731895e-03
-8.895772946428279204e-03 1.886276126523875329e-02 -3.905396830850810241e-03 -2.117804625820223219e-01 2.582992987324455106e-02 5.023036809366245720e-03
-9.304861176716267696e-03 2.281444989469341017e-02 -1.032004781467436849e-02 -1.861551784994117387e-01 -5.442334818318140394e-02 2.767771664901204007e-02
-6.448956746379777040e-03 2.213770280997163012e-02 -1.251845732910678022e-03 -8.346193834281825930e-02 -6.102286973263734010e-02 2.179517521052562815e-02
-1.483719941719543155e-02 2.207625753395430282e-02 -1.032032278396163849e-02 -1.464408276767981965e-01 -5.035882395716782117e-02 2.575381177723747375e-02
-1.610893307753557407e-02 1.789954056268893909e-02 -2.145079380813208481e-03 -5.258897769145272350e-02 -6.769628745634830025e-02 2.878099571224246311e-02
-1.612159032825553201e-02 2.787048324716723258e-02 -1.554616458638580223e-03 6.403049775225749807e-02 -7.731357346916642448e-02 3.089185629994365551e-02
-1.495644909301480086e-02 3.419202248004695605e-02 -2.345181293923803700e-03 1.462549739605883969e-01 -7.262626489536574970e-02 3.903080970458307208e-02
-1.158166179761029556e-02 3.420075770789272884e-02 6.306290927607371977e-04 1.318085291726346919e-01 -7.677259526747465257e-02 2.924917603155820570e-02
-6.896823731966330272e-03 2.659140066108501080e-02 -2.941492552724078724e-04 8.516984011908143581e-02 -8.562723908556155172e-02 2.978388341280339274e-02
-1.392001991171718835e-02 1.527080130984252021e-02 -1.093672192824579614e-03 3.358298744610548753e-02 -1.418298320837011184e-01 1.879832153057750879e-02
-9.301442243173113633e-03 2.354537052917914097e-02 -1.066848857733054823e-02 7.314834016672738803e-02 1.831683839436674000e-03 1.643901833420560385e-02
-1.063384927780587803e-02 2.932161409764416984e-02 -9.467121292121516429e-03 3.486271013263447099e-02 1.024523028987847119e-02 5.213480381179020490e-02
-3.923688850143109384e-03 1.631511512972315392e-02 -3.082791619268693273e-03 -6.704407194858956129e-03 5.865181356911442628e-02 5.257576551528998776e-02
1.836918175295002573e-03 1.033982087955678288e-02 1.104681842170135431e-03 -7.160531279084106013e-03 1.441996080397255908e-01 1.699539431556763500e-02
-6.576517221178203830e-03 1.072342275604909467e-02 6.679408671333181280e-03 1.243784199802057226e-02 1.900884774387571474e-01 1.591822391933230690e-02
-1.036757475725607995e-02 1.244680834445536198e-02 1.039851090159654712e-02 2.875457796459390727e-03 1.050142469982151272e-01 3.075387497735196027e-02
-1.072168933637468805e-02 1.052879366506912807e-02 4.551203730594477470e-03 4.007113718086836862e-02 8.247058720709990465e-02 2.221923670851689778e-02
-7.174320163300654772e-03 2.122889997548458099e-02 -1.490032871376917312e-03 -1.222992798616180238e-01 -9.012279266957270996e-02 1.724427791748538163e-02
-3.066028924128291408e-03 1.487081662162783170e-04 3.729196100301257477e-03 -9.687466660718370426e-02 -1.468064076290495901e-01 9.691621505671285317e-03
-7.875504698847686502e-03 9.383657939660149821e-05 7.100528936689248782e-03 8.880663984188937043e-02 -2.792096719635031032e-01 8.106463226348786452e-03
-1.130760878461662192e-02 2.887106341811165704e-03 8.154238615867281936e-03 7.347478824773032158e-02 -4.050159376652053833e-01 1.001710720530233842e-02
-6.572696550638381513e-03 -1.234877890530115471e-02 -1.972280924676023117e-03 -2.001346006868652896e-02 -5.214265263059172373e-01 -1.905834173552205615e-04
-1.574425685527919283e-02 3.344737801220363377e-02 -2.960531648035787111e-02 -2.780581356380720792e-01 -3.642904753198193402e-01 7.599657549568735251e-03
4.317120978501846201e-03 2.587141137074070937e-02 -2.986971810806635097e-02 -1.268073680316885166e-01 -3.629370134326448949e-01 1.143723331853010831e-02
3.661519509587241560e-03 5.331253680186170268e-02 2.916542649189696190e-03 -2.587049695505598112e-03 -2.557835497182200379e-01 6.640884267047043876e-03
2.082559041473415820e-02 3.804541958410363051e-02 1.860528336083674961e-02 7.380370955396776955e-02 -3.279747314593615126e-01 2.381645245631994895e-02
2.165469729653977243e-02 4.272123983313601964e-02 1.640330696728148352e-02 1.304832836423981957e-01 -3.523967863651251142e-01 2.233671658105996008e-02
8.229343424613733138e-03 2.968613886826711526e-02 1.383007743489472752e-02 1.855393779015337974e-01 -3.202032169851763976e-01 1.142563271827686661e-02
2.092126486924483428e-02 3.422057690369280369e-02 1.288405053593977279e-02 1.409860603931516743e-01 -2.240153567354715436e-01 7.152089478909017840e-03
2.550679095844445021e-02 2.414613613510304194e-02 -7.743655176565833465e-03 -5.594390616995985333e-02 -3.294263244772347998e-01 3.799421117879548011e-03
8.944431614228740002e-03 2.215657342851922243e-02 8.575732191106633096e-03 4.164135987225620061e-01 -1.987522749305993264e-01 2.501031115552285883e-02
1.039191127089708448e-02 3.229212485606747229e-02 3.094675930394863439e-03 4.179943252027280565e-01 2.655228081557159045e-02 4.128985574424554050e-02
3.593642147029633450e-03 3.837341043896258519e-02 -1.521401855786276569e-02 2.026426786789167489e-01 5.666884997701537169e-02 4.278925220924126999e-02
-5.343357968918808652e-04 3.811789171339302618e-02 -9.629142058896186795e-03 7.622176361437686676e-02 -2.028688033866805473e-03 3.468687371044522350e-02
9.567466770313429528e-04 3.779797201788330507e-02 2.033257535512811298e-04 1.204214078859077858e-01 -5.491042496046516508e-02 1.872680379826547475e-02
4.461317024513470481e-03 2.439279982836836669e-02 8.104685325124677542e-03 1.919079988912537338e-01 -4.502996300480385686e-04 3.432778117972001830e-02
3.263627151629314421e-03 3.524317831107945387e-02 1.143154596067311179e-02 2.062951685284669934e-01 7.325422521052494390e-03 2.791347146220524156e-02
1.922083779866894473e-04 3.606799472088231123e-02 4.453257267028665201e-03 3.909685096579960106e-01 1.640413289430109889e-01 4.534431715368952148e-02
1.239242365152575139e-02 4.131833713033656458e-02 1.913349324695612363e-03 3.801004424683931404e-01 2.145676926956054942e-01 4.637111357107908532e-02
1.757944525464117183e-02 3.464734431616701971e-02 4.436270313928070141e-04 2.712797337550717502e-01 2.310240656503028955e-01 3.947200255870101510e-02
2.050935699833014020e-02 3.616290193793975094e-02 9.962564389136951970e-03 2.060565882601865240e-01 2.116905932578777849e-01 3.836540755528269897e-02
2.810558842609081967e-02 3.065719082599527648e-02 1.339798840959147141e-02 2.318149273093196572e-01 1.717590770829267866e-01 3.741891862367550253e-02
2.712288832939295166e-02 3.138022651563433102e-02 1.459539763193440365e-02 1.494094885133946671e-01 1.977104594177503671e-01 3.671206799572165197e-02
3.372572311319333577e-02 2.534989118508747946e-02 1.749288391479703053e-02 2.555015067167494824e-01 1.881576501410434643e-01 3.075209969574132715e-02
2.180387744213951526e-02 2.298684096885709668e-02 -4.158487029079144248e-03 3.683780135271027545e-01 4.251426794872530113e-02 3.462907386778361213e-02
2.727291625488043741e-02 2.080721210724244610e-02 9.275789130794714898e-03 3.645268643745456227e-01 1.406896220160231414e-01 2.138902879702729576e-02
2.146095354652361592e-02 1.939004161387209921e-02 -2.218896132861830628e-03 2.167764076871732948e-01 4.247876938623701415e-02 1.795534232546910566e-02
2.052978564618226920e-02 2.717217620751638182e-02 5.419256153092827377e-03 9.333297083579294995e-02 6.160451192176140400e-03 2.544154895352879198e-02
2.266835832598285486e-02 2.098526519817959721e-02 2.227569794116757151e-03 1.889526438105398332e-01 1.565348031584080368e-01 9.571164104450888971e-03
1.597070831474051156e-02 2.851639273309580433e-02 5.581143590274895150e-03 2.580307203737399746e-01 3.228515038093002915e-02 1.175173795268110929e-02
1.461378792006169137e-02 2.454441995922252220e-02 3.344675905238320146e-03 2.286108122711697499e-01 -8.714805344741810567e-02 1.349917622975005567e-02
1.377312436588856541e-02 2.730252074732887613e-02 -5.133149029827588361e-04 1.499431341048193533e-01 -2.322172710294677367e-01 1.340310095848688994e-02
8.365217671252131448e-03 3.074239322465963098e-02 -7.175061306585517329e-03 1.149575361956254871e-01 -4.156534710154639600e-01 4.008359344661772614e-03
1.592131268072129874e-02 3.560447329656662996e-02 3.098305642272564109e-03 1.011017009133117900e-01 -4.240265208075348902e-01 1.463759223843000452e-02
2.096395220207247431e-02 4.600850411320384775e-02 2.407027582293608248e-02 1.445152697966309296e-01 -4.614386347495238461e-01 -5.494701323932409381e-04
1.489811980886658095e-02 5.257758092387897902e-02 -1.089384925322163522e-02 4.087415815293182764e-02 -2.903064099010986832e-01 1.063729713689574863e-02
2.084166742497748845e-02 4.913198666834454192e-02 1.119385328260658063e-02 -7.913950335315982076e-02 -1.999950852828648873e-01 7.760966718138704104e-03
2.194076674669041480e-02 4.980882568018062118e-02 4.501445630100353590e-03 7.839388593650320480e-02 -2.459124597315988647e-01 3.335926491481404528e-03
1.835633963791545586e-02 4.132004036560821270e-02 -8.920927962715263781e-03 -1.853850768920907721e-01 -2.876165945709719951e-01 1.474804950732661784e-03
1.609549297926516145e-02 2.479271664914022705e-02 -4.720390270763985541e-03 -3.454318758958705438e-01 -2.583789269478897199e-01 1.374531237114015071e-02
1.869077735326633502e-02 1.815146548302313395e-02 -2.963550282740395891e-03 -3.379224148326506749e-01 -2.573446348879095957e-01 1.997237523250336780e-02
2.396641458316830023e-02 2.304121346911443269e-02 -1.218343961389954655e-02 -3.011126926485892530e-01 -2.782708850532695233e-01 2.135720394352605411e-02
2.214268679243433166e-02 2.883250055575515766e-02 -1.191674049143109926e-03 -8.057764064864171571e-02 -1.709145717492331629e-01 3.121536251284475968e-02
1.532737491290027745e-02 2.958491368489207102e-02 1.849373240079499325e-03 -6.531306331833616752e-02 -1.090333920597565537e-01 2.311960739536370740e-02
8.410574298965778003e-03 3.211578599715125826e-02 -8.202251611901703598e-03 -1.552420294403839274e-01 -8.742632008042615366e-02 3.926856298477913315e-02
8.443292051738346057e-03 3.883611376585129754e-02 -1.165389379387936353e-02 -2.454895517028073681e-01 -9.219691077683501990e-02 3.861358995446324133e-02
8.025499697125060977e-03 3.727617722025602931e-02 -4.863192097876140041e-03 -2.150861762907025354e-01 -1.690300370372253003e-01 4.911664870307497904e-02
1.724699769438875485e-02 2.519444190498492525e-02 -1.274235278112190173e-02 -3.049103653370612288e-01 -1.483692580611137013e-01 4.753212475242302865e-02
1.685994068612064328e-02 3.237899903510075422e-02 -5.973041963845474034e-03 -2.514946383480959891e-01 -1.908086206182978972e-01 6.141091458786326895e-02
1.503329886814167883e-02 2.735694043231330641e-02 -4.286218143133874170e-03 -1.810887169357599247e-01 -1.259307174641719762e-01 4.448173356370613285e-02
1.677776984511446939e-02 3.044438189666739611e-02 -8.490728741867806240e-03 -1.585742024959895524e-01 -1.089602107217900739e-01 3.835976809758542133e-02
1.755977161989114715e-02 3.118343585665567935e-02 2.026694185758931566e-03 -1.545543146290682401e-01 -4.396067546670513748e-02 3.633977438905770102e-02
1.641035370205186014e-02 2.680948602186928806e-02 5.385963139224181351e-04 -1.380057004279939825e-01 -3.158482326003599766e-02 3.363389910659118215e-02
1.910343266151788566e-02 3.817443132343028428e-02 -7.835929421545845264e-03 -9.843611040137587032e-02 -7.666596194791289176e-02 2.863913246100697335e-02
6.198895460500261460e-03 4.195909889949656774e-02 -1.736343110399163336e-03 -4.934467990223293660e-02 -4.300188857833175948e-02 1.144697777799189888e-02
2.130336795284303031e-02 4.843479928598148215e-02 -3.294617255592519056e-03 -4.280972560079111117e-02 -2.981091119042106330e-02 4.081172459042550597e-03
2.501133815469900462e-02 4.556515791776706570e-02 -4.998594467499062333e-03 -4.794910093822915553e-02 -2.748057536568701900e-02 -8.341071877025159342e-03
2.554002301823997748e-02 4.814912725013129058e-02 -6.156317285571435982e-03 -3.375676926645982540e-02 -3.004889197710803456e-02 -8.928567544121421699e-06
2.202801684009745437e-02 3.205704418530105904e-02 5.794141869796903821e-03 9.348892727005519293e-03 -8.338614071136943307e-02 -8.386998850430220712e-03
1.687940013642208470e-02 3.008990005067011669e-02 2.058163709667268360e-02 -1.362731265147033299e-01 4.113570286305528317e-03 -1.467016119150368371e-02
2.521713778631351835e-02 3.174890803546866203e-02 -4.222949804282893904e-03 1.890527617507060942e-01 5.291149301167687863e-02 -1.000449761228698782e-02
2.581588359449872236e-02 3.468172807209576186e-02 2.068371800740526067e-02 1.114165861615809376e-02 1.143047496684189424e-01 -1.234398361833050593e-02
1.194150599985445774e-02 4.256823612920925676e-02 -3.557655875670417966e-03 -7.179710951795875706e-02 1.104780327095436776e-01 -3.183589289073045919e-02
1.886508007308691087e-02 3.094345043486402061e-02 3.988268319579518772e-03 -5.499846950529924117e-02 1.496799273012362763e-01 -2.159567892603546369e-02
1.437501307223461484e-02 2.882092806898827950e-02 2.016559395614458960e-03 -1.975564958882461419e-02 1.609728889984685940e-01 -5.408740860709282915e-03
7.186172804229824448e-03 2.738478426312029174e-02 -7.159441190973975244e-03 -2.114635998085223970e-02 1.468027795984342965e-01 -1.544560446680467991e-02
1.508246651032895541e-02 3.169723789255654567e-02 -1.192910130418027570e-02 -9.559030042274134498e-02 4.235230346582832817e-02 -2.425271440503182219e-02
1.221596440283321226e-02 3.322082536901151129e-02 -2.655511985489095172e-02 1.793054352917799743e-01 1.306697891379066945e-01 5.158009770979015730e-04
2.783577525177826500e-02 3.310093633553528453e-02 1.395534885265642400e-02 -5.822279192748770760e-02 1.796676673914434086e-01 4.276940449185722814e-04
2.297079623021706582e-02 3.263669838941380547e-02 -1.067929386209781617e-02 -1.385973395606924785e-01 1.919985918344706000e-01 9.175173696070395776e-03
2.154221603512862515e-02 2.976381429745115700e-02 -4.315287186834382283e-03 -7.472960560582053713e-02 1.616696231548070406e-01 1.715256028013708786e-02
2.316046588445471593e-02 3.744670783580669737e-02 -7.037702600495659988e-03 -2.867666683303745842e-02 9.172535836703916978e-02 1.101097039711701996e-02
2.504201416102413980e-02 2.793502136302013911e-02 -3.795637572528987036e-03 2.322421619978703305e-02 -7.649053051867515766e-03 1.389291451515249978e-02
1.308912427043540903e-02 2.123944880053234979e-02 -1.399712797567176370e-03 7.271061951397186918e-02 -1.218752784790988336e-01 3.881663640164996487e-02
2.537091015765242583e-02 2.234216589431966757e-02 -4.262631991728466074e-03 -1.749956354152141791e-01 -1.965712332624439673e-01 2.222524985672285139e-02
1.636331144283215480e-02 2.119424618025159829e-02 1.191291110069214731e-03 -1.184406586164765268e-01 -2.956769182436351229e-01 2.117057968779220700e-02
1.344286403875074969e-02 1.456058744929065139e-02 -1.162223246978121016e-02 -4.229549983507870786e-02 -3.315013045164305061e-01 3.074328322162925287e-02
2.104451041855495697e-02 2.452023348240316841e-02 3.175091756150075217e-02 1.141168577032082576e-01 -6.924916980655766718e-02 1.188337631529088126e-02
9.341891086652639661e-03 2.624472858079049745e-02 -2.773702457533108734e-02 -1.847700090413264759e-02 -2.702875087501716012e-01 6.691079347478330608e-02
6.723673869298864986e-03 3.464163126256138842e-02 -5.288549838821722526e-02 2.875195550479323764e-02 -2.388240513741692883e-01 5.269511954373180124e-02
9.426352379352995886e-03 1.653623851542167233e-02 -7.486001944855007195e-02 -4.026857561771141625e-01 -2.974101238153545324e-01 2.085672432317048353e-02
1.285647291605640681e-02 1.453161356700513260e-02 -1.198344181732630132e-02 -7.348755582493096683e-02 -2.377040407247294762e-01 1.349278172778884061e-03
1.260318648653102223e-03 7.588213913983920134e-04 -3.717452586992492369e-03 9.740987433318513966e-02 -4.750843436395407182e-01 3.731752818476421346e-02
1.877402818003830187e-02 3.048297167360771928e-02 1.642010740039612227e-03 2.155400117861355214e-01 -5.068723848495783058e-01 1.534940771083821362e-02
1.980113770214005087e-02 3.735856539640904778e-02 -5.793554465312045210e-04 1.274306681367886607e-01 -5.968982486137488497e-01 1.832632777119894141e-02
1.526987689854713247e-02 4.036149429926901011e-02 -1.069267723260079739e-02 -4.350651735597256542e-02 -5.988091051523866115e-01 -6.408155429286975339e-03
2.468619192764241396e-02 3.215856749069258974e-02 -8.758884306852399160e-03 -1.142828583873535253e-01 -4.949734645445668102e-01 -1.381500654700754810e-02
3.259107428516185012e-02 2.764961289552680598e-02 -8.079752304466253365e-03 -1.427367858405684808e-01 -4.741368202201479698e-01 -1.478413859928567713e-02
3.177189291028709867e-02 1.353738982621700664e-02 -8.915664321385380342e-03 -7.333622378643359085e-02 -2.622305104336337678e-01 -2.208360625799082183e-02
3.442196462251146533e-02 2.237021890086549059e-02 -7.992594708526132297e-03 4.204462603692531164e-02 -1.991155400897166861e-01 -1.659273631899833151e-02
1.534881951250073422e-02 1.688833649858158953e-02 -3.302141814147119270e-03 3.578059204156527895e-02 -2.958453374800205093e-01 -2.386895246826744102e-02
1.569573464049192624e-02 8.309744811616911683e-03 -1.653042514776742467e-03 -8.119040060557347616e-02 -3.373629324413615627e-01 -1.270389635243254246e-02
1.204329287383883347e-02 1.229754987759810667e-02 -2.595420407510068417e-03 -2.651549697296219921e-01 -3.376096076681881497e-01 -2.353562031034994381e-02
1.229350584439529125e-02 2.706967842336157649e-03 -9.212032872541603412e-03 -3.979384070965033549e-01 -2.395382922757875732e-01 -3.514339407921800162e-02
6.121537527563311425e-03 1.424732906369587104e-02 -6.819025827725477829e-03 -4.290549315437517941e-01 -1.500295813338969053e-01 -3.080816874065303232e-02
7.981944336923859837e-03 6.588655417713893542e-03 -8.533424479511053651e-03 -4.096306565636014807e-01 -1.252506567236982837e-01 -2.591188553391328073e-02
1.938277976188760438e-03 -2.645397309074975535e-06 -1.057835319294823939e-02 -3.954041378576788057e-01 -9.006670512664669004e-02 -2.127165811920980060e-02
