-1.024013001926704983e-02 2.696114999415622632e-02 2.852734561790692958e-03 -8.171874160196689052e-02 2.821397039713233745e-01 6.312993329710264983e-04
-1.277947755852763129e-02 2.563885859929658159e-02 1.980111606286583115e-03 -8.253712284779435304e-02 2.798783998021950326e-01 -1.685273478268016142e-02
-6.010769013871587046e-03 2.364952612088373762e-02 -1.011481985777884507e-03 -8.861367791644075842e-02 2.864751431786517477e-01 -1.993944473089209746e-02
2.830771585354996834e-03 9.246009192841995322e-03 -3.185579258980497652e-03 -9.554954410944722920e-02 2.913176970303202884e-01 -1.776749784921450963e-03
4.836913149882921155e-03 1.503416646884133887e-02 -4.102492111931893559e-03 -9.293658124469791892e-02 3.126522681059298869e-01 1.269195792674369244e-02
-1.731851827858171822e-02 8.202165449444779113e-03 -7.810991644952858248e-04 -7.860111517749679422e-02 3.150409197267119432e-01 -4.313131762856844964e-02
-1.310713363774357321e-02 8.097811055794716835e-04 1.926742792971364304e-03 -7.178800138088055338e-02 3.015922541942645529e-01 -4.409606993844066708e-02
-3.951133685461797468e-03 2.239597132943517421e-02 4.218397985206623346e-03 -6.972629335139006457e-02 3.012569867377659083e-01 -2.389674021053738232e-02
6.135778649629063802e-03 2.423943795404733675e-02 5.475466586910865407e-03 -7.014125163989785861e-02 2.979388037021094005e-01 -2.010741350614664302e-02
2.919393692017822114e-03 1.082526201046574849e-02 7.000848238642082277e-03 -6.721734113955887824e-02 2.955292275219736364e-01 -2.083558080467717497e-02
-2.595004914058834846e-03 1.738154806333588875e-02 6.562574740699989029e-03 -6.752409162825159794e-02 2.894337887971228374e-01 -5.131619611905056597e-03
2.566594087810875925e-03 1.978346125849651457e-02 5.654204751861346967e-03 -7.267776911988631239e-02 2.832417079557288386e-01 -6.584979832315069649e-03
-7.668919952462817770e-04 3.536364168673927777e-02 4.817193801811309184e-03 -7.257425078712319289e-02 2.828033617717763959e-01 1.272861978240735076e-02
1.279530905284080589e-02 1.833740835064142857e-02 2.086565563826331404e-03 -8.035951052321826937e-02 2.844229103044263463e-01 5.570936195418835050e-03
5.547241349848484882e-03 1.546791756425423131e-02 2.389101010947997095e-03 -8.249947282743587407e-02 2.876017201245484323e-01 -2.201939121208652123e-02
4.050069311474882236e-03 2.426663912204526236e-02 1.537971444678487565e-03 -8.735455977118192217e-02 2.988892055321807906e-01 2.372621343317677517e-02
5.936641460062894345e-03 2.569170217511106830e-02 -3.272494047159096864e-03 -8.230553174390969895e-02 2.968427276017552852e-01 -3.212226954137761825e-02
-4.951607961838728686e-03 2.211340538535342543e-02 1.140455963648839832e-03 -8.507640867907072246e-02 2.967221516077982457e-01 -1.953622780605956261e-02
-4.501935778510206265e-03 3.353009485143474550e-02 6.068180845847093163e-04 -7.847789267460654472e-02 3.084997964548689686e-01 -1.554928578571373142e-02
-1.930202928243670429e-02 2.096343503667092573e-02 2.039336401309904678e-03 -7.727447894534761330e-02 3.059480014647472101e-01 -2.951257865249981918e-02
-2.976732186572305944e-03 3.186311521282444298e-02 1.549000014101908906e-03 -7.127492523898404375e-02 3.024986733344505185e-01 -2.806469190311471767e-02
1.717644903913697306e-03 1.811909622950468729e-02 4.304309976792736192e-03 -6.768829519990696153e-02 3.016997062632086335e-01 -9.463174749885490053e-03
-2.181896389688437778e-03 3.347133268252785315e-02 6.510125379418113534e-03 -6.730392438094970342e-02 3.018583117982075459e-01 -1.500850720881566000e-02
1.011723834342042119e-02 2.715123437147528435e-02 8.032529767128343545e-03 -6.345615983525870751e-02 3.005299616614965919e-01 1.635373475625437334e-02
1.283296441208597177e-02 2.217802264826981146e-02 5.240309192836606345e-03 -7.136542007221435835e-02 2.907075412734160258e-01 2.425393520405686506e-03
8.921568950310274429e-03 2.928906667865195657e-02 5.137636403532541696e-03 -6.828240268992699646e-02 2.865498636683390665e-01 2.694315585698525781e-03
2.156100090485199832e-03 3.420910119797517662e-02 4.693505888119370306e-03 -7.428126696159130515e-02 2.862123119234720181e-01 7.423000956376618435e-03
7.487667202031026391e-03 2.995407024136921559e-02 3.032907942689400116e-03 -7.652278348917826434e-02 2.797479229838737425e-01 4.199199932230042974e-03
8.014205456868246733e-04 2.722760553651221507e-02 7.932851900348536489e-04 -8.048483424893249083e-02 2.805275915566735057e-01 -2.064459816489232213e-02
-2.500076246596419447e-03 2.552452838343122893e-02 -7.359152657982204193e-04 -8.473498600973762562e-02 2.809948709410630685e-01 1.591749114021919886e-03
-4.774839114494882665e-03 3.819812097385339496e-03 -5.530491290526046155e-03 -9.815761374629221325e-02 2.898514869037014385e-01 -8.505209382270097207e-03
-7.526800028458206435e-03 -1.426905439662627716e-03 -1.741617001672718379e-03 -8.475214968716079933e-02 3.000928838318202563e-01 -1.941254487402922085e-02
-8.266295422520147235e-03 1.500569458875186321e-02 -1.227305990744081976e-03 -8.453565464535496565e-02 2.997280634082802875e-01 -2.605940765441145529e-02
4.129423212094381242e-03 3.240295627212040619e-02 1.449904653037681346e-03 -8.075114532566425585e-02 3.006580478611607932e-01 -1.962407426875729943e-02
-8.510808399788941450e-03 2.895108474219268424e-02 2.145290772348651398e-03 -7.156583181295811391e-02 3.012592245616179110e-01 -3.070809895246911711e-02
-1.202856274909780247e-02 1.741574043125615132e-02 3.796876873535026675e-03 -7.374517344130439300e-02 2.935779611372338893e-01 -3.519199924562996240e-02
-1.516973626953268921e-02 2.749728289450180732e-02 4.440014057981167550e-03 -6.905792537192939617e-02 2.900550975286588229e-01 -2.307556967936074191e-02
-1.974532616819253336e-02 2.145619121037477262e-02 5.415407632138075078e-03 -7.335119317093462266e-02 2.862774469497588736e-01 -6.354973580274028699e-02
-9.874086915888572250e-03 2.984613213014756031e-02 3.147524798507272958e-03 -7.579885295737806561e-02 2.808765232802334366e-01 -2.292006822355176915e-02
-3.763265162601021202e-03 2.538738472182791583e-02 2.141261277574191269e-03 -7.894739957533455921e-02 2.833021538717136467e-01 -2.716552494069694734e-02
-3.048094190714911722e-02 2.719727918415051904e-02 1.506698249713805948e-03 -7.662665588656107640e-02 2.771328464830773441e-01 -3.255638957623829127e-02
-7.058412707762614161e-03 1.251402144324278640e-02 8.814626428485239362e-04 -8.089699067620247097e-02 2.891371937096685052e-01 -1.913768674982557413e-02
9.357394902323487411e-04 1.750725531915652000e-02 -9.827043612049557453e-04 -8.204952484079061636e-02 2.885045608055892830e-01 -2.020766611367543972e-02
5.851667333613050880e-03 2.296231558086627919e-02 -4.693458340811196283e-04 -8.427148569800840816e-02 2.890972332200624217e-01 -2.223300179863573964e-02
4.338902018851855356e-03 2.725471036092707439e-02 -2.180989343564865290e-03 -8.188807949246104667e-02 2.989884823419501902e-01 9.026027476231693672e-03
7.280957669975257791e-03 3.510221761847444333e-02 2.343646734921128738e-03 -8.077218009392887754e-02 3.016188597791342740e-01 -9.386047713435860529e-03
9.927315456164067381e-03 3.283820515785918631e-02 2.685430878435313140e-03 -7.410596357899727760e-02 3.085726236279297541e-01 -5.357450450028761364e-03
-3.935417601347394705e-03 2.412233450466832671e-02 4.057810140189216375e-03 -7.569342396079579982e-02 3.046390381315403073e-01 -1.205808326307675031e-02
-3.098392889780338978e-03 2.192948255129279975e-02 3.766243014793058119e-03 -7.573697515456059848e-02 2.975975221405099402e-01 -1.155278578602239939e-02
-4.397439640283959915e-03 1.933887777708697547e-02 6.049241267324728666e-03 -7.319784510018020884e-02 2.975011511974041123e-01 -1.380624926154128823e-02
-1.189464057202797853e-02 2.421863630974436382e-02 6.147775624990137189e-03 -6.304690306744574479e-02 2.959158299342927179e-01 -1.822068020509978736e-02
-1.773045043431658229e-03 2.308254264964741329e-02 6.594969254528737501e-03 -6.485260285882871178e-02 2.931058006092958634e-01 -6.840032229959847401e-03
-7.852069325688368351e-03 2.096644090224021248e-02 5.986195412509554004e-03 -7.045606737892541604e-02 2.869981966431313092e-01 -1.028823459855284297e-02
5.533295469215960063e-03 2.268840494850053735e-02 5.096142328662262022e-03 -7.453608198518492378e-02 2.897306716774939450e-01 9.462598528866906014e-03
-1.307800985957090515e-03 2.253807144369325208e-02 2.938376523771518700e-03 -7.719826074268353044e-02 2.823573726010910612e-01 8.349586222602795559e-04
-8.545012297952018360e-03 2.180323136152542696e-02 2.512684341953341782e-03 -7.968852690226091440e-02 2.884275693180028965e-01 -2.980172686788917086e-02
6.541698235134356734e-03 1.514790929556186078e-02 -8.215558757763696818e-04 -8.296400191495426069e-02 2.781601648069697563e-01 2.910366413124755060e-04
-2.075007030269462524e-03 1.789757131326782935e-02 -3.625150198895837894e-03 -8.958814333659262386e-02 2.967998873362237555e-01 -2.344153280018062765e-02
-1.154464730276835369e-02 6.152025671194013764e-03 -7.202799541652982196e-03 -9.908702231094292101e-02 3.177888395381103792e-01 -1.967978943451930210e-02
-2.408644653767938459e-02 4.882911101748942800e-03 -2.809438458735158406e-04 -7.801024359994584989e-02 3.047384199554294404e-01 -5.585585956111963069e-02
-1.104283367043641315e-02 8.080248588517406627e-03 2.517035175313403483e-03 -7.656384126852362748e-02 3.007012840127665787e-01 -2.332647560707407086e-02
-6.852272629643083729e-03 1.853307159314565231e-02 3.941304892630698165e-03 -7.000008766120412174e-02 2.980021044084457671e-01 -3.050966518622767049e-02
6.959080161741593509e-03 2.520466318666580302e-02 4.190563385233297966e-03 -6.809563139253838049e-02 2.918180361104824594e-01 -1.394522836641598831e-02
-4.338680854011568635e-04 2.612463801085477752e-02 6.987117612772347774e-03 -7.136770028874837857e-02 2.881313987235663565e-01 -1.644906463973945174e-02
-1.923551549436039541e-03 1.432570967020231796e-02 5.296650864373364520e-03 -7.157614600498213298e-02 2.856495371596094457e-01 -2.640918503175441329e-02
-2.493542640462784654e-04 1.258656543474746987e-02 6.186846217275804305e-03 -8.986777023146426402e-02 2.861688116446634012e-01 -2.516836705320788653e-02
-5.618328741088040451e-03 1.031968536253398752e-02 1.399884447139593258e-03 -1.459607278354302651e-01 2.850380748596636482e-01 -2.801621884003232393e-02
2.632497438383096995e-04 1.118119183271107549e-02 -1.176573396882707456e-04 -1.927051353721353777e-01 2.850223278157187901e-01 -3.055374832897364903e-02
-1.213697460249486479e-02 1.514827213862373831e-02 -2.596425912324673568e-03 -2.007285060291852385e-01 2.852606373734266065e-01 -2.550860952571917112e-02
-2.426247590662098958e-03 1.848634723075935626e-02 -1.174468122697391870e-03 -2.010995787484068931e-01 2.941613147122290051e-01 -3.693381151065740914e-02
-2.256126859754826151e-04 1.766695227787298469e-02 -2.804748037218390833e-03 -1.986493558094779011e-01 3.018275586512637609e-01 -6.085305841310658520e-02
-7.262475931386068104e-03 2.195684133572449459e-02 -4.678659670105805857e-03 -2.027529150556147131e-01 3.036512987102347738e-01 -5.241869857722275539e-02
-9.031705786189761845e-03 3.570989222738039925e-02 -5.650133920838545931e-03 -2.333476112342813269e-01 2.984534883205778311e-01 -3.699689415214697102e-02
-8.016349399603200226e-03 3.253456560654066632e-02 -5.853056503171777392e-03 -2.997143453912524125e-01 2.985267607264418532e-01 -4.040946894256902677e-02
6.645590638551590124e-04 1.520912470341143075e-02 -6.910734794770598266e-03 -3.654472129164914040e-01 3.148128008900916153e-01 -3.768303373418919675e-03
-3.996487724561091203e-04 3.398692544326958193e-02 -1.959661356317005110e-03 -3.648949865454635400e-01 3.106661692456334500e-01 -4.238560991452015175e-02
-4.996625419482330147e-03 3.481440859006084548e-02 -1.916177432752380616e-03 -4.146505497603145685e-01 3.043326810760467183e-01 -3.090598926663255808e-02
-5.062663078615027047e-03 3.585636494972670174e-02 -1.358128125739210823e-03 -4.951306574291369778e-01 2.953489679979361404e-01 -3.094196384804579966e-02
7.890448740781482589e-03 2.870423006656582995e-02 1.090464798140125535e-02 -4.841017080219561786e-01 3.303987632040507605e-01 -1.155369568531230441e-02
2.913015462651778135e-03 1.877647272341140608e-02 1.035920519158695097e-02 -5.214105234429549096e-01 3.220746250462250271e-01 -2.725544454341627051e-02
9.829902142483760638e-03 1.691094153393996741e-02 6.499938270513927474e-03 -5.319395391818194652e-01 3.187480105241275452e-01 -2.755997506818461465e-02
-7.017008755355685912e-03 1.758622531556756907e-02 2.718650196088329141e-03 -5.364401949950166060e-01 2.993428049442815597e-01 -2.759817631595424051e-02
-2.510266013417386272e-03 3.078911890530396447e-02 -7.057956705970314104e-04 -5.420565677664850313e-01 2.818126973925591527e-01 -1.661044042643693847e-02
3.172479447066388434e-03 2.218404339256511287e-02 -3.061924688905259817e-03 -5.380511865655084325e-01 2.672963906899326614e-01 -2.868524204900425867e-02
1.581960629565162899e-03 2.039311938999121068e-02 -5.477627451512645518e-03 -5.277960832702641714e-01 2.636459625097927195e-01 -2.066429344566070997e-02
-1.048534061210232814e-02 2.073609444164000587e-02 -1.327172366413681415e-02 -5.271308812568288316e-01 2.947519121407145559e-01 -2.414734322332680316e-02
-2.797814513397551932e-03 1.606248843438746327e-02 2.283712410167532125e-03 -5.545267616964686397e-01 3.582188147047030702e-01 -4.357545290388996351e-02
5.240088836340990770e-03 3.091309276965076638e-02 -1.133862018009385020e-03 -5.674258383715227172e-01 3.647788014613173591e-01 -2.802593650897796523e-02
8.314554308334822993e-03 3.416562781988857073e-02 -2.067688530895200882e-03 -5.356086264152049026e-01 3.963756106087794051e-01 -2.698215033428398232e-02
1.915826370825940775e-02 4.064563210904223456e-02 -7.458548318450400338e-03 -5.136709083245296625e-01 3.960726802223675236e-01 -4.900191883068445720e-02
1.183469772276591302e-02 4.267662979684868491e-02 -5.444821708754488121e-03 -5.129972680874975710e-01 3.862742520385851752e-01 -4.367438322207168461e-02
5.034239980956095248e-03 2.902221497744301645e-02 -5.940134630885288147e-03 -6.067904904463381488e-01 2.817467264843109831e-01 -4.888133906462796552e-02
1.127950997399518665e-02 2.341405738331728617e-03 -6.830458222106053356e-03 -5.717523846020114986e-01 2.943574083155651167e-01 -1.400385081464220784e-02
7.146425157397214706e-03 1.484769911221962141e-02 -1.112158603788680755e-02 -5.638900795002368405e-01 3.200729100414486661e-01 -3.313044338900747454e-02
3.320032786951922568e-03 1.708062416024954885e-02 -7.134715636802069216e-04 -6.301629768376558749e-01 2.404410302013632594e-01 2.642066868537665952e-02
1.582761792261243999e-02 2.598756621600769104e-02 -6.448051429530365919e-03 -6.185677159446516526e-01 2.617219278064973342e-01 2.674444956273897347e-02
-1.009362750804287424e-02 3.573106822129788751e-02 -1.372551158609930377e-02 -6.481445234452424264e-01 2.625325954921824967e-01 -1.666389195506902052e-02
8.354994322832315704e-03 2.956569347596253380e-02 -8.305812071693896570e-03 -6.559886303822889397e-01 1.870836450861868838e-01 -1.342516051203306027e-02
1.333651768054492856e-02 3.842042530184231613e-02 -1.446137619451282053e-02 -6.766181587472853698e-01 1.316991403976677522e-01 -1.399921503412760240e-02
9.448286048255675681e-03 4.196673453108466789e-02 -1.781824718564546661e-02 -7.135611481616003227e-01 1.332833837508066999e-01 -5.250647315376210170e-03
-9.354239992602621061e-04 2.301433986953032793e-02 -1.022303717118921984e-03 -6.872291151987430791e-01 1.678501297332693765e-01 -4.427417304521568536e-02
7.302373886218144032e-03 -5.894424096930208322e-03 -6.343495528834258712e-03 -7.191334462035244846e-01 1.668764564933299943e-01 -8.282317351354328422e-03
-4.380874852833118241e-03 7.827312818446631112e-03 -1.079891947564827481e-02 -7.288497170737688879e-01 1.341336369835424147e-01 -8.932278577668959635e-03
7.730266100584605275e-03 -1.617820632564531333e-02 -1.522134411700043488e-03 -6.897960302642125452e-01 1.927795949990028512e-01 2.767671846120108373e-02
9.074580758203389455e-03 8.802404621198500409e-03 -1.074198698050501943e-02 -6.882868040125387221e-01 1.424698680101531278e-01 2.681492595089984832e-02
1.246396195252522966e-02 2.869629944464035382e-02 -3.420155119487650053e-03 -5.597819962637430313e-01 1.955764204176021204e-01 5.509867045776398881e-02
1.431862092103963757e-02 2.565738115909422731e-02 -6.721815950227208458e-03 -5.792707815555516726e-01 1.339835635297430272e-01 5.118778227039750411e-02
2.195330614053997778e-02 1.945189009233949315e-02 2.526288784185204417e-03 -5.502552462652271492e-01 2.274670169757321558e-01 1.388319687696902213e-02
2.370962621492889513e-02 5.202645515743149242e-03 -1.828801555439907300e-04 -5.805549471993184385e-01 1.585239716825516676e-01 5.635243468948163137e-02
3.167453571223359174e-03 6.352652025709296102e-03 2.050763503242625241e-03 -5.569864888466823372e-01 2.377015705508010446e-01 4.544334325067496405e-02
5.717404396193571589e-03 3.019759018674736568e-03 -5.480760134392137495e-03 -5.014470256790409808e-01 1.109782072753197346e-01 1.460955053196183115e-02
-9.107619332353419266e-04 8.115485669785626674e-03 -6.596493759095836684e-03 -4.654727042700870787e-01 1.724041067460624077e-01 -1.678223062522291378e-02
-9.527453252555116107e-04 -7.960630982656060478e-03 -1.266407101860476947e-02 -4.410871677388010781e-01 2.832586248716456589e-01 1.238725924213575878e-02
5.738208300780873149e-03 2.998635831635040709e-03 -5.633380332293810855e-03 -5.758883402640762039e-01 3.121957400686618533e-01 2.104576133755707828e-03
-3.942054924962956446e-03 1.260288939009715677e-02 -2.841321875224651905e-02 -7.210829083066083722e-01 2.825124760383522227e-01 -2.978551499553922064e-04
9.348864800141097608e-03 1.887597048715463147e-02 -3.725987258923003920e-02 -6.260081507133588019e-01 1.331615996650754030e-01 -1.222995436094476878e-03
2.200503639059771255e-02 2.137987283499019620e-02 -6.393515108937736224e-03 -7.047875166271139191e-01 9.752087691202170061e-02 -2.171324876646533498e-04
1.863949336015803537e-02 2.207791685941049367e-02 -4.323962494568484027e-03 -5.961692825367592707e-01 1.558929937262452381e-01 -1.077778048640449897e-03
1.203729713331372873e-02 2.984126582907577901e-02 -1.999741211274576325e-02 -6.968685202439184323e-01 2.609664073255202332e-01 -8.327599903512271709e-03
1.060274544761326786e-02 3.864812588580093800e-02 -1.288084366771539979e-02 -7.004957474737947276e-01 1.664005676456201122e-01 -2.065833466874108723e-02
1.537551886744764444e-02 3.040603353962145761e-02 -3.391201231611123967e-02 -9.532908455988006180e-01 3.741741823696125707e-02 -5.868774203844700880e-03
3.640104133268985166e-03 1.001020159477071167e-02 -2.737271845267193193e-02 -8.321772042026858163e-01 1.371033537039439143e-01 1.089923794979164549e-02
-3.509545741070852886e-03 1.649332727115034730e-02 -3.256487908719934987e-03 -7.156553623545438558e-01 8.078561553894046676e-02 -2.964103049897752820e-02
2.074318617161847664e-02 1.702918293035914424e-02 -1.605460467584324258e-02 -5.528220766824005761e-01 1.071027921900560426e-01 2.109482341717991774e-02
1.207575819657376662e-02 4.333923349436857864e-02 -3.608267865491648907e-03 -5.058631722251726304e-01 1.338319780788127245e-01 -7.655989302586189808e-03
9.105924203619953847e-03 3.318990640327473818e-02 -3.164571885780342875e-05 -7.149325859584622078e-01 8.367009033315643551e-02 -2.474225014049133073e-02
2.099119144406393772e-02 5.850311733762052907e-02 -6.204854126098433009e-03 -7.746274751511081913e-01 6.192860401194928005e-02 -8.310354591453714829e-03
1.253635834919672974e-02 5.124404364714031657e-02 -9.299019392070159706e-03 -6.561843335596561078e-01 5.546911877659409934e-02 6.001950566097339831e-03
7.735385458416278032e-03 4.794949766666060237e-02 -1.687718393716491905e-02 -5.805562167593162348e-01 1.402240981738349934e-01 3.931864804410305919e-02
2.582625346120468596e-02 3.797928479295932525e-02 7.054456940565057010e-04 -3.119293949343043826e-01 1.629400703633415992e-01 3.751408033686725457e-02
2.156347588242829225e-02 3.806341937737948988e-02 -1.350860618045900130e-02 -3.242453297387298261e-01 1.736312459238053552e-01 3.262029259153068073e-02
2.775863661221087547e-02 2.056387813976933571e-02 -7.394188055989667219e-03 -5.330591229306121948e-01 8.947958762951467582e-02 -1.184138155776425557e-03
3.897953503913206830e-02 2.523777324064691366e-02 6.659281920887910600e-03 -7.215468764629483500e-01 8.125228869969375323e-02 3.281811009823251517e-03
2.065427261496833103e-02 2.966065366033473691e-02 -9.796911545983083558e-03 -7.223611873744628653e-01 8.244952805854824374e-02 -1.658329512937613964e-02
2.066452861785464737e-02 3.468100636732322078e-02 -2.992434781965856716e-02 -9.930458657819136725e-01 5.746876379332509915e-02 -1.844273668180870449e-02
1.231930961455516074e-02 3.783875209059307104e-02 5.116758104266816432e-03 -6.446819322647874273e-01 2.045222248745173499e-01 -2.185756243030508375e-02
2.078175694103174057e-02 3.703990579432332036e-02 3.949369552764259161e-03 -5.066561565190110805e-01 -3.315758708575396174e-02 1.600502489006068799e-02
2.411072200264818485e-02 4.013908168554874110e-03 -7.102027755441220336e-04 -6.036004555250390480e-01 1.110461489115077520e-02 -1.310813131533559474e-02
4.557199402650575354e-02 -1.235796021523972305e-02 -7.746349525554488413e-03 -6.760153712752040578e-01 -9.600970705208851375e-02 -3.645482118338429917e-02
2.928181828700223560e-02 7.027970690746883006e-03 -2.788625036801559154e-02 -6.871574055763933764e-01 -4.676901106442879485e-02 -2.009372131736067088e-02
3.068320010592082148e-02 6.340815006447642413e-03 -2.941755803798064284e-02 -6.739897143953857972e-01 -2.338621973645846341e-01 -5.219999346429976539e-02
1.363164239584791979e-02 -2.356353344285893464e-02 -7.180626682278368200e-03 -7.970883555985582847e-01 1.637194962297535139e-01 -1.992547821253656121e-02
1.708357849257536795e-02 -2.075091928790006104e-02 -5.492908780767052912e-03 -6.852254506367662090e-01 9.907465539729949644e-02 -3.837895485745796906e-03
2.903692536989055037e-02 6.678828686396348982e-03 -1.821544520121737287e-02 -6.837001752359623818e-01 1.166670898801124567e-01 -2.054141107890709514e-02
7.159270988395399944e-03 3.341653690613600319e-02 1.643963370874806929e-02 -3.639963889275845688e-01 -1.604371710823430594e-02 -6.102867104308381911e-03
1.694896959930581801e-02 2.969452105875278886e-02 3.153109611959636904e-03 -5.695238569404543760e-01 -1.150996399609900966e-01 -1.002737379262026024e-02
1.400714291318125998e-02 2.007911665270546014e-02 -1.161179813943785666e-03 -8.872674926522415850e-01 5.180345409598863249e-02 -4.940562308870223573e-02
6.773068799658516631e-03 1.754180119573627711e-02 -1.409635553520660611e-02 -1.091782218226703183e+00 1.969445822557991110e-01 -7.381756388173234262e-02
1.303683534648270720e-02 1.906936054679937362e-02 -9.186950637183388668e-03 -8.278410639202230525e-01 2.248910487678586895e-02 -7.988181578349769218e-02
1.220304300701096668e-02 2.321174359292511175e-02 -1.053440957824518243e-02 -5.610374738078095502e-01 8.413647287089637272e-02 -5.329363705770247955e-02
1.925494388594363449e-02 3.068802121891571824e-02 -1.422511544882321122e-03 -5.852812820572746988e-01 -1.070354581108927533e-01 -2.036701492411925260e-02
3.298770050716019753e-02 4.676776515515974897e-02 -3.608654336290290088e-03 -9.275319866931809321e-01 -1.773454987961833040e-01 -9.438005414343232646e-02
3.767260472745749544e-02 5.223487103818109240e-02 -5.932006727495761633e-03 -7.006485527684853665e-01 1.334394078442971976e-01 -8.947602382151596812e-02
4.955616776240712174e-02 5.165091997534623780e-02 1.188269482304410429e-03 -5.251696279182874738e-01 2.096010039690739679e-01 -8.357665146676654389e-02
3.743765088859355578e-02 3.558323541783484784e-02 -3.032224172390102224e-03 -4.992000721034104416e-01 1.744531875849290592e-01 -4.130709280320424281e-02
3.282083925703693783e-02 5.359542632718803691e-03 -5.889457263265535092e-03 -6.287767671495751998e-01 4.553744890546688323e-02 -4.406298428355267388e-02
1.921957518418749775e-02 8.853047873232468279e-03 -1.166466527031950751e-04 -5.714581821373976300e-01 3.177218210700334666e-02 -1.236763235288419228e-02
1.560859880696526154e-02 1.565168454872106416e-02 -7.801692074818442069e-03 -5.814923059974682618e-01 1.935873808287250780e-02 -1.886695320703847545e-02
1.828408999683392780e-02 -3.941586294462127819e-03 -9.112234245690492562e-03 -5.515815882683854365e-01 8.403836526955719977e-02 -2.516364240029085597e-02
2.206888418673716087e-02 9.965406621273355248e-03 -4.223481338430562504e-03 -4.915944520674004892e-01 7.794529681438894242e-02 -1.865404718783060523e-02
2.886050224195570515e-02 1.469051626404223321e-02 -3.062446483878905612e-03 -5.756975471065696182e-01 -5.191155023065276847e-02 -1.508352879067035267e-02
3.877536234402469140e-02 2.609259563607717325e-02 4.079550035112233797e-03 -5.082929462012055755e-01 7.222022045011483940e-03 -3.051441408956425544e-02
3.216575183675773192e-02 9.910811685340772254e-03 4.819246480631061980e-03 -3.417609845471145658e-01 -2.227445394699012482e-01 -2.573143729223056897e-02
3.128271701530938032e-02 1.751372846771393280e-02 -1.239110664833575903e-02 -4.547226777357532002e-01 -1.208662676743079561e-01 -6.004327368347952242e-03
2.440868449691459274e-02 2.880059240579331201e-02 -1.074422938594832289e-02 -5.021777100433291174e-01 3.573319404652200437e-02 -4.982166039534264429e-03
3.025010310932080282e-02 2.976095448720040074e-02 -7.307143452931708083e-03 -5.771384791763550792e-01 -1.016560675550600562e-01 -3.995053342074050655e-03
3.126565295763000796e-02 1.827065173280346261e-02 -5.997845059262943423e-03 -4.987561616725338376e-01 3.491796952724893210e-02 -1.744875914043273607e-02
2.427258802697287304e-02 1.025285164962782235e-02 -8.074175430516278285e-03 -3.738035753507785719e-01 -7.658941260517161502e-03 -2.295090838097724878e-02
1.317673926481475154e-02 2.715710632986736289e-02 -1.035287642914911599e-03 -3.112683135627306585e-01 -1.896291319206999323e-02 -2.435118787278459096e-02
1.557667604932346135e-02 1.409063021760649341e-02 -5.616657291349400061e-03 -3.791886112770920803e-01 -8.587099854291047052e-02 -4.638490686373061833e-02
1.943701784247309564e-02 -6.229488730814594644e-03 -7.869884288645101478e-03 -3.238182683604907131e-01 -4.244626398529688371e-02 -4.641167079566715231e-02
2.679761320930322890e-02 -3.416705815380904421e-04 1.626777766215614651e-03 -2.906469595160969255e-01 -1.674436456535644546e-01 -4.305195034555850397e-02
2.887159591492339042e-02 -1.606803474742185198e-03 -1.329919797293538375e-02 -3.419382223016521061e-01 -2.798881299136663989e-02 -4.689673248151338819e-02
2.961726696953526430e-02 1.243646131976957302e-02 -2.554737488459885020e-03 -1.787466363745576214e-01 -5.581707648763402363e-02 -1.790902686730385177e-02
1.472595854811130194e-02 2.173601474039402529e-02 3.932138732211931664e-03 -1.543161742368096001e-01 -1.205029299007980524e-02 5.846781960678143486e-03
2.758880337419949633e-02 3.201309084362734952e-02 -4.980776021298261025e-03 -1.688635259201623218e-01 -5.911553585001441680e-02 -1.077798901257922583e-02
3.105950924101113370e-02 3.598228037628104642e-02 -4.952544928413071812e-03 -1.250253850293757130e-01 -3.740094595700334951e-02 -4.587371396080704850e-02
2.311684225450307342e-02 3.196525350407079802e-02 -3.259960262104649731e-03 -1.827691489369217756e-02 3.916135015148890924e-02 -1.358036414527731203e-02
2.259154943770018756e-02 1.910670488717537696e-02 -3.815981364997000913e-03 -1.146206239529339727e-01 -1.027797496342059413e-01 -3.268529382926674970e-02
2.440853453726824634e-02 3.426440630671764159e-02 -8.645912805520794553e-04 -1.341867479354884318e-01 1.976560686371321707e-02 -8.220104022635449370e-02
3.334992671803221898e-02 1.956089599640833607e-02 3.459837200946391800e-03 -3.696546254967466444e-02 -2.318103452895527248e-03 -6.552771707201669737e-02
4.080390589978566407e-02 4.440627668794150384e-02 3.296594414439718568e-03 -1.000661005324198910e-01 6.494227703349267355e-02 -6.220036011084650179e-02
3.070652787179449159e-02 8.598181038328011217e-04 -1.176680026009069291e-03 -1.102659158819522534e-01 3.067707501565208232e-04 -4.858009558095772312e-02
3.333623769622246630e-02 1.845828068222831256e-02 6.651729752752300051e-03 -6.449534317421978802e-02 7.080384750881674183e-02 -6.373421158767059169e-02
3.203860559321228263e-02 2.566917751035184200e-02 1.633426270308951933e-02 6.898115971424506609e-01 1.066527312012610085e-01 -7.300063265685180491e-02
2.468245209245056512e-02 3.272051200700652751e-02 1.715877313268529547e-02 6.791122802868465591e-01 -4.414776800627765591e-02 -7.763561958882236880e-02
7.058250363906760916e-03 2.213799973573093299e-02 8.897614020859506700e-03 5.505104724586971088e-01 7.003695316474242705e-02 -7.344158828325325628e-02
-6.462237654201730130e-03 7.137798181772708750e-02 1.506137398901041813e-02 7.627682152569768004e-01 1.006367499010525461e-02 -8.011015519902627002e-02
1.339896886437340340e-02 5.428020029611266978e-02 1.059629301242562271e-02 6.770880932143419351e-01 -1.532294198726916190e-02 -8.096213042267177973e-02
1.535550586315236922e-02 3.205782574715190097e-02 4.929534845945493515e-03 6.706664334922530779e-01 6.266302656405423055e-02 -2.279305261783080849e-02
1.693208521318477836e-02 2.118782105768489410e-02 2.540700290461300748e-03 6.470328131278512140e-01 7.050210813201158999e-02 -4.366700200410626731e-02
2.188710610158738079e-02 4.548305121963764491e-03 1.848425573172080005e-03 4.765679215634950339e-01 1.455628184396319524e-02 -2.588927695236473495e-02
1.032097989824154460e-02 -2.651873984381760210e-02 5.158724421458871223e-03 5.913845961735969547e-01 1.226833397368247286e-01 -3.179472970822059402e-02
8.104979371322330092e-04 -3.044737536859517049e-02 8.057398852216041130e-03 5.805285887402130696e-01 -4.072263669364693112e-02 2.285049841281011369e-03
6.254793714031653927e-03 -4.084110614018347796e-02 8.574021035327478168e-03 6.504055967927223625e-01 5.414456342741969137e-03 -6.006814697317662891e-03
1.789721508510731980e-03 -8.947239352862318418e-03 2.032359828095381404e-03 7.549407907440291998e-01 6.963110045221186650e-02 -2.218117747726227468e-02
-3.107050547000880878e-03 -1.453809807697855998e-02 6.681260158902774249e-03 6.127535780256320175e-01 -7.872247753088890132e-02 -4.529551912069813141e-02
3.693408610655912142e-03 7.875140225153922507e-03 1.345524717553928107e-02 5.530256295566681191e-01 -1.021850583094545233e-02 -8.814983855089797773e-03
3.146332238292113854e-03 2.119526181709305984e-02 4.772234797054908384e-03 6.988864086205782700e-01 3.861725768632951611e-02 -7.986365364351075830e-03
2.706181328453390999e-03 1.420618054106070720e-02 8.136244262370723179e-03 7.227028374707969993e-01 1.024390051445620564e-01 -1.667039037204574858e-02
1.022857067950222291e-02 3.178997717566502818e-02 9.527929742797369705e-03 6.356853061098005631e-01 -6.629029204395894825e-02 5.863142478143621925e-03
1.234545173526387096e-02 9.890582999381947182e-03 1.392455010816640026e-03 7.213745210496255167e-01 2.229962125524126079e-02 2.745535856752366957e-02
-1.392656551184868726e-03 -7.282055645141933750e-03 -1.773083692173493819e-03 6.552999825731991024e-01 -5.197495557606546246e-02 -5.625649389393404601e-03
-5.704713269147583055e-04 1.163787064715835450e-02 2.717276519063893669e-04 5.970261177771136740e-01 -1.728303653334992487e-03 4.311685405744741838e-04
-6.437951603527125762e-03 -1.727112110185172449e-03 2.930427690560871712e-03 6.395335629484336648e-01 -1.570633852292382254e-02 1.603386033883642120e-02
-2.024060266329044157e-03 2.626990373960979078e-02 -4.109479061022158763e-04 6.957854891778920692e-01 -2.725640619977517248e-02 9.289225930113893803e-03
-3.362345038474141932e-03 1.102840294023141668e-02 -7.889466610656092893e-03 5.973749181051581925e-01 -4.478150406369554165e-02 -1.401347777327455538e-02
8.602930626891680879e-03 1.799664598847242405e-02 1.498084927815446221e-03 5.862980045330022927e-01 -6.135910574014807883e-02 1.038074042202754427e-02
5.248040175356723756e-03 2.146017434046425601e-02 1.772559215188485027e-04 5.701051277654900495e-01 -8.697735593120529962e-02 -2.582953429335766923e-02
7.529235529416490255e-04 2.272137982877542317e-02 2.871174423983741120e-03 6.037970080646738458e-01 -7.391035198641426884e-02 -1.603953827842915028e-02
-5.202673110256916984e-03 1.767400127711696300e-02 -7.568129110758214928e-04 5.646743277488147639e-01 -1.011875189785153423e-01 -3.286204870630994959e-04
-1.120723089602984786e-02 2.008555897478893695e-02 5.957909941673444898e-03 7.452299938925643907e-01 -3.737876632984017677e-02 -8.141525677972594665e-04
-1.975250546322068410e-02 2.324561622269369007e-02 5.586310267322536216e-03 6.356433731469343096e-01 -3.706749841223917763e-02 3.808939606425614487e-03
5.181171022113816894e-03 2.634942438948612020e-02 3.361944697190422104e-03 5.410870253147000986e-01 -4.941350721961181025e-02 -7.864884479283931057e-03
-6.862127782336861943e-03 1.906369132229362301e-02 7.701212882416763605e-03 5.892618488996327342e-01 -1.041719518771091618e-01 -3.019698422768904542e-04
-4.821987778998985561e-04 1.723107189616690862e-02 1.538129328856469025e-03 4.606116281441394178e-01 -9.477176335420732511e-02 -1.894768453400954384e-03
2.253221999856520625e-03 2.078171467602026729e-02 4.099719210815866433e-03 5.030950808809292463e-01 -2.203469211156195914e-02 -7.469918773597435764e-04
9.213866582407300582e-03 2.492584984135758422e-02 2.255914815651877126e-03 4.336214905851882295e-01 -9.572622876864601837e-02 -1.612395675723222316e-02
1.423318628196192960e-02 1.513163989068089590e-02 1.410103139024065921e-03 4.360439157459707893e-01 -6.322919661082054832e-02 -1.063483722531601700e-02
1.359608395588292155e-02 1.260498705995563920e-02 3.524129815125148779e-03 4.832357800488423782e-01 -1.464436522127259277e-01 1.138444801494035291e-02
9.456719209816780852e-03 5.425261885944247450e-03 -1.072838837182260585e-03 4.744534898309822890e-01 -8.356198723198662859e-02 -6.682286998780330098e-03
1.273308278036049644e-02 1.046968997243093863e-02 -3.402743954467601917e-04 4.811160050033636559e-01 -1.228665856225617803e-01 1.529461526026608745e-02
8.967482948020922759e-03 3.756341811353573756e-02 3.561589446281210325e-04 4.728987745044586077e-01 -1.212761918776156800e-01 1.037978002495232310e-02
7.436225883719055699e-03 1.545383351586639142e-02 3.438529638416509826e-04 5.303471630905627343e-01 1.856395996034158544e-02 5.239003361333884577e-03
1.170737228280748117e-02 1.044652375937869804e-02 6.858366264271553714e-04 5.163041236033103498e-01 -4.490313623466856384e-03 2.129288205665608169e-02
2.074534922003021253e-02 2.333220072997401265e-02 2.815524009035508257e-04 5.163255397505228661e-01 -1.997824810526843686e-02 4.958729354024902537e-03
1.155554200365061131e-02 1.704686801259490403e-02 3.376670415681293225e-03 5.262291083604364594e-01 5.715131510695163619e-02 4.772826609769054672e-03
6.982161113775080252e-03 1.997454620114820847e-02 4.164686268028849891e-03 4.795311877733464123e-01 5.109677441164595102e-02 -2.878862520921684001e-02
1.371309428317628309e-02 2.532968262506894372e-02 7.002474529563817995e-03 4.969032658538817260e-01 1.105174738221659930e-01 2.547596198127752981e-02
1.882884785935319549e-02 2.663652581341554096e-02 1.149390008663042639e-03 4.337045257638392215e-01 7.986451809797322221e-02 -2.437286204002769635e-04
1.599872619831985490e-02 2.618930814171011728e-02 3.203457682865840095e-03 3.770591020108293723e-01 7.260414718695998304e-02 -1.195402914256465769e-02
1.086849243240839598e-02 1.849979460595806841e-02 -3.705006158810641992e-04 3.960065942135215789e-01 2.331202963968157134e-03 -2.272658637088132913e-02
9.916679398435313680e-03 1.286795166567488921e-02 -3.906304747138017452e-03 3.568397376804670063e-01 4.600862022606925367e-02 -3.093377227015701308e-02
1.529998696260713442e-02 2.575710143082591760e-02 -2.059757046026677862e-03 3.968328868242763652e-01 1.729046976409378059e-02 -1.310147435578558166e-02
7.772943438080781760e-03 1.592409695435704001e-02 -4.828492143555851435e-03 4.147560640201613524e-01 1.491621390892420608e-02 -2.078158134926623782e-02
1.278526558366369428e-02 1.981482501537169816e-02 9.178957460340142482e-05 3.776175656999086749e-01 4.157685981458616314e-02 -5.274680046218914453e-03
1.447493218333390126e-02 1.646550263271267037e-02 -2.460591283980489985e-03 3.861539453071123340e-01 9.798613897885569135e-02 -7.181846190723342911e-03
2.881559700253596111e-03 2.836537203427109965e-02 -2.766147393676865462e-03 3.735840549903151064e-01 7.206617315164530468e-02 -4.499941004133494252e-03
3.591570425609721603e-03 2.983555343747022054e-02 -7.126680175313093724e-04 3.304588455147250414e-01 3.084004062966144016e-02 -3.167145641903719444e-02
-1.836036847040905607e-03 2.183808116113628711e-02 9.710070008102728023e-03 3.247348325276591119e-01 -6.451624726641382035e-02 -2.959452757232377065e-02
-5.607387332023903298e-03 8.218800930107166697e-03 7.101848530883581034e-03 3.082330741667277385e-01 -2.414439346518891180e-02 -2.707798473944537238e-02
9.610202324538151541e-03 1.668799975950286188e-02 7.619375678884487968e-03 3.108371414678397504e-01 -2.536174257518928124e-02 1.174116191858019277e-02
7.119203791482637406e-03 2.567209468448272344e-02 8.719219454587756601e-03 3.306664438087414948e-01 -7.728346140520005181e-02 4.310840321219685210e-03
1.223287636666221291e-02 1.820994001015760130e-02 6.929264906994997419e-03 3.174260561053197094e-01 -8.607724631198640855e-03 -6.329878732332110472e-03
1.876555383388144385e-02 4.573894149601638592e-03 5.822704514194337877e-03 3.263350513155283683e-01 -5.383065264523087534e-02 -1.061877086557978149e-03
2.057282997710760050e-02 2.701643887542513195e-02 9.475570811523587045e-03 3.139743796032752887e-01 -4.626653639069984100e-03 -2.916540500364511387e-02
2.385465974881071510e-02 2.726214078081650935e-02 4.524422181358206396e-03 2.367779266845642105e-01 5.638846144906093510e-02 -4.290863135199648321e-02
2.344400981676172946e-02 1.557356819579230715e-02 -9.507274504128859771e-04 2.604611491759565300e-01 5.637720619740076156e-02 -3.798775312248078850e-02
8.147638813105373412e-03 3.932922589611158662e-03 -1.736909345771364688e-03 1.568122561988432584e-01 2.784154264503886644e-02 -5.099151690827521954e-02
9.171523714768992259e-04 1.937025358923133087e-02 -1.432094050152210585e-06 1.789247329268920106e-01 2.711816517335270335e-02 -6.028586296452852905e-02
6.152638275443215315e-03 1.763137603093646241e-02 -4.608241307681254506e-03 2.006598275534256792e-01 3.795993835406514388e-02 -5.030066555290963609e-02
8.266159648697268131e-03 -8.116355979376193436e-03 1.873225178471937813e-03 1.908173966800730814e-01 1.391631624259619289e-02 -3.247557963152005595e-02
2.128038135091729101e-03 -2.623101245061786480e-03 -3.281149969464131066e-03 1.461992660977523562e-01 2.924623750183026963e-02 -4.550746501077160278e-02
-2.319763837199226037e-03 1.019566364706366631e-03 -8.274849853869253868e-03 6.564239034180147092e-02 3.857595038048015901e-02 -3.122181166143248032e-02
1.018980949227123178e-02 -5.934339811653674239e-03 -3.659473737765206458e-03 4.382509976427590576e-02 -5.648222721467806989e-03 -1.136205642948978807e-02
1.937577262580275888e-03 1.452107988298378081e-02 -1.572567897617699328e-03 3.359673728520103791e-02 -2.052483661939350640e-02 -1.364918445690621075e-02
1.074262926230649257e-02 2.102134683502638809e-02 2.483736850821399722e-03 3.364356503180054251e-03 -4.802223355605136912e-02 -3.832827173677874621e-02
1.108986952609467350e-02 1.806358127382186318e-02 -4.249972806330687414e-03 -3.013914360386357044e-02 -3.123728642898787600e-02 -5.219260285384591525e-02
9.712449686640121232e-03 1.774164610555096361e-02 -3.972648956361013450e-03 -3.064857013392162724e-02 -7.170846842576453217e-02 -5.880734352644273466e-02
7.315829607504981472e-03 2.632782228257823237e-02 1.648768589775251314e-03 -3.528745946441307069e-02 -4.115205663678718484e-02 -5.427791616569613981e-02
5.913187154096551795e-03 3.565130889183645846e-02 -1.117039530067953645e-02 -1.179397278945324284e-01 -4.350236087920256178e-02 -8.674114543948296951e-02
2.083029134432046181e-02 2.360364865129719117e-02 -7.710553979863504770e-03 -1.105510206086116332e-01 -7.593336754932659971e-02 -5.704673803382707270e-02
3.619591828398589783e-02 1.030119173719322261e-02 -6.197553721920850966e-03 -1.314674701952460445e-01 -1.595432959858032393e-02 -4.128304048102720419e-02
2.430753115431230280e-02 -2.006290335360161672e-02 -1.575822849224348121e-02 -1.755658097169052745e-01 -3.999480556155216027e-02 -3.584449550901315507e-02
3.579124686483806800e-02 -2.799031371152067415e-03 -2.606530815836752280e-02 -3.233776214660416537e-01 -6.104142214226319918e-02 -9.814910435115337464e-03
1.738223951896645733e-02 -2.995323309118693572e-03 -8.807857874770633200e-03 -2.383166852023922144e-01 -5.649213661005202808e-02 -4.532073098470645878e-02
5.015854978690025001e-03 -3.943309776579960804e-03 -1.144575762587154988e-02 -2.239462671663596527e-01 1.129372541883858286e-02 -5.205547100764781887e-02
-5.433393592304080577e-05 -8.637306436035951246e-03 -3.083914979283980395e-03 -2.404734193961358402e-01 4.708821636860028442e-02 -3.119086872373574501e-02
2.917887327326245187e-03 -3.156228791859024690e-02 -1.237284522571435730e-02 -2.274402685703612592e-01 5.056985475659487445e-02 -4.387684553625209594e-02
4.389790013340061879e-03 -8.293861722744908654e-03 -1.301553368681018785e-02 -4.233569033333823284e-01 -1.096124060321306166e-02 -5.266451488682442200e-02
1.174351665162928771e-02 3.412814346989567413e-03 -4.118335256779959153e-03 -3.357281923086382625e-01 -4.115794860196480415e-02 -5.404826744923513226e-02
1.071706870896019410e-02 4.602487241697578342e-03 9.424989324739480034e-03 -2.023564204271220413e-01 2.854917709619541125e-02 -4.183416096465183281e-02
9.217809805168938886e-03 -2.797248271736028566e-02 6.181052440455053754e-03 -1.359454769832265930e-01 8.792361713357541020e-02 -5.632778970116425477e-02
5.918012624188686253e-04 -5.534800146586852515e-02 -7.610038795529516786e-03 -6.380344459670747592e-02 2.033334724686381711e-01 -5.331082753801073132e-02
5.570713313599900962e-03 -2.582549040839879351e-02 -6.940765582052685345e-03 -1.910239091348437113e-01 1.050333636447702418e-01 -7.276445796310299086e-02
-6.603186571359402103e-03 -3.433464372896127825e-02 -1.237477171810524856e-03 -2.736052009198633450e-01 7.478757095405106498e-03 -6.566978492437409998e-02
-1.068570290909139076e-02 6.640742438727790034e-03 3.823710144328251737e-03 -2.245821943981151647e-01 -4.339301311583152604e-02 -7.731499048350307102e-02
-6.838500096835513527e-03 -1.619654478496394129e-02 3.414212150202877716e-03 -1.511223762159897288e-01 1.612557229710265272e-02 -3.984910858475173429e-02
7.918199720650850523e-03 1.323436787039352497e-02 1.302935178760539214e-03 -1.054344063755123656e-01 8.980750177349781926e-02 -2.187547476544395280e-03
-2.200164769849175081e-04 1.451792319876251194e-02 -6.203582936644247425e-03 -8.475937601536108479e-02 7.861392268122976978e-02 -3.475591003283849678e-02
1.224994306569512047e-02 1.123106550168496975e-02 -4.612605127251895309e-03 -1.663726061452868721e-01 9.485309865174960942e-02 -2.697608948480427829e-02
-1.845393338607761319e-04 1.803693428281083130e-02 -8.343164369384606371e-03 -1.877898696129923217e-01 6.848153644799123696e-02 -4.003085632132324934e-02
1.128065027983212593e-02 1.390762264111730130e-02 -4.112837390897350343e-03 -1.399522585533019003e-01 -5.974287408227164226e-02 -2.777662742178587871e-02
-1.042657792756847149e-03 1.648031553579015762e-02 2.555981839983484383e-03 -1.276838463960383030e-01 -7.782466397769294275e-02 -4.521460657808152456e-02
-4.597997886150658430e-03 -5.527004607731608385e-03 3.997391536812833213e-03 -1.214856705281080751e-01 -5.837386580313392442e-02 -4.807572990734684110e-02
2.215174038337966445e-02 -1.093362160569825818e-02 -4.256988200047467918e-03 -1.456928495841466609e-01 6.467596461698550681e-02 -3.865493215978304392e-02
-1.174793275777383933e-02 3.786788229861716600e-03 -4.572316809136528493e-03 -1.849599323296756137e-01 1.284295387994676685e-01 -7.764799246896128548e-02
-6.977368084226926066e-03 2.057518410598166425e-02 -1.154853043266969304e-02 -5.650136204057171901e-02 1.543005719651018570e-01 -5.043404489259487727e-02
8.648556299657698563e-04 3.104966914863712540e-02 3.936607014713433550e-04 -3.973619079519351283e-02 2.039171591085527646e-01 -5.695901256968622511e-02
3.597372642220403750e-03 5.401396488765624476e-02 -6.424157349304765452e-03 -1.091761785258228562e-01 2.786702712538602356e-01 -4.247297733255792768e-02
-1.816119253644994658e-02 -1.092981060673740151e-02 -1.262825589379729108e-02 -1.459717994072030067e-01 2.996027250179603696e-01 -4.616663855003978745e-02
8.429104687921498392e-05 5.060136575218566329e-02 -1.997089467428742049e-03 -1.218903137702457146e-01 1.680860044874149251e-01 2.563293739501353724e-03
5.425460986790183425e-03 6.328903862604158548e-02 -1.513558589193039761e-02 -4.293176606776748228e-02 1.004788499224941456e-01 -4.919436299697053927e-02
3.886159243621966925e-03 6.077923476213058923e-02 -1.199008253742858687e-02 -3.965836024571369606e-02 4.725474351632050207e-02 -6.177782686374456989e-02
-1.153539153304372969e-02 2.881387379437169369e-02 -3.710047031676266815e-03 -1.246611634920107153e-01 9.925502279108260051e-02 -5.509545357705610685e-02
9.423529656728483594e-04 2.987687971988702007e-02 -3.121104615915110125e-03 -2.302248722454044716e-01 1.144977062417828761e-01 -6.846021323192376384e-02
6.379628870054698461e-03 8.660227302764091084e-03 -5.379099930175074151e-03 -1.817735547299863252e-01 1.233948202668520705e-01 -4.671369124366094722e-02
8.371864827968863304e-03 7.064584735476084169e-03 6.312205654549041256e-03 -1.130745243861289995e-01 1.601193869034611417e-01 -1.909465903864223171e-02
-2.763115915208318001e-03 -1.310907330261782723e-02 3.073734247617809778e-04 -1.336223956999937623e-01 1.421018042028503736e-01 -5.551783413088719199e-02
1.234379368412331533e-03 -1.744700557201742455e-02 -7.020721774697757933e-03 -1.837041948948073544e-01 1.302554929592962818e-01 -5.457675036601500329e-02
2.130454387132065669e-02 -3.541209536184870832e-02 -1.955421551967376215e-02 -1.813637972086453720e-01 7.104587373723905697e-02 -3.685545838982667161e-02
4.432521051844547783e-03 -8.237339802616179887e-03 -2.279575529100283382e-02 -2.289521349609386636e-01 7.747217515908894070e-02 -4.812190945270451714e-02
-1.601787141052075231e-02 8.952683883326054137e-03 -1.277971374894515399e-02 -2.767137795856540183e-01 9.085466059953177520e-02 -1.384503926428211872e-02
1.512512896590671903e-02 1.759468104362714360e-03 -6.448047071406795561e-03 -1.849775474249089335e-01 1.389780564533787122e-01 -7.906051974467972338e-03
-2.955193686536665421e-02 2.547207926854328300e-02 -1.783287819225651272e-02 -1.255497821860167285e-01 1.365009339854808823e-01 -7.690407200426689627e-02
4.504635107013332872e-04 1.611679401648185780e-02 -1.148653759868469015e-02 -1.517120609171216383e-01 1.604822763482567083e-01 -7.202393700423694034e-02
6.720123538186129931e-03 -2.767994043323319833e-04 -7.411448453203864362e-03 -2.108163962322573692e-01 8.450007309804821731e-02 -2.661362033063099930e-02
1.416638596880900186e-02 1.414562686474366178e-02 -6.510967027579556143e-03 -2.505062606667822211e-01 1.765678416460586542e-02 -2.116756262883220593e-02
2.843778329076983649e-02 -2.564519593811558432e-03 -1.136077874272017896e-02 -2.251462934183578180e-01 -3.321620580137428502e-02 -5.464835383168427374e-02
-6.551427951274088439e-03 1.383666019832193762e-02 -4.324742594277147800e-03 -1.068353349945464353e-01 -3.796962602530176700e-02 -4.344907086438186405e-02
3.487161500111023160e-02 7.570891853021816977e-03 -4.296182453122299183e-03 -8.964295884520284696e-02 4.007735688712891348e-02 -3.184667622239021473e-02
3.222021917338043634e-02 -2.802909059953787724e-02 6.435945004431758987e-03 -1.559042541179413988e-01 4.445573896108114681e-02 -3.998916657481799142e-02
2.923607639396215430e-02 -1.400883391037323344e-02 -1.223364805162555080e-02 -1.560951782477097982e-01 2.362820626103973726e-02 -4.489425872631586795e-02
3.762611230550085700e-02 -1.336274088714238702e-02 -1.629833406333718038e-02 -1.141891088959302025e-01 -8.783189731058961905e-03 -1.153148984718082790e-02
