5.559678200875935866e-02 2.616843083135267367e-02 -3.334609549516570626e-02 1.200100615626818919e-02 5.827528987765420165e-01 -1.742616115487690201e-02
7.579643655878745556e-02 2.710490699459916497e-02 -4.427429174911939880e-02 -3.572412048797472123e-02 4.446786937296560160e-01 -1.619576031265661242e-02
9.792971657228227711e-02 2.607307625635993387e-02 -4.774892688828047405e-02 -2.681231236318518812e-02 3.947520570496891312e-01 -2.098161079291697290e-02
1.218179293333387092e-01 2.687431453942640269e-02 -4.794994711886069183e-02 8.747792166883294404e-03 3.647111357953897182e-01 -1.242773262415188852e-02
1.378407469542095865e-01 3.525354175361616882e-02 -6.318870052571246010e-02 1.219430140502773124e-02 3.551927890201664884e-01 -6.105356705535114857e-03
1.613725179421768019e-01 2.757929223929438123e-02 -6.931847722494383079e-02 2.517554855189342231e-02 2.873429412886316370e-01 -1.707614123038403344e-03
1.888299577702818033e-01 2.936691476392772060e-02 -7.330655564851118466e-02 3.712711755247832812e-02 2.905489254919260689e-01 -1.371815034343685721e-02
2.052831742454712116e-01 3.067511795802640995e-02 -7.239669491468955775e-02 5.540147953639291967e-02 2.299114282898535588e-01 -5.787218054522062435e-03
2.241473948391878024e-01 3.011144528134925696e-02 -9.169052031138003045e-02 1.108760401952849431e-02 3.123906579861690513e-01 -3.623453191687460613e-03
-1.332112568925995499e-01 2.243439448393051011e-02 6.769165572768881534e-02 -3.207016934996602120e-01 2.091834843758234863e-01 3.042395930573461860e-03
-1.163784760751472858e-01 2.432034965792987530e-02 6.965264019923811389e-02 -3.961877713656852262e-01 3.135662310338735992e-01 8.257496152805894260e-03
-1.002831370417868184e-01 2.609901536374279254e-02 7.458715230409979080e-02 -4.070771798250987228e-01 3.185460540073768998e-01 6.810360308192100857e-03
-7.862790335119557161e-02 2.735784084355560170e-02 4.224606087108784269e-02 -3.156075520817739344e-01 4.157979559722642104e-01 7.163697912589098160e-03
-6.415250733802674299e-02 2.683450815355326036e-02 3.283613263347523459e-02 -2.490954915708816220e-01 3.230380767526018770e-01 9.337037821448630759e-03
-4.461610938140062044e-02 2.302738792322301525e-02 9.846765149596148348e-03 -1.460272211324887548e-01 2.905823929949021833e-01 3.275928124172719849e-03
-2.524381889495684941e-02 2.261063817715573340e-02 3.385622653176489916e-03 -1.228765855115449002e-01 2.194443676368346696e-01 2.298761363612208779e-03
-6.537286766547609901e-03 2.328503664685904403e-02 2.039163250801279137e-03 -8.009912531620828890e-02 1.952536662560472314e-01 -3.511042718002451140e-03
1.641679726309749898e-02 2.452456515479757918e-02 -1.950946964640565273e-02 -4.446900052496798039e-02 1.317176615470502243e-01 2.170854279898216856e-03
4.062387039544415601e-02 2.441915583433791961e-02 -1.907401864449886908e-02 -7.534781729728537436e-02 1.800628459555461691e-01 3.642318838809731167e-03
6.450909414061142821e-02 2.335504431271229545e-02 -3.637041780302713301e-02 -1.161313724955697346e-01 1.269072173404029447e-01 -5.571546151450921386e-03
8.617515849452779542e-02 2.467253602491461389e-02 -4.493026450892251278e-02 -9.155070654077467063e-02 1.112010611994103254e-01 5.525579619491553839e-04
1.045331719119981656e-01 2.503729235230120129e-02 -4.215678775486925156e-02 2.196850886812862919e-03 5.564099726206981483e-02 -1.472573755798949058e-03
1.210183747255166586e-01 2.047212276849019047e-02 -4.863694346427255288e-02 2.041982427912851158e-02 6.261183979658910270e-02 9.336599043511037768e-03
1.437376212994725400e-01 2.179579751565662721e-02 -6.469009446935675145e-02 -3.227609601374765991e-02 -2.782996338978309392e-02 5.386649948631055951e-03
1.658120103557993164e-01 2.229486823759580655e-02 -7.872038837996436778e-02 -9.977926854490586084e-02 -1.000600135968417320e-01 -1.410257151925544891e-03
1.872922256925705076e-01 2.359658130141073160e-02 -9.983706943131143152e-02 -1.960780424109340447e-01 -1.881341059643766855e-01 1.140975194999655547e-03
2.098166070054833798e-01 2.213168508131128226e-02 -1.220843673003393914e-01 -2.797225336019508735e-01 -2.197546145779229743e-01 -1.097676055558024773e-04
-1.585979528916167391e-01 2.346163990527267568e-02 1.350072176034341487e-01 -7.178229711443677719e-01 1.398172629643980591e-01 -2.873996266590600479e-02
-1.390896065280003424e-01 2.338230812172386111e-02 7.872847119541642735e-02 -3.983843621560267945e-01 3.200843570660963366e-02 -2.307522678104872646e-02
-1.184319236460179003e-01 2.257997205555856493e-02 4.114012097520536315e-02 -9.026148614768196576e-02 -5.889178334622868771e-02 -1.801170205468180172e-02
-9.801939977924489789e-02 2.585221800953594121e-02 1.849598575780331267e-02 -2.114509775860344901e-02 -4.794033627355554633e-02 -8.958095839321514320e-03
-7.105344814814265608e-02 2.013373283428140578e-02 2.046014085310926545e-02 -8.295523717431053934e-02 -1.106910936254652672e-01 -7.412733538582655379e-03
-5.288049016120501683e-02 2.335830513670734965e-02 -3.628110082985913643e-03 -3.320988499100654273e-02 -2.046759880169050083e-01 -6.944496405173925316e-03
-3.071238987982525051e-02 2.504018425122415958e-02 -9.259849483873594522e-03 1.757700265972054771e-03 -2.060132508263350648e-01 -1.805138499983334217e-03
-7.008652194725715351e-03 2.716935250509469602e-02 -1.720873524184624026e-02 -9.374059482869739890e-02 -1.624799424145993709e-01 -3.758973478024262189e-03
1.608203559530207993e-02 2.436622080577564159e-02 -6.587513916105680600e-03 -8.453734544855351363e-02 -1.693220408772703189e-01 -3.209217021122966976e-03
3.622686664645147908e-02 2.384510072951311760e-02 -2.280342106242988498e-02 -4.360357523787571771e-02 -1.080007461312487149e-01 1.520895113803575748e-04
5.809054729637429249e-02 2.561449347366118873e-02 -3.557728605091348140e-02 -1.521100596363192670e-01 1.746569273666835967e-02 -4.256341144774157363e-03
7.873501214767102130e-02 2.713448683878753875e-02 -5.361306296615597766e-02 -5.155424454950270352e-01 1.295087939316526271e-01 -8.776827046595662291e-03
9.713412159745017649e-02 3.204116124765230694e-02 -7.399587218015013512e-02 -8.329672831204470995e-01 4.114997653358046792e-01 -1.448310841177639224e-02
1.206503784152288122e-01 3.359551214094787241e-02 -9.454069215903448953e-02 -9.018743502286733493e-01 5.828622459428874913e-01 -2.382607683245178271e-02
1.383693980157172099e-01 3.506778587116128609e-02 -8.288784933892423545e-02 -6.342414056030593050e-01 4.932167847899067148e-01 -1.446124164754678323e-02
1.567867395724303059e-01 2.958991077858873567e-02 -3.459362562219764348e-02 -1.136000737491684037e-01 5.708753200786816917e-01 -4.966810103646970669e-03
1.815438229163977013e-01 2.251983350747361473e-02 -4.108482306756311431e-03 1.998198359531402346e-01 5.506577055383312658e-01 5.731909793402730977e-03
2.062985527445523604e-01 2.630514462335917236e-02 -1.702149263489943776e-02 1.064367641991338376e-01 4.232271474689599522e-01 -4.297847726266098081e-03
-1.483627146395734009e-01 1.915153540738585153e-02 4.235483899085373816e-02 1.187567924946139053e-01 -7.249048116759033988e-02 1.350070435530780280e-02
-1.252005398099772515e-01 2.207061120229675266e-02 4.026336219734444333e-02 1.971775319007025573e-01 -1.490115082476507931e-02 6.598169510944659928e-03
-1.007745188302566763e-01 1.713776624824189798e-02 -8.509930930615527966e-03 4.178475364774018042e-01 4.664846547043568700e-03 9.942082328620994655e-03
-8.264301130687924657e-02 1.412109352149162021e-02 -1.860322358200067194e-02 4.953137876482388569e-01 8.629994149933541137e-02 3.851977636366176686e-03
-6.070221400803721412e-02 1.352293523548594306e-02 -7.705678452180120264e-03 3.182015217686795516e-01 7.172133625336354901e-02 -3.415251934949431467e-03
-3.727725677893274636e-02 1.548168392719926310e-02 -1.423007900782258250e-03 8.480242276984127636e-02 8.520408444441088247e-02 -5.111851293791818719e-03
-1.653838219242816793e-02 1.594023018029551431e-02 -1.054429904638720661e-03 -3.006141528983169268e-03 8.832181393043423909e-03 -8.043649722364791185e-03
5.392264382259134847e-03 1.887567227648830753e-02 -5.864809035934781534e-03 6.018512894616476899e-02 -3.594508052304458347e-04 -1.555221106201812396e-03
2.795691660494942221e-02 2.154451629187543321e-02 -8.625665984578534395e-03 1.587959310533011703e-01 -3.629096650241436794e-02 -4.474760408229105403e-03
4.484009165469142466e-02 2.105141847977602329e-02 -1.799039733622553872e-02 2.364063383792615325e-01 4.115151572696147675e-02 4.403137521473745805e-03
6.483153760875186300e-02 1.793415763009743868e-02 -1.717695304675809220e-02 2.850232777061995071e-01 1.061652747514177236e-01 1.031844962895401251e-02
8.275586362597553425e-02 1.939431270107078165e-02 -2.616408261825320380e-02 2.985213851660219464e-01 1.682526071730063022e-01 1.122184620882868758e-02
1.037056410165506093e-01 2.195407798073250802e-02 -3.158443569576452337e-02 2.551528752438395609e-01 1.332746655399861535e-01 1.124266206215796676e-02
1.264248324784424948e-01 2.324539054616339348e-02 -4.116183206779466808e-02 1.875594252429060582e-01 5.804305602727208996e-02 1.660593571798109694e-02
1.470080201342445214e-01 1.988059207098093195e-02 -7.475541199238086576e-02 3.776212278963065466e-02 -3.381363006502637047e-02 2.281595158406396831e-02
1.685218802761018209e-01 2.297598387793062247e-02 -8.123637969205310672e-02 -2.262132471536021719e-02 -9.082401962594424671e-02 2.710236260848664092e-02
1.890691544712158889e-01 2.368738030653411153e-02 -8.144926890234072125e-02 1.131654028379348170e-01 -2.200245348998956796e-02 2.839233151476368636e-02
2.134595401260687419e-01 1.969051157898878829e-02 -5.590970051239174676e-02 2.524520495073058202e-01 -6.292411095210458105e-02 2.950236916750496874e-02
-1.641270509934172617e-01 2.318428497281813452e-02 5.695878802922160755e-03 2.700478757194720858e-01 3.121771467656823673e-01 3.260932917619335791e-02
-1.459222556461191034e-01 2.679593416136783271e-02 1.436944204324946961e-02 1.657314207723892541e-01 2.388100803285022611e-01 2.861270151997536912e-02
-1.243266744302800042e-01 2.663321145892726116e-02 5.724188244477623755e-03 1.886051178883657309e-01 8.667500823311689861e-02 3.776342993700602252e-02
-1.000368833746458630e-01 2.362263935415890789e-02 -2.197825592344870849e-02 3.210193882810342125e-01 1.840111513227183845e-02 3.524882460787279875e-02
-8.079674551877821798e-02 2.372317617048427807e-02 -1.200489534711168815e-02 2.817946213226245056e-01 -6.626236001437915690e-02 2.882401356221317434e-02
-5.816836171311536713e-02 2.083623358853450847e-02 -6.959444067699438463e-03 1.079384810781640752e-01 -3.147794270454937204e-02 2.541661551538988012e-02
-3.197422002655165435e-02 2.423940509472870611e-02 -7.924479384484428568e-03 2.412103816577277834e-02 -1.102961154100222108e-01 2.878094064368220614e-02
-1.193000332808960041e-02 2.061111924694576658e-02 -1.435707569452554511e-02 -4.753956443299147544e-02 -1.529606123048357913e-01 2.116458908721144047e-02
1.235489513427431157e-02 2.260846043374287184e-02 -1.796257385598953871e-02 -1.024413121292150619e-01 -1.758409467099514012e-01 1.777565028030947403e-02
3.583473637005422929e-02 2.655361061781624094e-02 -2.181667264847442222e-02 -1.152399004532441706e-01 -2.419417716469156598e-01 1.748707162338452789e-02
5.854027214624972497e-02 2.185257268577483342e-02 -1.887133679463431912e-02 8.766698076611567636e-02 -2.930437578024909784e-01 1.398834174357482980e-02
7.949610494490685908e-02 2.040908681224921917e-02 -3.103026774546868705e-02 3.360145849004246288e-01 -3.930172321864239260e-01 2.119908225982984964e-02
1.065114469089869648e-01 1.881546691836540747e-02 -3.526803177499182596e-02 2.424599121243840305e-01 -4.284441871980886885e-01 1.910467618603137879e-02
1.260701455691634054e-01 2.254143096964962220e-02 -7.953967662605129774e-02 -1.080656185601150121e-01 -4.338687188640268921e-01 1.407322448888729746e-02
1.524011738015342288e-01 1.775505495672338729e-02 -8.432135734563050988e-02 -1.594813719006529518e-01 -3.933615283209577207e-01 1.200667201735875801e-02
1.730468596982845386e-01 1.751176707542752634e-02 -5.454582444947581044e-02 1.767138312879970585e-01 -1.903203908151496204e-01 7.843853867299164367e-03
1.929843643650749896e-01 1.434364799143994160e-02 -5.434909486433936454e-03 4.607774175137855366e-01 1.528256771007138193e-01 1.528252430776698770e-02
2.110728754281076258e-01 1.299904463490269071e-02 -3.627664483492942793e-03 5.123629640579959732e-01 4.905263154853179430e-01 2.169922615525223322e-02
-1.604713469669157289e-01 2.870910839137312542e-02 5.274463709985727222e-02 -3.327360773622607959e-01 4.189963792897758582e-02 -1.420643812002152576e-02
-1.364380110916646183e-01 3.110216934740251890e-02 4.347451839692534348e-02 -4.268859081810638112e-01 -1.468918999403106933e-02 -8.421511607908967537e-03
-1.184439371579574796e-01 2.798318430049675024e-02 9.873392376374307000e-02 -1.252083800250015921e-01 -7.203111893088952611e-01 -1.511259682975763310e-02
-9.102159655211350398e-02 2.671522393352759872e-02 -2.668098246611960711e-03 2.125692319732965241e-01 -8.126457458357698727e-01 -3.376230993744233633e-03
-6.340012112091544805e-02 2.033899126322775627e-02 -9.297909265581494331e-03 1.392805138082104655e-01 -1.069422175810453624e+00 1.880040574559827329e-02
-4.437670079957971303e-02 3.028417908710258691e-02 9.746075375276885833e-03 -2.782538188796219725e-01 -7.550934710361429936e-01 3.369613807359006941e-03
-2.062849694599452541e-02 3.390573478286475206e-02 3.006074549747106417e-03 -7.241936729104340165e-01 -2.327684015303229936e-01 -1.480220781183025011e-02
2.338809811576678110e-03 3.391133516703834228e-02 1.460312911170896788e-02 -5.688770149618085359e-01 3.901153960141200139e-02 -1.502974219021232898e-02
2.235148733547741989e-02 2.456575601436931239e-02 -2.867229665444981368e-02 3.099295886679237153e-03 2.392616890622312753e-01 5.560672570642427419e-03
4.430412955207794351e-02 2.913926539505189844e-02 -1.284445855091248534e-02 3.315802372284760158e-01 2.135204250381175783e-01 8.345556025170296904e-03
6.606781708317638335e-02 2.798712413233601579e-02 -2.563882807766604266e-02 1.650764836265658508e-01 9.941811850765344682e-02 4.173629634706224958e-03
8.628376809950730197e-02 3.544432813362105583e-02 -1.999198080218417273e-02 -2.320131181080498269e-03 -9.605833679986169882e-02 7.652202636199167442e-04
1.067285545968183619e-01 3.607187548424252432e-02 -3.793827299200563941e-02 2.656074723690676417e-02 -2.373497835604159445e-01 4.719697192509161518e-03
1.278455800330071390e-01 3.832455353885391020e-02 -2.560327373144538621e-02 1.634878068324290279e-01 -2.800570562283289378e-01 -7.512500269590149764e-03
1.570744701503958562e-01 3.375557398259620284e-02 -2.623000939166136858e-02 2.837861062433025827e-01 -3.839248259527044960e-01 -5.274190399992510249e-03
1.732905683773679761e-01 3.254500243072097621e-02 -1.863965834785114017e-02 3.847333522995803334e-01 -4.860910469034241399e-01 -9.991500211514636048e-03
1.999057187490463350e-01 3.680749541938850566e-02 -7.598679414853870551e-03 4.889132624368556779e-01 -5.892145682634128967e-01 -9.914075342166183899e-03
2.286388783920510759e-01 4.344417740168906444e-02 -7.736252320144410000e-03 5.273498999565696677e-01 -6.845093822217883650e-01 -2.034200313367397900e-02
-1.478646788148339219e-01 3.283038746986229051e-02 2.146048331897970618e-02 3.480598306020162847e-01 -1.973974160441134273e-01 8.550916685352556376e-03
-1.229324571547975864e-01 2.745062430986176111e-02 2.383237342926541880e-02 2.909201928044658492e-01 -8.528876947376087814e-02 1.212646377837854270e-03
-1.008652581365361151e-01 2.837422455332244686e-02 4.155370529951468717e-02 1.703198203269815081e-01 6.030417700915778612e-02 -2.363796039803298717e-03
-7.962671413351916916e-02 3.244614317838409590e-02 3.830380872405753090e-02 8.884726263818328029e-02 4.103758975143508708e-02 -1.102223851831717928e-02
-5.300266823986503339e-02 3.673865366487129303e-02 2.666325408394182306e-02 1.255458033798755313e-01 1.862913256023066844e-01 -3.996931539262336616e-03
-3.244118419212195514e-02 3.293665193088711474e-02 8.758250426671609912e-03 3.600046499628299368e-01 2.346306558934944386e-01 2.700973018383964232e-03
-1.827774113987862270e-02 2.880722575375482819e-02 -9.683383165626224809e-04 5.925548697387531538e-01 2.527421731678572425e-01 5.337609168486242422e-03
1.134175684213075200e-02 3.786196467229722973e-02 2.115359692939350333e-02 4.963517151000126360e-01 3.571368607386235516e-01 8.773301716630524730e-03
2.851848142718367216e-02 3.976965191242803899e-02 -1.052775809232853188e-03 1.228921859552908058e-01 4.216715745599873277e-01 -7.973602402457816846e-03
5.454198859080275352e-02 4.021252227204385327e-02 -1.887835997472847582e-02 -1.070962423617797254e-01 4.188371366021156894e-01 -2.968914996026051582e-03
7.171542754788523544e-02 4.331412991994144229e-02 -2.593623875161588099e-02 8.274710564336582030e-03 4.161953980908382755e-01 -4.459651719577796027e-04
9.322363091179314276e-02 3.906491342483441043e-02 -2.019860510068860471e-03 3.438399914216232478e-01 2.252537148448170989e-01 1.514154462261715385e-02
1.185281960189812078e-01 3.822858520345621264e-02 1.784078092827046103e-02 6.106585039928249525e-01 -4.261163421863792267e-02 2.778061282894488462e-02
1.488244119972714496e-01 3.960752432033024656e-02 2.325297991456665159e-02 6.264759678440441348e-01 -4.201622732510942870e-01 1.943763063038787819e-02
1.711776169850365847e-01 4.224864625420353403e-02 -4.997186956304283667e-02 2.062340710012800504e-01 -5.118647108076418428e-01 1.652464965218747306e-02
1.972797862309631500e-01 4.272702796241183154e-02 -1.690569512065777935e-01 -4.601549430457850809e-01 -4.082071746458281747e-01 1.063677790062970453e-02
2.313954781848227837e-01 4.352287913329551394e-02 -2.264266333395418551e-01 -7.533684261219746325e-01 -3.839254421799510042e-01 -8.906720958654345058e-03
-1.551803185762933857e-01 4.666486769836267201e-02 7.458955777491427241e-02 -2.405264065158596865e-01 4.640172101529504989e-02 2.991308945008247684e-03
-1.282013982100046190e-01 4.065463096212051236e-02 4.795296725831560414e-02 -1.184435973983274520e-01 2.161669076397731426e-01 1.817380540229370303e-02
-1.102001649474706052e-01 4.432520796809612251e-02 4.396999557995584507e-02 -1.177235174652451477e-01 3.016769667585454395e-01 7.526957277737187334e-03
-8.622815487263406353e-02 4.395404701528278502e-02 4.006020669641419119e-02 -1.947721903882723982e-01 2.037635537076541992e-01 1.065624602065312794e-02
-6.145073477377711868e-02 3.763108936215817102e-02 4.017135135622063036e-02 -2.377652058724101236e-01 1.157719946427973878e-01 1.551246372427547877e-02
-3.219030049167426882e-02 4.124127530521998902e-02 3.557779387865928067e-02 -2.403419343162416788e-01 7.809948248001200022e-02 1.442807440992648418e-02
-1.492708971022427278e-02 3.984180060718331418e-02 1.554027513051631226e-02 -1.025201657792618182e-01 7.702160907831323566e-02 1.912711170092525406e-02
9.256510841585980504e-03 3.867994250551623492e-02 -8.264830918451482322e-03 9.632894286194725042e-02 1.458114128933671594e-01 2.452363423686724359e-02
3.342305691246458266e-02 3.791788743416110025e-02 -1.362296288346170892e-02 1.590103752287192751e-01 1.877227077720282356e-01 2.525125683359466522e-02
6.155818659317195685e-02 3.418921649462851320e-02 -1.920613539406318404e-02 6.693814869914770094e-02 2.141509122458871983e-01 1.213069015721862827e-02
8.701952854221781108e-02 3.864002509299154647e-02 -2.836427666170332484e-02 -2.617216834449533416e-02 2.212828952479521383e-01 1.497729708043852442e-02
1.149215046714518185e-01 3.190008625590150249e-02 -4.332603991548056310e-02 -1.636819391717793670e-01 2.410453057386159059e-01 1.267114605293992100e-02
1.387308268151720425e-01 3.150384157739742619e-02 -5.010888476282521209e-02 -1.607933889326536581e-01 2.196858176712232491e-01 4.688133983427778158e-03
1.626628851524647701e-01 2.469730256023010273e-02 -3.982162753127754806e-02 -7.767846399596439744e-02 3.120925201748430133e-01 -3.029873159520615668e-03
1.841771336814429783e-01 3.438256715800479257e-02 -4.214859184810787474e-02 -5.161693330191000073e-02 3.945242700621754417e-01 -5.499034245692787162e-03
2.079072123636763192e-01 2.846161638678359335e-02 -3.470766248977530388e-02 3.106650765855423907e-02 5.304429731190759556e-01 4.021209993205597175e-03
2.291255980518481783e-01 2.521825109132887210e-02 -1.159102221650576414e-02 1.968536495655665297e-01 5.848537787875059957e-01 8.323691184404177074e-03
-1.428192264976989312e-01 1.799796769898812446e-02 -7.016520571058981748e-02 7.183232113859386869e-01 2.819001809104190182e-01 3.305720086252273565e-02
-1.226764690253612511e-01 1.308236039981949816e-02 -6.798734691650765161e-02 6.551562996175299691e-01 2.193890464165140219e-01 3.745923827262356842e-02
-9.795395731074224566e-02 1.622380073349060509e-02 -4.951316556285989545e-02 3.866374446325512859e-01 1.374731048179632098e-01 3.886470338986991457e-02
-7.522354998360394895e-02 1.238550103418232205e-02 -1.019478031908127580e-02 1.806362154194827152e-01 -5.074905171286368116e-03 4.687131827026869146e-02
-4.753630049568890320e-02 1.754534135935642905e-02 -1.298964338104202643e-02 -1.702001764863988326e-02 -1.344547984147572428e-01 3.732074788180030772e-02
-2.272412435971572081e-02 2.251742551032470674e-02 -6.509063032692441464e-03 -6.541916978647696612e-02 -1.317536768481354370e-01 2.945643925514319222e-02
-3.240249096461093187e-03 1.989977980961167917e-02 -1.860666060713661585e-02 -6.191519504580085542e-02 -9.048928853526592986e-02 3.417729171830200668e-02
2.162029557329676541e-02 1.686953305474132164e-02 -1.227496114565379548e-02 7.885474406438304495e-02 -1.713451237409110983e-02 3.911262430876335378e-02
4.239965029495004756e-02 2.019254845134218004e-02 -3.883224986083133601e-02 7.581555930465701254e-02 1.531807894766470390e-01 3.356160817192381518e-02
6.222902087262517645e-02 2.818130012545246380e-02 -3.016483777382106268e-02 6.397766768483133248e-02 1.847936851347798115e-01 3.735359589245074857e-02
9.158887293348008662e-02 2.489877238777295915e-02 -5.699938613058064263e-02 -2.063978826784476292e-02 3.017568244232897712e-01 3.465337397378578932e-02
1.068720929864888647e-01 2.133333447445066866e-02 -6.060316028689205492e-02 -1.250479173370905306e-01 4.353269650588852402e-01 4.000712337133507240e-02
1.289134238373290664e-01 1.148574133539220776e-02 -8.125491853392599606e-02 -1.181574165433603441e-01 6.041463884829522124e-01 4.521796070651384197e-02
1.486057498808004140e-01 1.809428818735169670e-02 -5.510893262550931038e-02 9.360117573238735389e-02 5.671429869660606915e-01 4.036836412642658828e-02
1.769160129285274885e-01 1.999949874228906799e-02 -4.278081035060904425e-02 3.245683703668927333e-01 6.041253658354780454e-01 2.911507072732438806e-02
1.946755623940078228e-01 2.402856358110433410e-02 -3.244361111925836427e-02 2.945643477429002455e-01 7.269919306849075280e-01 2.808308369875320981e-02
2.205841000079695469e-01 1.772584523808541299e-02 -6.516784180910084601e-02 1.840628057703242171e-01 5.033432968647043593e-01 2.063413934268359951e-02
-1.238742935419378383e-01 1.283078238009364817e-02 -5.977908148729010884e-02 8.908420547676545453e-01 -2.972176468556783635e-02 4.766964878007801110e-02
-9.738382610885193413e-02 1.552751376052829285e-02 -3.871751208125290278e-02 7.231138972216305527e-01 -7.800958840687208240e-02 4.839149799231273058e-02
-7.039249572897324225e-02 2.233255801721532527e-02 -1.071006057661327837e-02 4.786682777565470781e-01 -1.196758832805677186e-01 3.810097465527877841e-02
-4.857740648266252459e-02 2.155172867391519365e-02 -6.183698195687536980e-03 4.231300366908103960e-01 -1.552953679217800205e-02 4.445943944749588400e-02
-2.834603246075287353e-02 2.322652102892906745e-02 -2.644843164827365145e-02 4.072733758159820527e-01 9.475513301098650865e-02 3.297366129744387642e-02
-1.532340151770578834e-03 2.372677578156035666e-02 -8.089927441160937871e-03 2.308217403588256889e-01 2.242065380239737782e-01 3.811284827643091760e-02
2.001408887574413278e-02 2.882172562594575993e-02 -1.118623144749486542e-02 5.423542671045003538e-02 1.873892981606487540e-01 2.343010838009245561e-02
4.280792028719807019e-02 2.255982805664270147e-02 -1.438503831069909422e-02 -2.797481090938536835e-02 6.216400547924490205e-02 2.550088990467564223e-02
6.739547174330143275e-02 2.702039490243477934e-02 -4.008441097670006892e-02 -3.651917289382774351e-02 -8.423819441880502079e-02 2.970190460701204252e-02
9.063020668105448152e-02 2.504772859673831675e-02 -4.372229336050886817e-02 3.960389361265136132e-02 -2.454272355958644625e-01 2.258586077763339098e-02
1.124825726336600162e-01 2.011632927488363198e-02 -2.234269059673105184e-02 2.288874882732060967e-01 -2.183849001778261356e-01 4.046015428630971023e-02
1.380710210134967753e-01 1.707688249837232414e-02 -2.967416978977704956e-02 3.047153904333285701e-01 -1.294006219089824106e-01 3.593192142612953999e-02
1.569867644684290742e-01 1.418908392725100678e-02 -4.185924905677040897e-02 2.995012470944562466e-01 -1.555556793670688220e-01 4.419096625414248997e-02
1.783362914193273585e-01 1.336343628435797924e-02 -4.451577165554199134e-02 3.135127662115858027e-01 -1.259923791709947061e-01 4.905534838631626232e-02
2.003105617806499317e-01 1.605390746006638697e-02 -5.542550079904112748e-02 3.277901325546374034e-01 -1.885725672651140661e-01 5.858868978696375740e-02
2.248163927173478793e-01 1.598421718407243980e-02 -5.119130300841878700e-02 4.119398921770635047e-01 -1.494308530147099578e-01 6.184494170496034754e-02
-1.360614812862847578e-01 2.238953694465501548e-02 -6.799123941892581957e-03 5.106967893467637687e-01 3.787117181957006529e-01 2.185455621269677753e-02
-1.121039403419648306e-01 2.597431532659663644e-02 -7.646904179422930881e-03 4.346309033308077274e-01 4.713636765156620223e-01 2.291921109966051778e-02
-8.886075573502108527e-02 2.271863774072088032e-02 -4.448430551155124757e-03 3.368374583779283338e-01 5.405074170767983910e-01 2.548581503252515465e-02
-6.159679957996844202e-02 2.811937588632652113e-02 5.176082529933234699e-03 2.803476998378868212e-01 5.034237307800435435e-01 2.125787988390751698e-02
-4.141497638092174471e-02 2.219767346285114740e-02 -1.757786015940804303e-02 2.911553517195844543e-01 5.600108168138474563e-01 2.244667252819476655e-02
-2.497963379989367669e-02 1.825685307075764624e-02 -1.877566917118456136e-02 3.523433223615722865e-01 4.474577003252643848e-01 2.725225712433397909e-02
-1.388084230395963958e-03 1.645655645012979174e-02 -2.929086797344171433e-02 3.787817171718281806e-01 3.448635615431597246e-01 3.080988655006977953e-02
1.888072361917968872e-02 1.877150085229328802e-02 -2.596035389943635030e-02 2.687246114271442665e-01 1.953699562818737578e-01 3.368743676980240354e-02
4.646263401270244592e-02 2.186267930349500982e-02 -3.205057953118273240e-02 1.597489592653044688e-01 1.681860556975489918e-01 1.614674324232654584e-02
6.549499054371162032e-02 1.804446922773342982e-02 -4.597009827258408121e-02 -8.898189324044515972e-03 1.145406414791332317e-01 1.827346703000500006e-02
9.316226807638215701e-02 2.341219441511452337e-02 -4.519353822379990060e-02 -1.500746065254228954e-02 1.271784650084559487e-01 1.757913660984955842e-02
1.152712288672970292e-01 2.762239884878404245e-02 -3.769278927381969346e-02 5.601562750740342322e-02 2.585798477331424094e-01 1.540646289251102787e-02
1.408249126453761935e-01 3.271080239962025765e-02 -8.194358318194483459e-02 -8.884888590524664398e-02 1.718775872208263555e-01 5.443684255662701796e-03
1.627375762301483675e-01 2.824394787259124767e-02 -7.438835848541947016e-02 -2.515943239660464736e-01 1.978879545470797752e-01 1.160141611733562540e-02
1.900464522546987389e-01 3.771367403496810045e-02 -8.191611408066076794e-02 -2.590752260683737984e-01 1.269973466668852802e-01 6.638477585933169438e-03
2.136686717455308360e-01 3.658648470012046405e-02 -9.200140449902277640e-02 -3.279007195719186862e-01 1.111753838326006577e-01 -6.602519788793485660e-03
2.391954791284415793e-01 2.984661373337302651e-02 -7.306550359956487384e-02 -5.659977157657825747e-02 2.304249803308063838e-01 -4.923236737201937621e-03
-1.257727326559649750e-01 1.848602025622490472e-02 -5.504863334637355443e-02 5.966540804752175076e-01 1.249015127597551678e-01 2.626373934307997884e-02
-1.039399253116250477e-01 2.320108221145169430e-02 -4.850080221099212219e-02 5.049514710428379960e-01 1.708158016076165575e-01 1.717734846196222742e-02
-8.738164576007995121e-02 2.541029854943013117e-02 -2.061097204184103582e-02 1.687333036235440231e-01 1.231459651935550986e-01 1.520737009379481350e-02
-6.291780595705168122e-02 2.773039076708923995e-02 -4.466218596881621483e-03 1.190880105045682502e-03 7.636021088763098041e-02 9.965068705304027524e-03
-4.616949158654526375e-02 2.842875308438701926e-02 -1.510930909091001695e-02 -1.863481321934489301e-02 2.614385622844348986e-02 2.843144806433434927e-03
-2.239667107592033593e-02 2.931207631349778270e-02 -8.608675900820539351e-03 -2.069608726475519536e-02 3.788936063537207827e-02 7.575667375225827310e-03
5.206565150143869364e-03 3.245996894634831098e-02 -1.974053840777778568e-02 3.709883164708826370e-02 8.669902509040185168e-02 1.417104288362694246e-02
2.554311060346913659e-02 3.128349479834161700e-02 -2.215673765124298589e-02 1.898205459541483786e-01 9.307177097830189594e-02 1.811676553523979341e-02
4.487147237485765439e-02 3.547631557302047961e-02 -2.937085633816727270e-02 3.118865489415643677e-01 7.774976758587939796e-02 2.068035016486018118e-02
6.784625967867216612e-02 3.236859368528120784e-02 -2.387993888307993195e-02 3.243173969903759835e-01 6.665058252818667657e-03 2.514910610485526429e-02
8.614503041731293165e-02 3.531531477712605838e-02 -5.147697684222712899e-02 2.129052273972177056e-01 5.450487490182260447e-02 2.622962130167997771e-02
1.092595699193194270e-01 3.453045055936951324e-02 -4.360886267858088416e-02 1.741756576513678878e-01 -3.308727256119346760e-02 2.222080994742394594e-02
1.301120075750399896e-01 4.151330181998798968e-02 -4.818467196708903222e-02 2.275832961564170642e-01 1.699414061937287723e-01 2.093415684854891406e-02
1.508825143938101188e-01 4.233808123382785255e-02 -3.021717253548861226e-02 3.807288638923218005e-01 2.839692856524290154e-01 2.638663642928346098e-02
1.678505048552987322e-01 3.999757303427169813e-02 -4.624286418245532326e-02 3.244091616955998014e-01 4.987123567179084782e-01 3.184768943172405081e-02
1.926532019289130260e-01 3.633961716792452612e-02 -5.200865100355783754e-02 3.269192788035649166e-01 5.434951059003191309e-01 3.448472861997991384e-02
2.060831820523649771e-01 4.202508019309729448e-02 -7.667523141438165046e-02 2.543050067889623400e-01 6.626809217010350972e-01 3.250179349469609069e-02
-1.354346526944592011e-01 2.912751697062014589e-02 1.194845323098819856e-02 1.714942936121123251e-01 -2.107557261214467181e-01 1.619109224186005350e-02
-1.176515042214721085e-01 3.489831735429775594e-02 3.523494167487656314e-02 1.526334221236890117e-02 -3.998871772422681881e-01 1.544084830329747055e-02
-9.284869197939313312e-02 3.268660747643195585e-02 3.625694817151303706e-02 -7.081085913285113664e-02 -5.524525969977699402e-01 8.930086909766070044e-03
-7.830089219458188921e-02 3.053722850884520862e-02 3.074236277996378330e-02 -7.516550883844034733e-03 -4.204740641583736838e-01 1.239517059800606877e-02
-5.832204766005813501e-02 3.175235374004838768e-02 7.175066525043405363e-03 1.174897509036478271e-01 -2.150185950113409905e-01 8.978525314217064915e-03
-3.303466491562886964e-02 3.162837379440272545e-02 -3.570251100613042183e-04 1.326788032459947642e-01 -3.647400007432600316e-02 -2.449972108890162642e-04
-1.408923998390088257e-02 3.792560208693144391e-02 9.607892273612861356e-03 2.643598771207707893e-02 1.031176089081703162e-01 -4.714759915060835922e-03
8.792787974313574090e-03 4.042492122874413035e-02 -6.912091781549056790e-03 -1.470640176156315718e-02 1.217287473966341405e-01 -9.165465064649526428e-03
2.786015837740842688e-02 4.241447235719646158e-02 -2.367610891719273969e-03 -4.401284692213524447e-02 3.979447492577278811e-02 -9.147282774669111480e-03
4.916551520481536597e-02 3.481054018105346481e-02 -2.020322016572440038e-02 -3.075405865558853216e-02 -2.048410832382240032e-01 -1.094534935906492888e-02
7.218276219126290583e-02 3.770733494928674157e-02 -2.785083353348238866e-02 -7.131074241080946619e-02 -3.185291204703690759e-01 -1.638016082814207700e-02
9.290457305412190558e-02 3.161380404719021237e-02 -3.536464970256081308e-02 -4.729895266372266538e-02 -3.764589409929836039e-01 -6.975856458419249506e-03
1.115161573903673958e-01 2.886072427036063745e-02 -2.845947977906715387e-02 -6.193844895643186785e-03 -3.985413398847288957e-01 -4.432614869680343885e-03
1.329910234628943755e-01 4.152073750002512054e-02 -4.330606516343837864e-02 -8.247169988885078018e-02 -4.354036774652620956e-01 -1.940881445970193270e-02
1.527561421056190805e-01 3.971271906589507461e-02 -5.530893124634106428e-02 -2.599777692626002445e-01 -4.241287859986792030e-01 -1.145402105521664028e-02
1.756126483062739330e-01 4.800234249049715324e-02 -1.042395383212985638e-01 -3.373793972551320519e-01 -5.764398362300789946e-01 -1.611384571202576291e-02
1.971418654557453021e-01 4.398623182742365800e-02 -8.223842218779170432e-02 -1.005319055471148443e-01 -6.948968587772503813e-01 -5.807701184043484628e-03
2.176065742825896154e-01 4.196674625883245469e-02 -2.929209453615250203e-02 1.547900078330494977e-01 -4.735372705679375960e-01 -1.270392900781591554e-02
-1.491429765680958863e-01 3.632797408204985895e-02 5.429379866840905455e-02 -3.570629402289459131e-01 -3.976373715146148263e-02 1.632068577591895900e-02
-1.259203859647139712e-01 3.674344919370519519e-02 5.573764311077461509e-02 -4.437946080040766073e-01 1.316645242062570997e-01 1.741935396794204796e-02
-1.050082528407607074e-01 3.792402551403226824e-02 5.023350270085330527e-02 -4.955375345078517069e-01 2.379759999546059990e-01 1.191502970663387007e-02
-8.233633366941599252e-02 3.514786406997355561e-02 3.865957723634072529e-02 -4.493162384080923166e-01 2.681790221407985841e-01 2.076082761840496518e-02
-6.410133304731355230e-02 3.258438326433114873e-02 2.786552585160673168e-02 -3.826367715385776691e-01 1.415028368457853236e-01 2.473596503215332032e-02
-3.967073614873044968e-02 3.285788709777649752e-02 2.309069241884242896e-02 -4.153632495973427208e-01 1.710103250021585610e-03 3.027757521188680426e-02
-2.079057987810439476e-02 3.497611345756720252e-02 2.540108532286045051e-02 -3.991045070143564022e-01 -1.819259336170329922e-02 2.969366544531139643e-02
2.144338111866345153e-03 2.692286733720895137e-02 -1.016097204649596408e-02 -1.474626327100831413e-01 7.140428461804341174e-03 3.267335020178201155e-02
1.984862748067596841e-02 3.014393986917028243e-02 -1.824082600318616132e-02 1.134596281047153404e-01 5.528596193409781451e-03 4.030234122835876093e-02
4.426177150850639508e-02 2.834394323550520900e-02 -3.125280979500677514e-02 5.719402245451261045e-03 -4.184858588741757757e-02 3.289145430357752475e-02
6.333379244957504373e-02 2.520272908922214367e-02 -2.237949797604399382e-02 -2.683184221804346126e-01 -2.331003568332280507e-01 3.322856943387510198e-02
8.671037842607323687e-02 3.174697247353013008e-02 -3.196959038829333410e-02 -3.456368311474127264e-01 -1.450129095074398633e-01 2.953002191759401471e-02
1.058892314416893660e-01 3.627864189336744288e-02 -3.992122697996730585e-02 -2.109114916060274847e-01 -1.905746940357977981e-01 3.091346072253379346e-02
1.245714977561709902e-01 3.844378726809481034e-02 -4.347499472279697796e-02 -1.698644245588110391e-01 -1.514288970752581676e-01 2.750301602643499474e-02
1.440358823267502975e-01 3.541051689686339904e-02 -6.618986603919321809e-02 -3.784786871290394261e-01 -5.509529404031675293e-02 2.994421116976953706e-02
1.677413466443806178e-01 3.858811559385978696e-02 -9.621188761685178781e-02 -6.297905537276770049e-01 -2.047241159721798279e-02 2.492623927282502927e-02
1.914863230850590847e-01 4.351048084327152621e-02 -1.107023050058990599e-01 -7.602484219943461685e-01 -4.813720984258303831e-02 1.276842926790960030e-02
2.150707318137227153e-01 4.000000282129665546e-02 -1.293093439206651762e-01 -7.493361311817331449e-01 -1.256549909505005336e-01 1.695470065128772477e-02
-1.318518103286830667e-01 2.378257434956144306e-02 7.050547758061426196e-02 -4.217446153729357272e-01 5.536812436191090869e-01 5.306596937322085629e-04
-1.080239090090926585e-01 2.590941509632502249e-02 5.004566918405167764e-02 -3.722402395662136043e-01 4.795028338237466436e-01 -8.873104501369478850e-04
-9.001450283109935224e-02 1.879745992736792798e-02 3.372824819394087958e-02 -2.488740611054727492e-01 4.440415352012376249e-01 3.157160595241074313e-03
-6.736732062869121851e-02 1.768582254978850327e-02 4.259011571762449933e-03 -8.784281611345561014e-02 3.317479243036886571e-01 3.457002795844162091e-03
-4.828719548005566686e-02 2.040653607660496138e-02 -1.232852675125262198e-02 1.594088004544180412e-02 2.446436463629848013e-01 9.597225069699552580e-04
-2.707099992190188306e-02 1.592583577113174803e-02 -2.097189066973043081e-02 7.862454556258101357e-02 8.663635064770036642e-02 3.531125291274298493e-03
-5.326946443324435260e-03 1.815644152035770370e-02 -2.271052218698760283e-02 1.152571037148903133e-01 3.932815617352491272e-02 7.248960987910884647e-03
1.530342056058296360e-02 1.163516011351577346e-02 -2.143921604536574987e-02 1.068198747158621842e-01 5.427495208939436995e-03 6.650489228739600057e-03
3.094046858812072101e-02 1.645781254744738131e-02 -2.820223524544074323e-02 -1.337186544302975885e-02 5.227262801370777950e-02 5.236617737095192876e-03
5.440589824694374438e-02 2.193357920743094214e-02 -8.865903970824398628e-02 -1.598134828362506865e-01 -4.657236402075042719e-02 3.150250832800652497e-03
7.588292753392249235e-02 2.424951650956185673e-02 -4.311772448553752302e-02 -8.085068937334041750e-02 -2.511043204042628929e-01 -3.171304349231618674e-03
9.515708173149427240e-02 1.935981153740057303e-02 -6.126075389078261546e-02 1.176666354273167292e-01 8.976851802676909242e-02 1.371213206966942488e-02
1.113302330181674960e-01 2.007593395863033897e-02 -9.918718018542271864e-05 4.636575773032428072e-01 1.256858922902267528e-01 2.681979291807378568e-02
1.338346769096085964e-01 2.084828449773472314e-02 8.229974820596952512e-03 8.321005259624638661e-01 3.222449510206383816e-01 4.116313429163601795e-02
1.507937212858065923e-01 1.178922268259524793e-02 9.972567847735647195e-03 9.404451258895218935e-01 4.011386885721704432e-01 6.372120941314522724e-02
1.695834548986779045e-01 1.399869043186801991e-02 -3.500262577024049193e-02 5.965412113870957045e-01 4.160148739287231057e-01 5.638442661618502799e-02
1.943174700338273220e-01 2.233818759669878307e-02 -8.031361020228117154e-02 3.343858965073215339e-01 4.043069759690155474e-01 5.284791947340808371e-02
2.119041416992255566e-01 1.302996279952915552e-02 -9.038284206782135066e-02 2.977472350981950067e-01 3.481763660689041751e-01 5.502791773240015699e-02
-1.487541498264235706e-01 2.440439123078880918e-02 1.771469401622915996e-02 -1.591703972458332617e-01 2.791415866241538091e-02 5.418951151140516398e-02
-1.310770332656907011e-01 2.445453701546970032e-02 -1.476663922859444700e-03 -5.417959075861882023e-02 1.550357776732400883e-01 5.857343804399389037e-02
-1.109167119014137226e-01 2.960971183728560926e-02 -3.435821945243722197e-03 -5.382400733132861048e-02 2.976173334209336607e-01 5.930203365843057101e-02
-9.484309650641342682e-02 3.192521420381799757e-02 7.436994244970407397e-03 -1.497079857553626214e-01 3.830981861809207856e-01 5.231721541043071050e-02
-7.400977512771489408e-02 3.484657267048400092e-02 1.081840923968807600e-02 -2.455873316633380155e-01 4.073233371169329708e-01 4.787379053020384551e-02
-5.183444630928976671e-02 3.638054507110610736e-02 1.359592351353672290e-02 -3.021561800350295868e-01 3.887680907681473896e-01 3.981491071221882061e-02
-3.909547407288006815e-02 3.872958777770680455e-02 5.467108444629553698e-03 -2.626613142485037522e-01 3.764202398069828037e-01 3.659119612343757211e-02
-7.471793558960371923e-03 3.733885187009779172e-02 -6.057734011045701195e-04 -1.810257989557852720e-01 2.594125058886354029e-01 2.865960484323738788e-02
1.560696078065686512e-02 3.008824403337984760e-02 -9.635168531713589335e-03 -4.408695277747295277e-02 8.158532300710218121e-02 2.829205752009029615e-02
3.970905206907247853e-02 3.374029097269812261e-02 -1.460819328449769472e-02 -3.059792868413380162e-02 1.651480294929148426e-02 2.494164248975954540e-02
6.312975645366450395e-02 3.398496558473204643e-02 -4.033885596202019252e-02 -2.225381084976086055e-01 -2.483019572095686647e-02 1.506624271220471240e-02
8.277635082539078204e-02 3.957651834451286071e-02 -5.853466906412896353e-02 -3.826104241138294504e-01 -5.891088650230758700e-02 1.008163955715221140e-02
9.961924980634184745e-02 3.859573808351221547e-02 -5.704256944979724242e-02 -3.336833241344972500e-01 3.045725696125385629e-02 8.440290368338607477e-03
1.191668711587606094e-01 3.626562157801573039e-02 -5.163454217986734873e-02 -2.060303813386912819e-01 1.985186062759464187e-01 1.423340149793437225e-02
1.388527539925226706e-01 4.002327870108082775e-02 -4.515363459181093164e-02 -1.758706315498187456e-01 3.470022327875239565e-01 1.732678956204638382e-02
1.558482626100983204e-01 4.186937085284335447e-02 -5.153702434739060312e-02 -1.635612561224945027e-01 4.026983802990251604e-01 1.910102394817336097e-02
1.739644589869470404e-01 4.560835703592939355e-02 -6.039187762787717739e-02 -1.498980776075782562e-01 3.732293643566245156e-01 1.186017539159792133e-02
1.958710368803482926e-01 4.349813991570873617e-02 -5.167269212380665167e-02 -1.362078597776656685e-01 2.742687775013769591e-01 1.340625373728265152e-02
2.109493551906935771e-01 4.910870394098083846e-02 -6.619814144157382119e-02 -1.314387611551597057e-01 1.686916337338742466e-01 1.897404354729267939e-02
-1.450506476613837858e-01 3.724223540402782362e-02 1.953501188894968266e-02 3.400998161388946173e-02 7.226342619340676843e-02 -2.529247683661191987e-02
-1.238687845959753342e-01 4.159463666198522785e-02 -1.072132097022004960e-02 1.798602059313532953e-01 6.930226389596567949e-02 -2.247512168671619848e-02
-9.966589494477112732e-02 3.787190457055789050e-02 -1.720038865859307986e-03 1.534581024205620148e-01 6.701279407075902417e-02 -1.221784655106248306e-02
-7.715601503207566991e-02 3.405884910749455707e-02 -2.500708977705101699e-03 -5.069158542871371464e-02 9.911117088250194496e-02 -3.799649968842211314e-03
-5.891523977906866494e-02 3.982818301840639064e-02 -3.865860699768908226e-03 -1.222506449324788913e-01 5.903918795729861529e-02 -1.342637477243266647e-03
-3.849048379544328657e-02 4.075528947234047933e-02 -7.038511319659046528e-03 -1.242597382827663466e-01 -1.943694530696141523e-02 -2.674710328967848036e-03
-1.774034581456654033e-02 3.514611638402929256e-02 -5.732408331653060518e-03 -1.098258984649022468e-01 -1.546771929228396292e-01 9.616855934317249111e-03
1.153069679551144144e-04 3.133243103866902024e-02 -1.517111273159937879e-02 -5.738956743296136365e-02 -1.935460762068979268e-01 5.002680138470153547e-03
1.805151465626097379e-02 2.790903810811197136e-02 -1.503677523361413026e-02 -9.682749331937226533e-02 -1.861191427287713085e-01 1.366117349559991048e-02
3.528145760826234545e-02 3.084407889743222622e-02 -2.520696247575504589e-02 -1.965882862576784629e-01 -1.640933983913915872e-01 1.181356327800487695e-02
5.546152772324333680e-02 3.900640402410202046e-02 -3.103619726920503474e-02 -2.621254724737889785e-01 -1.132355723380284590e-01 9.151192005931105267e-03
7.009769675467197869e-02 3.645189346158200089e-02 -4.097207203443004042e-02 -2.407253063985890784e-01 7.775674073546082199e-05 7.262714510028355462e-03
9.144163224779550125e-02 3.270866035229950258e-02 -5.341525657255596915e-02 -2.485739354763263353e-01 9.735477623502431302e-03 -1.783112379952124342e-03
1.111022728748887745e-01 3.863198683872177963e-02 -6.550683084684499891e-02 -3.024846779282708287e-01 -2.978102190506110719e-02 -4.458672257482977326e-04
1.362102001965437570e-01 4.271878138943421138e-02 -7.055584508378476283e-02 -3.404660232346931048e-01 -8.299296520965787627e-02 4.923309300935736245e-03
1.622899033280576220e-01 4.342324374097616957e-02 -8.560823689183982843e-02 -3.605972352230885636e-01 -7.096450951016061715e-02 -4.524089678998580687e-03
1.850969011858528412e-01 4.313607878248693073e-02 -6.864576904871289020e-02 -2.130992505593610475e-01 -1.166716543316176219e-01 3.076255024329180993e-03
2.087866746790001948e-01 3.903191077128388697e-02 -5.934572110710151227e-02 -1.498193650562533730e-01 -1.279819299111425168e-01 3.905272734723667103e-04
2.271478721272234269e-01 3.831254437805128865e-02 -9.575228509266969779e-02 -2.496577158462916779e-01 -1.471844138577812766e-01 5.223423556726755450e-03
-1.442262910518757602e-01 3.052258099009420855e-02 2.674247258561962548e-02 -2.596926062869988616e-01 -2.039519876058564496e-01 2.257079242192027227e-02
-1.228573987865730216e-01 2.627579366722747334e-02 2.027133816526421883e-02 -2.447946010337515577e-01 -1.402595049006928329e-01 2.110238273188301192e-02
-1.025495124828641330e-01 2.810295694255994514e-02 1.752712717891480310e-02 -2.153292936222064580e-01 -1.539392474175753922e-01 1.692777144812454213e-02
-8.330789133086212439e-02 2.957952395653173916e-02 4.434655068349002693e-03 -2.316902298648713387e-01 -1.831667509092891333e-01 1.249845817272047382e-02
-6.375034127485593172e-02 2.967605289305681043e-02 1.296574201927780390e-02 -2.623899188623174950e-01 -1.603202159747200983e-01 8.052709159561990265e-03
-4.181986579028887374e-02 2.902724505204323791e-02 2.799002619557844351e-03 -2.690303710905550538e-01 -1.068967640986081408e-01 9.760051464492706941e-03
-1.831033833181082426e-02 3.136671431785435088e-02 -8.067218439520962292e-03 -2.641734719450098967e-01 -4.797984358566279028e-02 1.132898236030546735e-02
3.845697843567228574e-03 2.876388977662914029e-02 -1.159989027312680054e-02 -2.458205924791211916e-01 -4.864084726247014379e-02 1.414923996335628112e-02
2.433033477417673868e-02 3.097195231497832518e-02 -1.357694522129537784e-02 -2.434271075412015317e-01 -6.939767998382830039e-02 1.201455678552731596e-02
4.464590735301143115e-02 3.272708421053085320e-02 -2.018648764040081867e-02 -3.132879564941546957e-01 -1.854626699221974262e-01 1.376842457884529421e-02
6.707166574828217487e-02 3.516525084946282853e-02 -3.536897977008546246e-02 -2.223699828840979831e-01 -2.378362492741031009e-01 2.650404152525906790e-02
8.949717271511629935e-02 3.247648910821478163e-02 -4.020436836215790510e-02 -1.000122240777322064e-01 -3.417036860866232151e-01 3.843287201421742572e-02
1.069312356403794850e-01 3.406370600289723022e-02 -2.063208707940805686e-02 7.121078595505589415e-02 -4.090505969688817411e-01 4.613738928471528000e-02
1.279984134070094315e-01 3.409894877059743701e-02 -3.989906558640965439e-02 6.576919375045096883e-02 -1.925609842815577399e-01 5.034352255840974372e-02
1.480106834299443341e-01 3.333009145435093107e-02 -6.689974757713040843e-02 3.162185339554332564e-02 -1.596552350786376862e-01 5.553998285611263380e-02
1.641248737762498466e-01 2.761793435812399944e-02 -4.695133040956150916e-02 1.397917265902379018e-02 -1.637636628514314019e-01 6.505084664548119178e-02
1.817623160155361628e-01 2.437102361592758185e-02 -7.048007621726354310e-02 1.925855678714059535e-02 -2.159107602519008406e-01 6.138590997067410598e-02
1.996740089215470193e-01 2.092832059631249617e-02 -6.562395503642637351e-02 5.191965908843403782e-02 -2.653677058439551928e-01 6.102607538850438051e-02
-1.653842794878500611e-01 1.921284750915658313e-02 -1.419225163994813910e-02 -1.195287558114548204e-01 -5.136951739297698216e-01 2.270351202156263917e-02
-1.471140115933441683e-01 1.823387325605354409e-02 -4.433270930593241621e-02 5.713847775273591528e-02 -5.058144853901602733e-01 2.163354384188671126e-02
-1.274429616335325255e-01 1.811724624236786194e-02 -8.277028967320418373e-02 2.273882440466387378e-01 -4.073853535106566892e-01 2.296598708515843260e-02
-1.024519033934604278e-01 2.285167100843445154e-02 -7.787522301912508382e-02 1.297388862709809298e-01 -2.596397114545916929e-01 1.856025759374470285e-02
-7.905125783396818595e-02 2.156238289866978242e-02 -4.706465950626403938e-02 -1.109150661613271388e-01 -2.193984399097753668e-01 8.962594168760671179e-03
