-2.302361232548267699e-03 2.481913362215760338e-02 3.298808947324760599e-03 3.663922766852015789e-01 -6.723390796632508493e-02 -3.199233258801304283e-03
-1.014245515325959066e-02 3.929131095692664499e-02 4.389480473219214973e-03 3.715088489429598240e-01 -6.909514010905939974e-02 6.505063230570784852e-03
5.793500077645868072e-03 3.979536521786786879e-02 4.286876887389684532e-03 3.668445969700557807e-01 -7.005457601430403747e-02 3.422932060831556517e-02
-7.506349555005503195e-03 3.145980005019699544e-02 3.466150111043231341e-03 3.684880930880027883e-01 -7.620005135931974538e-02 2.966015131111217687e-02
-8.185200419688178422e-03 4.570565926814704194e-02 4.196180959947726219e-03 3.689655738613480396e-01 -7.528816602501063604e-02 4.058345143470800526e-02
3.049980735456965606e-03 3.463320584405424341e-02 3.522050333745557760e-03 3.671203378399227613e-01 -8.346315808723790697e-02 3.982278123939077263e-02
-5.481608639645854306e-03 2.440864043436888689e-02 4.444453005527287948e-03 3.692547612736262197e-01 -8.271703970925299576e-02 5.288918551660815037e-02
-1.500467543845314389e-03 1.862357857219091792e-02 5.754920989308354162e-03 3.724566955663776713e-01 -8.920596056307350530e-02 1.737778913584839963e-02
8.532209369410998986e-03 7.229086627197754689e-03 6.084650414674652730e-03 3.699036949889082937e-01 -8.204942659816739925e-02 1.556468376814063720e-02
5.076391592516732269e-03 7.412504532139411843e-03 5.360375540223394353e-03 3.701455201365954073e-01 -8.323987579369883372e-02 3.612700525964606529e-02
-6.662258134444621997e-03 -1.863151625052161895e-03 6.125638357997897909e-03 3.709122358086354709e-01 -9.042017865811990962e-02 4.598359903405009608e-02
-1.531604452789147100e-02 -5.993803583273559464e-03 5.612943665369796165e-03 3.665879446352369175e-01 -9.294113520427188524e-02 4.945864230917799975e-02
-1.117515345411236594e-02 7.680586001771643259e-03 3.617145383742137454e-03 3.682083079877890297e-01 -8.462764614455617340e-02 7.257600356646443616e-03
-5.198612502472144646e-03 3.723152094771134402e-02 4.983266458188889692e-03 3.624970354311429777e-01 -8.664702319776898531e-02 1.064430372286362912e-02
-1.061162134367975816e-02 3.681714322748146084e-02 4.247055068888644369e-03 3.653797571063847061e-01 -8.819939607727944608e-02 -2.427307324615844697e-03
-1.448629302936474753e-02 4.489065895883988938e-03 4.212449619580366234e-03 3.682005665505611036e-01 -9.130827949856568093e-02 -7.550182679192610907e-03
-1.228062795182358405e-02 1.494310959624788743e-02 3.518050702541436481e-03 3.618108766594129166e-01 -9.144040948546790226e-02 2.071954009481277725e-02
-3.617831733086909491e-03 9.332337911155669588e-03 4.334809148307777749e-03 3.585499234245907996e-01 -9.273234851327885608e-02 4.669549209700134262e-02
-1.748545078323402932e-02 2.628587143243127366e-02 4.785800948832463764e-03 3.513418423105731936e-01 -9.923443032625997584e-02 2.163119059773596468e-03
-9.772967435075973971e-03 -9.088740719611659857e-03 5.463066699817165084e-03 3.592638551578452022e-01 -1.034586452530100870e-01 2.640535234363545689e-02
-1.080697444667654136e-04 1.113847425580391081e-04 4.813095821302709743e-03 3.613950023498501696e-01 -9.805107775470214837e-02 3.136443357386923397e-02
-1.087683605291194650e-02 1.591687579346870787e-02 4.632293676479992683e-03 3.558658275571600083e-01 -1.015008944989975598e-01 2.108525788105582860e-02
-2.654688626717160473e-03 2.515669868562408736e-04 4.499139764956000542e-03 3.579919411369050231e-01 -9.956109685044062241e-02 2.001484937465933950e-02
8.735646410865743894e-03 -1.483488755124988227e-02 7.257953040159942359e-03 3.576140119533466888e-01 -9.501761798981808727e-02 4.153956850511389409e-02
-1.153451727140971869e-02 1.474355367519235641e-02 5.727052469225529796e-03 3.580181582625655001e-01 -9.722705797258321403e-02 2.965297406817507531e-02
-5.895284025551970029e-03 9.786476425434897930e-03 5.335594709661301005e-03 3.535343545203315507e-01 -9.866690733264231461e-02 4.534316640507547735e-02
-1.415900950029031630e-02 1.525849650722319040e-02 4.605891124719402319e-03 3.556033984444688101e-01 -1.013039258366939671e-01 6.361086052737839613e-02
-3.109015312050840592e-03 7.741412792961080945e-03 4.663840474085800825e-03 3.568317545248966272e-01 -9.750428068111259561e-02 2.322093997868275583e-02
-5.905119486871746384e-03 1.537088267276926108e-04 3.024163349598540940e-03 3.567590896678901058e-01 -9.916105912942671519e-02 3.001018553745571707e-02
-7.235350599724194552e-03 2.395210468792740438e-02 3.527318832424963801e-03 3.569189667352441475e-01 -1.007425641748718737e-01 3.396630559745739825e-02
-7.784254170702786975e-03 -2.585836659428750531e-03 3.721337990464063106e-03 3.578050422500273497e-01 -1.004969127435783871e-01 3.524543133923552229e-02
-9.250250388137475077e-03 4.383285063874429836e-03 4.376425203470785119e-03 3.548001715136240852e-01 -1.021594402503007704e-01 3.608886818160658011e-02
5.442904706060644991e-03 3.892334978674251347e-03 3.776295739990498390e-03 3.593280332018876089e-01 -1.013904054767940793e-01 3.385798609138364335e-02
-8.692525180012315375e-03 2.116188477910694102e-02 4.267019526570325905e-03 3.591369262601366019e-01 -1.049987374183877775e-01 2.033959277359960113e-02
1.660733972881653451e-03 1.583001275051663936e-02 4.148226649101444119e-03 3.613534480518232894e-01 -1.078671224890847685e-01 3.151425615173234634e-02
-2.634805467394882392e-03 -6.341836239007109244e-03 5.475532287245898910e-03 3.585064382599154609e-01 -1.028155510667615319e-01 2.597184923465141806e-02
-1.020222351211133756e-02 -1.122900016827772622e-02 3.113330937519226405e-03 3.576994700688157502e-01 -1.035573610734665528e-01 3.401979004796183009e-02
-1.073509915872141243e-02 1.627949809093194242e-02 2.645681692616558278e-03 3.530452518630814995e-01 -9.381923593054648791e-02 4.574130433298125020e-02
-3.557807097963487219e-03 9.128161159520123760e-03 4.324507850985315205e-03 3.543886858419698638e-01 -9.655385201762775593e-02 1.423272057776035424e-02
-1.001506732443412269e-02 4.046914549802760157e-03 3.648199189606293746e-03 3.561019547999971779e-01 -9.521412034165797900e-02 5.566447057357717942e-03
-1.594287339180574387e-02 1.617544959962610024e-02 3.966362432762188250e-03 3.588566106425774005e-01 -9.625576383602481301e-02 2.102007964927793057e-02
-1.159442390446165094e-02 2.620403647984825835e-02 3.621953967754998338e-03 3.569265122125916401e-01 -1.006815062854482384e-01 4.447326384104893782e-02
-9.849827446203470241e-03 2.325004092916433535e-02 3.230097287495237168e-03 3.623146578680396801e-01 -9.762200789294225856e-02 4.925035901163241601e-03
-8.264732797435751441e-03 3.461648062384101859e-02 4.300767667410942963e-03 3.662889694220232695e-01 -9.845508743461986456e-02 2.403481233880691917e-02
-8.612232517951141225e-03 3.970521294273896343e-03 2.974714775075770756e-03 3.701932493222340748e-01 -1.004347819114499163e-01 3.360098957246669682e-02
-1.118949463398110494e-02 3.084231774110483132e-02 5.234349672505994588e-03 3.661102896435272092e-01 -9.907453179859668224e-02 3.052383644137160804e-02
-9.400084976933549205e-03 2.656555974331825665e-02 4.281535053506618782e-03 3.665071904804464986e-01 -9.866145837890422099e-02 3.389632509040056696e-02
-5.606055781846004150e-03 3.265053930859195680e-02 5.066350764528687600e-03 3.663842230085760932e-01 -9.597594945811906142e-02 2.423889690240381076e-02
-1.259054108119350181e-02 2.106816415299312545e-02 4.138415292736563611e-03 3.702210882140412052e-01 -9.593648749232994155e-02 3.280343715664583298e-02
-2.980718719419987381e-03 2.367611085791983955e-02 4.590146780029363827e-03 3.701805050066496738e-01 -9.531932887813697464e-02 2.685493765142429878e-02
-3.828904334256521928e-03 3.068330645791092146e-02 3.514777718053335720e-03 3.735207127208589051e-01 -8.954118112422251863e-02 2.345736225857106977e-02
-1.531893759000583360e-02 5.217126175518790356e-03 5.348395510124087648e-03 3.706313520635660108e-01 -9.424676884460009285e-02 2.223024850469120309e-02
3.835462353124790462e-04 2.569114866374417466e-02 5.001775299852573298e-03 3.731344610911321302e-01 -9.185545905742568962e-02 2.168245369706513562e-02
-1.049060678517393236e-02 4.923818486949307210e-02 4.409232860930673015e-03 3.726852832862221354e-01 -9.634922268093196185e-02 1.968934580412113472e-02
-9.721463577227432151e-03 7.525759622511732361e-02 3.200779140269588430e-03 3.746795417214584534e-01 -9.875142359108199375e-02 1.483078035590511441e-02
1.232484919577197646e-03 4.109332061984875828e-02 3.958752066545945247e-03 3.736036264401847440e-01 -9.688390146200291653e-02 9.855457297178798690e-03
-9.892492539419810160e-03 2.478144163271165518e-02 3.856421342633920002e-03 3.730169856574029330e-01 -1.019655696488256102e-01 8.549699099962133203e-03
-2.730192619839188432e-03 2.706366881330955071e-02 5.025676903585740707e-03 3.722138557315282648e-01 -9.528154006946502885e-02 3.403250478318704114e-02
-1.587022366153379924e-02 2.973320718168682292e-02 3.776135683511122609e-03 3.752331863005486379e-01 -1.020217286750976365e-01 3.191179020653957948e-02
-5.317689370566093879e-03 3.018545328994101315e-02 4.915533617786793652e-03 3.753047939052790438e-01 -1.019087495406109656e-01 3.957608746295990937e-02
-6.238166461727801676e-03 2.088394784838326287e-02 4.459851117659507924e-03 3.734877399165340006e-01 -1.000873585654709491e-01 2.865102201422262823e-02
7.004619355315686718e-03 6.398453931178228749e-02 5.168157415840118896e-03 3.731298397364018471e-01 -1.019469693318457021e-01 2.453364177880036981e-02
-4.573853622745375027e-04 4.900341485899190053e-02 5.129152274753856489e-03 3.727735791255217812e-01 -1.005036443305826199e-01 2.164130755243566864e-02
-1.608750591551652868e-03 2.045237345914022176e-02 6.046688985219095258e-03 3.748996983339048517e-01 -9.931892854645890667e-02 3.360835765211993981e-02
1.969771207528686445e-03 2.454095595175159045e-02 4.815614603429663187e-03 3.730191452900396554e-01 -9.988876329054438563e-02 2.359784155558370539e-02
-5.170632332500898001e-03 1.739008594621654219e-02 5.191256034396074526e-03 3.769329741640882192e-01 -9.093798535000445493e-02 1.967448347716626092e-02
-7.130726622711156502e-03 7.843920614014133694e-03 4.540197158059700033e-03 3.724894801394413313e-01 -9.479618611921417082e-02 7.546449002390377171e-03
5.816031315734925336e-05 3.172932094995448843e-02 4.847773337396527049e-03 3.765252643441512337e-01 -9.041246506486620704e-02 -2.530885350880560450e-02
-1.398541848090061913e-02 2.653556420513282499e-02 4.120013650348502976e-03 3.752725706577123566e-01 -9.358146475902578976e-02 6.882435998102872168e-03
-1.371032087842711557e-02 3.491713888588190984e-02 3.877873668038572808e-03 3.732532881672376845e-01 -9.710896224292422940e-02 -2.436143643284374022e-02
-1.120761176031613571e-02 5.016311169555867644e-02 4.469128003650846281e-03 3.719365451675709644e-01 -9.659915621441392264e-02 -4.406072175238012929e-03
-6.729071847488404638e-03 4.023757103379944911e-02 4.780604403004290459e-03 3.722929366133370666e-01 -9.593046169951735536e-02 8.038030769037177517e-03
-9.919155737541577103e-03 5.140836138892707075e-02 4.023174412292634949e-03 3.763856954814477906e-01 -9.991077895854048874e-02 1.896818463865926341e-02
-9.979430443961722491e-03 4.352314435810757803e-02 6.275577855864911125e-03 3.740875708576020253e-01 -1.016547839333716841e-01 1.687148369417758656e-02
-1.216751554110646200e-02 5.810567295864684650e-02 3.905863600611486630e-03 3.723722842672195776e-01 -9.529181995059204935e-02 2.746792676891159773e-02
-1.120742419165870161e-02 3.490783662209506755e-02 5.584736280862617752e-03 3.725799017349447073e-01 -1.020996951206882414e-01 1.357757142551439637e-02
-6.055384963467858907e-03 3.365914679074617083e-02 5.646377807272978666e-03 3.722528664089050365e-01 -9.590261490734673655e-02 2.579523761835788437e-02
-3.441416335373302139e-03 2.812188877765009129e-02 6.803200396129444050e-03 3.694959827723708345e-01 -1.006675725485562251e-01 2.855762586527556615e-02
-7.353973961138090751e-03 3.750743415555180676e-02 5.404608139893518626e-03 3.739948525970970272e-01 -9.902587949745299267e-02 4.617658881867106428e-03
-8.530308858340190925e-03 2.458715161684841416e-02 5.106664429351009948e-03 3.718290627278167393e-01 -1.003531609737861180e-01 1.438774521107575276e-02
-1.816243505788961085e-02 2.613569334150833354e-02 4.658859342675653048e-03 3.742030339914291792e-01 -9.927888881518763531e-02 2.500741245003126889e-02
5.027194350068934364e-03 3.659938873644572738e-02 4.572186547632500764e-03 3.725738977640446481e-01 -9.698362706414569157e-02 -8.957861344122755587e-03
1.203540019640980370e-03 4.389506751702801357e-02 3.816560885238767797e-03 3.716693323277970862e-01 -1.009149744944756039e-01 1.520408251417305727e-02
-5.074078666172613696e-03 4.434792639391733904e-02 4.569268470951654004e-03 3.763477588987814704e-01 -9.929441879347988831e-02 -2.074078386427728390e-03
-5.600631502216749102e-03 4.581946851995932768e-02 4.396029066795509310e-03 3.743131431787020680e-01 -9.599684370844056847e-02 2.314272398359188201e-02
-9.729812765446890777e-03 8.839617161307844820e-03 3.128444944749980694e-03 3.772431047503875812e-01 -1.033326843834568992e-01 3.330602039495598327e-02
-7.105862714355078678e-03 1.137448998085548862e-02 3.627243425220888495e-03 3.784221083510954098e-01 -1.005179982060157295e-01 1.736295323026319781e-02
-7.375518988066423129e-03 2.851050105123067654e-02 4.968075438613911432e-03 3.762103703337044691e-01 -1.032388240074008506e-01 1.068654693623728377e-02
-6.275504126193115310e-03 3.135723185032614213e-02 4.118072194049943180e-03 3.748104011455822282e-01 -1.037654865107246749e-01 2.619613814837043128e-03
-2.896270046770515680e-03 2.686526502559363760e-02 7.458808414553902422e-03 3.789289319528566513e-01 -1.036775596944115030e-01 -2.578356967062468263e-03
-2.699703538081332007e-03 3.479151900619373988e-03 6.732117004099008595e-03 3.758993496946809731e-01 -1.029870087146184110e-01 -1.630950867998417434e-03
4.769401653257026100e-03 6.035365147865782987e-02 7.371458777792522232e-03 3.783107125106828783e-01 -9.601534470038916580e-02 2.007965905902511783e-02
-1.340920641148203108e-03 2.835794636552915055e-02 6.279900464282117678e-03 3.793009578198395237e-01 -9.149696294783650485e-02 9.345878936305826879e-04
-7.039095697617410441e-03 2.371694560482748640e-02 4.900734765071523835e-03 3.763532519442867041e-01 -9.623816010576413671e-02 2.646506384827778443e-03
-6.822584400586541829e-03 4.417777786714486427e-02 3.968694051174559423e-03 3.744492073819057909e-01 -9.630961824970174501e-02 -1.715714347806580886e-02
-6.721385456434762241e-03 1.490244822343560899e-02 4.641934156376342768e-03 3.773210350419156089e-01 -9.413848485506917663e-02 1.105268459306594890e-02
-1.575690504025857586e-02 1.975253614537475846e-02 4.270576441620127506e-03 3.767890717138601131e-01 -9.859041433072994465e-02 1.973751527566328882e-03
-7.532330561320571896e-03 2.708875605657012561e-02 4.520848959581963422e-03 3.744940077675786849e-01 -9.765186320809088327e-02 3.228843967842145307e-02
-1.139629185493864355e-02 2.433238790702521928e-02 4.650608713832632413e-03 3.746432938482638919e-01 -9.768454707267461290e-02 1.510493799983340241e-02
-1.118543741330636776e-02 1.448108551479413558e-02 4.752244219489915045e-03 3.753267553445617799e-01 -1.005476323383276416e-01 7.957891972743142903e-03
-7.260706691273065283e-03 3.088791063088364153e-02 6.038164368945747595e-03 3.747978157749018990e-01 -1.001867353667246635e-01 -3.323216997107289895e-03
-6.540751055132401279e-03 9.464619342306442376e-03 4.871806506067860587e-03 3.738081533508817444e-01 -9.868580540763045861e-02 3.353585612768201270e-03
-7.246214961482529832e-03 4.923675434510668691e-02 4.699393094590276210e-03 3.715733622820389104e-01 -9.943089464060461680e-02 1.021407250022308977e-02
-1.340669131595180995e-03 2.612843273089981294e-02 5.312455762244400193e-03 3.729537437511982190e-01 -9.317864321380298076e-02 2.348501311695678356e-02
2.550463465768379803e-03 1.572698008859534438e-02 5.654255296523247321e-03 3.717509583829992637e-01 -9.884465705548808878e-02 3.117297191245422400e-02
-4.022343350923273352e-03 2.108526092827573903e-02 6.296453035816523824e-03 3.724323296467824118e-01 -9.623199239169252794e-02 2.553649370143691588e-02
-7.175281467685036031e-03 4.223555702677665030e-02 5.621724333415512032e-03 3.714080371731864894e-01 -9.867510578396673782e-02 2.497065625004816700e-02
-2.963861753605960981e-03 6.205575899171326959e-02 3.783696326200486348e-03 3.757685966347477646e-01 -1.011783076347327892e-01 7.636939434882806556e-03
-6.235308979434489411e-03 2.923311371174384249e-02 3.942123211206738365e-03 3.761260572012644632e-01 -9.692963322747669141e-02 -1.060086059077726579e-02
-1.045032912722532637e-04 4.139383808341429855e-02 2.499385728437775178e-03 3.751843528564368091e-01 -9.964489686946280400e-02 4.690785677805299134e-03
-7.888174801834095182e-03 3.131060212391445496e-02 3.924335719599825190e-03 3.742939059810228564e-01 -1.015923668312564421e-01 -6.719422335331638393e-03
-7.141903505697531386e-03 3.802733983706014370e-02 3.858161403017618118e-03 3.758726502336295350e-01 -1.002703904311741390e-01 -4.165751940409309108e-03
-1.011790183204122270e-02 1.514023859265215682e-02 4.137324302964873191e-03 3.725583561764302942e-01 -1.007500205704574547e-01 1.194050744380195650e-02
-9.845409400391649801e-03 2.958570608515632624e-02 3.710732823653667412e-03 3.764936681542961350e-01 -1.017030546527791929e-01 1.656235488464815470e-02
-1.379929579226697430e-03 3.151634056312225401e-02 4.396469916428669134e-03 3.722185819564726161e-01 -1.003899485075502168e-01 2.618661887558279555e-02
-5.522893871925476338e-04 4.602378583264672696e-02 3.055947177246221003e-03 3.777370232028233743e-01 -1.072077519629140024e-01 2.532708925990613535e-02
4.486314541258023571e-03 1.147682816836187621e-02 4.815870296603130818e-03 3.761474393974028607e-01 -9.630922461239053989e-02 1.742848495788976160e-02
1.878885947574084796e-03 2.026934517972330332e-02 5.935138919828580883e-03 3.767164604899281843e-01 -1.017356747420888746e-01 4.526987142336538067e-03
5.056792019333363527e-04 9.990678607320094620e-03 4.848979943713027652e-03 3.757070848529052709e-01 -9.750522486228563324e-02 1.878112396439533816e-02
-7.551327947792705469e-04 1.386973946540755523e-02 4.525722483110117267e-03 3.743996194193524585e-01 -9.316849807835674013e-02 1.497746852287496801e-02
-2.916321531007980573e-03 2.087280701982469761e-02 4.514188028669041675e-03 3.749097155898174494e-01 -9.655157864912919385e-02 1.239590369158643721e-02
-5.607203057890895043e-03 2.383337304997120570e-02 4.341296249828652254e-03 3.815067973325113049e-01 -9.314972160473419804e-02 2.517691815997905383e-04
-1.315858037786111351e-02 4.502247151161412053e-02 4.329512915995564759e-03 3.749019325241553791e-01 -9.596014387159079728e-02 -3.628648476708470818e-03
-1.045109191212438386e-02 5.413745111356411260e-02 4.975275339100276861e-03 3.757142174577896565e-01 -9.891394424812517683e-02 1.062405698992829710e-02
-1.678091601264006597e-02 3.127332469653631292e-02 4.550897789475621957e-03 3.746689771287455839e-01 -9.991971513295624940e-02 1.127670725434328468e-02
-2.095280346450158204e-02 5.482791980734445098e-02 4.921891994801363968e-03 3.775894648182268054e-01 -9.946633072611343884e-02 -1.166525491305749930e-02
-1.069947974828600393e-02 5.498697981468766288e-02 3.480812859316090302e-03 3.747132995904238761e-01 -1.022862065128258835e-01 6.675005368239601486e-03
-1.295835209095223123e-02 2.384887875242767616e-02 5.755167319535015036e-03 3.746916399378306672e-01 -1.006020606710124193e-01 7.820802045655593851e-03
-5.149074743599610718e-03 3.120866234730479069e-02 4.241178958674846067e-03 3.746673205603003320e-01 -9.915444928700224703e-02 1.736140728956459336e-02
-6.807377759909217022e-03 2.780702439328144177e-02 4.669721674250310040e-03 3.718833064054614113e-01 -9.810361234776154848e-02 1.648747898952272056e-02
-9.313795210097404464e-03 2.067495206713106451e-02 4.851490860428853136e-03 3.757425809438240671e-01 -9.855676749360099687e-02 3.015326661087831817e-02
-1.286390712441650699e-03 3.130107287459246018e-02 7.195384634369472732e-03 3.713130449999296756e-01 -9.873511048880324881e-02 1.510385204470176927e-02
-2.379495665050114343e-04 2.708383899922025412e-02 5.070092520123192781e-03 3.737575572648462741e-01 -9.455303409903860479e-02 1.741748234880155857e-02
-3.029275202420138920e-04 3.508410910310208464e-02 5.955082437234776593e-03 3.739265646776266383e-01 -9.348767092761339770e-02 1.514358162350722820e-02
-4.101445062559747751e-03 2.302259207665567978e-02 4.142641045379480413e-03 3.733969909881610927e-01 -9.780033355606183865e-02 -8.512473883920925388e-04
-2.318865770853525791e-03 3.163492635442121531e-02 5.114636818310341893e-03 3.748730426880003685e-01 -9.927771266498941483e-02 1.593122535599126102e-02
-8.395149072830447590e-03 3.125835700503038633e-02 4.278525322582854562e-03 3.755892992275141617e-01 -9.858295091228981566e-02 4.236223788993001040e-03
2.341149745472647856e-03 5.043944308971377855e-02 3.229266990296075779e-03 3.770573176108159563e-01 -9.978339628927752891e-02 3.618281789644239854e-02
-6.137602921825930941e-04 2.807443042320829224e-02 5.127942883862368628e-03 3.791146814117261066e-01 -1.010312434197888354e-01 -6.000853731705329576e-03
-1.532609214329041028e-02 2.289394993132274486e-02 4.765539376715810516e-03 3.779397384473355270e-01 -9.996831475456900706e-02 5.555621712641130305e-03
-9.789115741552470613e-04 1.245905834694112022e-02 4.145334962675800705e-03 3.763644351634696239e-01 -1.030624678236919389e-01 1.924940574641273092e-02
-1.078739334366241032e-02 2.776323309695659380e-02 5.289304269331079889e-03 3.728012397118267707e-01 -9.865782758432610489e-02 6.797427813641702607e-03
1.365590241969986008e-03 2.355961775014317819e-02 4.875753216998013340e-03 3.771064710731132918e-01 -1.012718100977063745e-01 1.549595472315711854e-02
4.661913932233098176e-03 3.193278879172928991e-02 5.576985760708058626e-03 3.785823042264340188e-01 -1.054716846840853262e-01 4.797720254465491323e-03
2.997748317324383516e-03 1.344659400927788150e-02 4.578241693310641791e-03 3.769982766462494084e-01 -9.632013328615172953e-02 6.835408997973647580e-03
-7.704952005843223196e-04 2.279243729644575903e-02 7.058426961045277670e-03 3.755950772025606899e-01 -1.013604517659467130e-01 2.078392346017264233e-02
-8.232849308961644880e-03 4.192068677612496852e-02 5.695539815633726688e-03 3.760359131797769705e-01 -9.926278810695358945e-02 1.305759994867861269e-02
-1.021702039140002898e-02 3.765572321351044055e-02 4.235903253325262741e-03 3.753777997416528067e-01 -9.462739354285489013e-02 9.003479863432417574e-03
-8.920681920626259004e-03 4.220865393750208167e-02 4.855129276863684451e-03 3.775567669305558982e-01 -9.630119431715214451e-02 -4.080613608304565001e-03
-9.404646481555180293e-03 4.002964788274609303e-02 4.361924468152783563e-03 3.775619221796130409e-01 -9.495444970741119539e-02 5.682040184516166416e-03
-8.983309761963119422e-03 2.246252652052505017e-02 4.440832020824070359e-03 3.764058552068556551e-01 -9.839422545334759740e-02 1.988477958662349457e-02
-1.630839646789507269e-02 2.203232794002754277e-02 3.165894490405274375e-03 3.788146947381170748e-01 -9.676227128213969741e-02 9.222871402188951087e-03
-1.396838211926199926e-02 3.966254654672587282e-02 3.906308214692039149e-03 3.761318721445660596e-01 -9.935450184733356227e-02 2.485397291247625276e-03
-6.528169299852870297e-03 3.054700101082736749e-02 3.982594636778857833e-03 3.741927818734095412e-01 -9.899963123537458554e-02 5.933978206705529772e-03
-9.584784215322356138e-03 4.736594200417361400e-02 4.513694172131155202e-03 3.712835670962779666e-01 -9.957937530733981801e-02 2.033953228374872635e-03
-1.204281737146248137e-02 3.809078332310468495e-02 4.832186915769642876e-03 3.711470767471160559e-01 -9.790317901049287730e-02 1.156231613324459548e-02
-8.667909928291670646e-03 4.032468073615032289e-02 3.631480325034464052e-03 3.713781781357827771e-01 -9.542501701289592131e-02 3.309679652431010005e-02
-4.353318354179921620e-03 2.910854886786155490e-02 3.870183263512433358e-03 3.734833095973233430e-01 -9.777753001767172658e-02 8.392537545094384821e-03
3.043124277964280415e-03 4.363179771410995861e-02 4.879798862868406362e-03 3.727966771485071162e-01 -9.609791283906660153e-02 1.615858518920494993e-02
4.424628176181758746e-04 2.724934944566916734e-02 6.585874216808923487e-03 3.723272999294294228e-01 -9.436806811650867710e-02 1.091792001809946053e-02
3.571003373236823937e-04 2.970792058474866840e-02 6.142062964343997233e-03 3.716670700637265123e-01 -9.772848950384754874e-02 6.911971069499769048e-03
-1.425055578816884598e-02 2.945362673593181907e-02 3.673922755351249902e-03 3.736712155227826515e-01 -9.694981570029537199e-02 -7.456065061602669582e-03
2.065829792817197239e-03 3.987697724427373414e-02 3.078629896112461406e-03 3.747295439566739605e-01 -9.982050431273395419e-02 -1.721320322050598484e-02
-1.783380154361942707e-03 5.321547620335786988e-02 3.622595471230172226e-03 3.774637259763072850e-01 -9.716460998638865032e-02 2.736006528981766404e-03
9.597364777463861241e-03 3.812213736771904310e-02 3.262719028550353784e-03 3.759308865911682451e-01 -9.552002012171406653e-02 4.149967530040375371e-03
-3.613956594511937709e-03 3.162951789524678231e-02 4.456386589669597553e-03 3.711944606131624136e-01 -9.803296135781543186e-02 2.321167848997305466e-02
-3.964029703208190453e-03 3.087504942186568638e-02 3.274806643641964277e-03 3.784811257982392263e-01 -9.891724069333238112e-02 2.834565476963442354e-02
-4.612031139389401874e-03 3.949355023877625104e-02 4.001631212218970113e-03 3.778709721137982758e-01 -1.022212369777800028e-01 2.171478371411208769e-03
-8.456876689927813120e-03 3.845809813389463455e-02 3.738469318751824755e-03 3.765636476250566189e-01 -1.033365470794311569e-01 3.372109135724999512e-02
8.309726285678874355e-04 6.699740266065250249e-02 4.755487918746914566e-03 3.773841267327028293e-01 -9.873478150012600374e-02 1.176122071943512884e-02
-1.020181601057810507e-03 5.002958362931905767e-02 4.330464195520550286e-03 3.747687236966841806e-01 -9.719973086158463504e-02 2.382929445510950303e-02
-1.509477964770344384e-02 2.179844414615034198e-02 4.117658145805586090e-03 3.749366292492571362e-01 -9.896708341352931926e-02 1.298845157779157482e-02
-1.966573930688034124e-03 2.706273816216258135e-02 5.752343986672292520e-03 3.768663136968041782e-01 -9.343282240735201194e-02 2.841652238494211946e-02
-2.264779989542022292e-03 3.463891572050955409e-02 5.833372951710491527e-03 3.777856099951983349e-01 -9.481858909557892845e-02 -2.813810084298850375e-03
-2.238692174709963970e-03 4.123109981837829591e-02 5.346032784013327044e-03 3.772843048365809304e-01 -9.460068745505467724e-02 5.116552996914467549e-03
-8.338390359597359913e-03 2.067540960756043475e-02 5.091976624873151280e-03 3.776811377279187254e-01 -9.213396985968444475e-02 -1.423878139970893679e-02
-1.122655328181564570e-02 8.543626391457292274e-03 5.371797665205374495e-03 3.787409311395263933e-01 -9.562360589055111937e-02 -9.122268721028550451e-03
-1.112896823578332292e-02 1.489648005269777163e-02 4.473034534657555072e-03 3.770071519541954297e-01 -9.480052772925794125e-02 1.049027378271751932e-03
-1.093611349732953944e-02 3.311029924802008639e-02 4.925133484543237072e-03 3.743754269958295966e-01 -9.732294037908047202e-02 1.761456293233807030e-03
-1.524758396467233539e-02 5.084423764169672399e-02 4.075897596262367806e-03 3.760164458879712290e-01 -9.874445907252810128e-02 -8.206461674709373405e-03
-1.314862313234498731e-02 3.767724832446295302e-02 5.798406800570060637e-03 3.761421780101883439e-01 -9.760776664989143092e-02 1.007854289241976592e-02
-1.471124315604867630e-02 3.599781359187929214e-02 5.298804334427448248e-03 3.764926638663485536e-01 -9.897569058361033179e-02 1.200561728053358389e-02
-9.100848926975923028e-03 2.760492604764875832e-02 5.592302313060043550e-03 3.741266003225060532e-01 -9.583397033187202041e-02 -4.666030263888500292e-03
-7.918960027109248068e-03 3.715987422332069773e-02 5.254566887883088677e-03 3.742178875693586426e-01 -9.086889949104846875e-02 2.996870247089128241e-03
-2.553848552637825748e-03 1.176372138225832351e-02 6.491911939403238740e-03 3.733603859807904657e-01 -9.752099776837321043e-02 -1.018523618493382202e-02
-8.079670270978202284e-03 4.085984747870587130e-02 7.312517377645738614e-03 3.724165368129849774e-01 -1.040679528796583930e-01 -7.338853876162953170e-03
-4.823173070393435048e-03 1.978627745685853159e-02 6.459629973342206899e-03 3.748297626494045964e-01 -9.540533184824348534e-02 1.236927808153547893e-02
-3.637049674088793736e-03 5.465945592204813491e-02 6.328221702492420331e-03 3.730505295171430702e-01 -9.646061433386254880e-02 1.318894315247813066e-02
-9.858746701945390531e-03 5.613989720193097999e-02 5.997646572506398766e-03 3.746076985880830157e-01 -9.744011977924021961e-02 4.037575029616035163e-03
-1.477402731414341312e-04 3.534554894639862360e-02 5.256298622691585321e-03 3.749613266179214199e-01 -9.382145349792175848e-02 1.569813717428923672e-02
-5.388372120449120076e-03 3.946530166011217450e-02 3.945264046434221461e-03 3.736522840898451325e-01 -9.934402489910569567e-02 1.453201405431544775e-03
-9.157126167129492345e-03 4.341913072102971533e-02 5.013993522263754388e-03 3.731067865608453382e-01 -1.005076413252611739e-01 1.031505887384952420e-02
-7.969393438305712868e-03 3.598242421479223851e-02 4.301030321346405172e-03 3.783286214492545541e-01 -9.458259610627815783e-02 8.628118103728141253e-03
-2.319213366068440408e-03 4.040706688067938201e-02 5.343799760570200341e-03 3.756807435882548174e-01 -9.711281821084456756e-02 2.597059425947166947e-02
-2.697686364834577834e-03 5.212725163581195982e-03 5.210503505681474135e-03 3.767265847642596865e-01 -9.590079324943778794e-02 2.215596062123388263e-02
-6.887889140515251899e-04 1.501047914210398328e-02 4.932669616094481624e-03 3.742902465575968507e-01 -9.379039789152396334e-02 1.908262368959919714e-02
-8.098304034466392159e-03 3.518242245311099803e-02 5.435004830994294434e-03 3.756684816783601444e-01 -1.055140442189423239e-01 -5.172230852826755930e-04
1.390339581421748622e-03 4.326596206952174062e-02 4.908095449689592327e-03 3.773455378912510816e-01 -9.615121293178793827e-02 4.741089366142512557e-02
-6.638130399221312157e-03 2.537951750794759792e-02 4.257226351604387338e-03 3.754933116723532249e-01 -1.012881811928606213e-01 1.537046209062497594e-02
-7.865744977634920101e-03 2.787446726600530805e-02 6.124782100114634087e-03 3.774652247577086062e-01 -1.107423043041987493e-01 6.610172082738949469e-04
-3.308330353725505001e-03 3.553829681911423871e-02 5.444570305883328354e-03 3.776125117192337122e-01 -9.851169716613991656e-02 -3.574261147317680208e-03
-1.108157780135016722e-02 1.848997941867622924e-02 5.419850139417925483e-03 3.767901387720077877e-01 -9.893205578350215690e-02 1.271827293462094409e-02
-1.125709490746456751e-02 2.446306105456452079e-02 4.808507425015540182e-03 3.802513488408429954e-01 -9.098737762737116319e-02 2.561270620603255110e-02
-1.097578649541975683e-02 1.170233449000275712e-02 5.042153252114239814e-03 3.777418520314659300e-01 -9.720917723578997860e-02 1.675764517787915395e-02
-1.223578906269890548e-02 2.066917913242735660e-02 4.693472654796471133e-03 3.773753002716259131e-01 -9.670671237358199890e-02 5.345168970645374808e-03
-1.106796091379317129e-02 1.313285852701991975e-02 4.592138233641018807e-03 3.786756616101893957e-01 -9.797735932502898981e-02 2.744611291622765532e-03
-6.542652156604844040e-03 2.701211228406297932e-02 5.187593359551545547e-03 3.765600358093293409e-01 -9.736910954927106843e-02 -1.212505700982109171e-03
-6.502962246531416961e-03 3.932518661086993605e-02 4.656041731308735443e-03 3.796829611168857643e-01 -1.004718427796880004e-01 9.275239041855324121e-03
-9.194152283546818544e-03 4.194347054947558662e-02 5.756874656024923986e-03 3.783713020580068975e-01 -1.004850585750206721e-01 2.282980992433497267e-02
-4.115097553126344926e-03 4.514127397062980135e-02 4.583590132590548150e-03 3.769138676031956736e-01 -9.373281131353398965e-02 1.227964021296741939e-02
-1.961181174876063926e-03 5.910883518091941680e-02 4.914317648628679924e-03 3.756043218905109060e-01 -9.942349237326553180e-02 1.156289634188461223e-02
-4.756074369553432886e-03 3.160763389771112375e-02 5.589940134699211693e-03 3.764596647669467555e-01 -9.701102157838785434e-02 8.355955791619238890e-03
-2.026109269665743191e-03 2.010674228956405712e-02 5.703021313780254342e-03 3.762098733104043968e-01 -9.328252597830731518e-02 2.929493971067044858e-02
2.201286379094151251e-03 1.402141939884476649e-02 7.864157736166610402e-03 3.737544413834389956e-01 -9.473131557589462015e-02 1.096862032840738473e-02
7.313759665253467736e-04 3.282725686908871676e-02 7.128358172801108061e-03 3.756664043121027974e-01 -9.196033945847205404e-02 8.120248629975717475e-03
-4.742753018071715725e-03 2.343252646170511377e-02 5.189260495538611240e-03 3.750683749963700797e-01 -9.561387737111938512e-02 1.956469747212281202e-02
-7.103556597285777281e-04 3.267808769910435229e-02 4.523449840267423916e-03 3.744868701898416141e-01 -9.974296528059239941e-02 2.022902327609972517e-02
6.399916120580927473e-03 5.711213708086958912e-02 3.320359366557362746e-03 3.768697966491896256e-01 -9.706649284480847739e-02 -9.453143359548252939e-03
1.476883891700645282e-02 4.206215463757898704e-02 3.135625969192895601e-03 3.738040190302689414e-01 -9.523657127537418776e-02 -4.599690929146019701e-03
-2.300958448862683650e-03 4.825084159318317190e-02 3.114718241839148360e-03 3.746910051351080573e-01 -9.977870785411896426e-02 2.927792156316364608e-02
-4.791526319718587487e-03 4.107038780469717681e-02 3.141526148428913645e-03 3.761354164907466102e-01 -1.000562473891083576e-01 -2.573492893316038036e-03
-4.790747545527522175e-03 5.480563115458526174e-02 3.596668010584419539e-03 3.751470562462302372e-01 -9.887255578677489609e-02 -2.581376702655667835e-03
-7.006727039504391866e-03 3.535343991338759512e-02 4.421860293119000973e-03 3.765486420930732048e-01 -1.026199951935622134e-01 2.015056965737573556e-03
2.137825500317161714e-03 3.652061658052111609e-02 4.694232798532621542e-03 3.766484771905857509e-01 -9.273941117818003399e-02 3.761659572683598990e-03
-2.250469011510655443e-03 3.906228110659672181e-02 4.803223196066935818e-03 3.773320284536110791e-01 -9.826343348038804604e-02 2.567723376330569018e-02
1.167915598338948322e-03 4.037876586118382960e-02 4.812169279976186154e-03 3.793422408188230621e-01 -1.003435752849637930e-01 1.392683721299572616e-02
3.083590891484959406e-03 3.545827812904133597e-02 6.321279765923337735e-03 3.789441784775214872e-01 -8.761441942630562862e-02 6.308763403599469168e-03
-4.814911084209983448e-03 5.787545907183846289e-02 5.751097511318553623e-03 3.768461729191828757e-01 -9.846065608178748707e-02 7.193970988190049806e-03
-1.121984907618774107e-03 2.932315973978390569e-03 6.386434705990845506e-03 3.814164938874549660e-01 -9.757705347897230319e-02 1.517334424785837105e-02
-9.552958048033268618e-03 3.077195895878903631e-02 3.746408413051488528e-03 3.789610687424209146e-01 -9.555559937578637919e-02 -4.209147364943043555e-03
-1.766564101468082876e-02 3.297677496466167729e-02 4.732293262212611262e-03 3.758639061851744567e-01 -9.893611045771319445e-02 -7.758361347918959344e-03
-9.569584325272918746e-03 2.027732761246980181e-02 3.996730873958548313e-03 3.826484429170853296e-01 -9.242542159987211792e-02 9.266989503216903692e-03
-1.155200080045711009e-02 3.988902947772364482e-02 4.511510321291267722e-03 3.768699797535240426e-01 -9.641357668710991147e-02 5.811090522845831392e-03
-1.603720076292303523e-02 2.897153563699349579e-02 3.597004884412113856e-03 3.775190190432261561e-01 -9.964968610908526980e-02 1.068778561843531510e-02
-7.955501972591247362e-03 1.723610489405138363e-02 5.338844991364583015e-03 3.755918644265636153e-01 -9.982981004820502824e-02 9.967713647222401982e-03
-1.412504551307293063e-02 2.883939767511644811e-02 5.823865852335519122e-03 3.750220711094942039e-01 -9.841643913111754183e-02 -4.691575264287892698e-03
-8.036414912056965079e-03 3.314107648896444380e-02 5.815751156803411481e-03 3.721076652765526460e-01 -9.842922024974205819e-02 -5.278947452268522959e-03
-4.577061614919239116e-03 3.717376370573143018e-02 5.698566621453876602e-03 3.728658889766321982e-01 -1.012046696630293369e-01 -1.015993175908832050e-02
-1.954658739910843709e-03 -5.697606656215130870e-03 6.194072095918184973e-03 3.750854216483436310e-01 -9.343853078557114167e-02 2.164089372616728735e-02
-4.675117302556032646e-04 -7.155764395477489954e-05 8.324638375672821500e-03 3.712368576431640532e-01 -9.734316673595390379e-02 2.119812310307592901e-02
-2.621102450842727020e-03 3.437714005103175569e-02 7.713567597362469552e-03 3.737232407292401803e-01 -9.642028345092763797e-02 -7.193329641438840237e-04
-5.171778517234672766e-03 2.292841032930875364e-02 6.966439471555396779e-03 3.740554369679718327e-01 -9.363594646734978155e-02 1.003708188216132641e-02
-4.447988900160656026e-03 2.797733511969421535e-02 5.614965954941875115e-03 3.767442991796716711e-01 -9.893646970899114268e-02 3.950594804973638074e-03
4.263436550250976516e-03 4.506479908123491029e-02 5.167637373732963946e-03 3.774825923642485259e-01 -9.532979730279664277e-02 7.005763349257838717e-03
2.369696592711035762e-03 4.079429081601297635e-02 4.365890580326825532e-03 3.761609264422503540e-01 -9.887350778732209577e-02 5.503169708968607375e-03
-9.409907452143489439e-04 1.654475519665758732e-02 3.906309450527806204e-03 3.768412270742317327e-01 -9.812161083018051955e-02 9.629273266871450979e-03
3.460847177696539309e-03 1.577578057889457777e-02 3.371917905661853121e-03 3.789026403299343704e-01 -9.549992174151547553e-02 9.943414715318333458e-03
-5.777057124366123675e-03 2.542992261248884153e-02 4.731267547181117195e-03 3.760900899147079368e-01 -9.591876051847558760e-02 1.392617283439819172e-02
1.145334844090058939e-03 2.343530430015583824e-02 2.766955847466501250e-03 3.763385702575610114e-01 -9.948062515478392487e-02 4.507182433911995946e-03
-2.202251808420527691e-03 3.774847163312398945e-02 3.110360557836949758e-03 3.706319018529188880e-01 -9.395860716717789607e-02 7.663470079726733379e-03
-3.528376092520777666e-03 3.611075062486093779e-02 4.846790057649014161e-03 3.752469581908533525e-01 -9.533446958225456902e-02 -4.248705577051579453e-03
-6.151021696759816082e-03 2.214068385180706713e-02 4.963297227188107064e-03 3.789759870613511605e-01 -1.055585904583813267e-01 -5.330262469982429384e-03
-4.835929505391105797e-03 2.401567599348827103e-02 5.216328191920110990e-03 3.781885516513935896e-01 -9.455498695418355914e-02 -5.212131934365699451e-03
-5.863032018614979142e-03 1.757051172267374423e-02 5.379815345328664566e-03 3.787333021433771929e-01 -1.022298538028405812e-01 1.181935213049732213e-03
-7.623472678352781126e-03 3.127751174463695022e-02 6.761903155899140483e-03 3.777143052156951564e-01 -1.002029468431075432e-01 1.493754437225078974e-03
-1.254224621467647923e-03 2.144646899890042743e-02 5.442317390646961295e-03 3.781036838510047904e-01 -9.400941491336468891e-02 5.260812713149447609e-03
-2.591160529390374324e-03 3.540257506271895366e-02 4.398432523338241529e-03 3.753665784141665407e-01 -9.785435215951701626e-02 -5.404255469778922096e-04
-1.229923739391105067e-02 4.316202581326571142e-02 3.592124785330191861e-03 3.782556416825355594e-01 -9.464167670829440326e-02 -4.895289518990389444e-03
-6.534143630713832793e-03 3.832638382220435874e-02 4.517480352254077403e-03 3.722353102551925752e-01 -9.716927302793448851e-02 -9.428752741568600243e-03
-4.450076844773778566e-03 1.828098556501297697e-02 4.036103040685634635e-03 3.741779018036370252e-01 -9.700674197466248316e-02 -3.565610755051055840e-03
-8.190243805740718766e-03 4.957603206289674241e-02 3.919070914985917087e-03 3.778212467659321505e-01 -9.719711069299501183e-02 -1.606638348011517684e-02
-1.103153775411059440e-02 4.830086155634630979e-02 4.215473155885579581e-03 3.758938031749430309e-01 -9.922945386580409033e-02 -1.644452526827592728e-02
-1.235106506036111503e-02 6.221034190102984335e-02 4.202421803183947757e-03 3.732102368473630971e-01 -9.991709432009066028e-02 -4.012589183379599266e-03
-5.337456491810122980e-03 4.194827192953850398e-02 4.557105229044150496e-03 3.764333555320571456e-01 -9.916553908636931147e-02 1.326289606787265166e-02
-1.335080823274238833e-02 4.740089829035153829e-02 3.885494045769849469e-03 3.739993344869429470e-01 -9.959985427511207356e-02 -2.844542775654813893e-02
-5.495865908493496529e-03 3.202371756964392940e-02 4.695283273144890135e-03 3.747414657397194482e-01 -1.039102324561259616e-01 -1.320621459649588651e-02
-2.822985584376327788e-03 6.986183117296798639e-02 5.068295247950244109e-03 3.724431619569119056e-01 -1.026619799897021540e-01 5.409364040167050948e-03
-5.584146324245115034e-03 4.309947433262514144e-02 6.158979113684709406e-03 3.707152174355641816e-01 -9.712323055507167402e-02 6.327393905455063958e-03
-6.582997091233799315e-03 2.266399541304506965e-02 4.947330405642630380e-03 3.732755666409837692e-01 -9.751271019711493793e-02 2.011802885940019298e-02
-8.078786572063709681e-04 4.058712731606861635e-02 4.759414858260729853e-03 3.758907086482495830e-01 -9.208117369746092462e-02 -2.472838561427753018e-03
-1.360823568793721391e-02 4.474374565927546205e-02 2.820463740184520063e-03 3.738962742315445897e-01 -1.004892081725147907e-01 -8.133657199590002161e-04
-3.987463592721654645e-04 3.490370821667389267e-02 2.500296680165881025e-03 3.736810782131856912e-01 -1.000151834880437102e-01 -1.550922983411981253e-02
-1.238252903988794687e-02 4.120593726063720430e-02 2.433991510162825112e-03 3.765066503821647426e-01 -9.958017332821922363e-02 -1.314352733595771511e-02
-8.837053965124174251e-03 3.581366108080782235e-02 2.327880868658621649e-03 3.737448100181518518e-01 -1.017425846372791154e-01 -6.805107823837008504e-03
-9.786941259984967972e-03 2.698213265365162830e-02 2.700693555372030152e-03 3.763749865344283019e-01 -1.011121827441572585e-01 -2.388432018002087029e-03
-8.445911569818466890e-04 2.911111839871150658e-02 2.672002834930159443e-03 3.737378468156744016e-01 -9.989868437958293601e-02 8.161576986763178360e-03
5.101800847796342762e-03 4.031609016804785922e-02 3.155776719283909237e-03 3.754025719416008156e-01 -9.814209958218286789e-02 2.691768451226841247e-02
-4.967515891901409970e-03 3.608757168536826793e-02 4.331318362652575304e-03 3.716664027496613953e-01 -9.351026941664759840e-02 1.937858856361448709e-02
7.853909172460260546e-03 1.882032869180436802e-02 4.400961276551318413e-03 3.773208334874343373e-01 -1.013944005024985939e-01 3.230556764806094550e-02
-4.758947407892876943e-03 3.984879224233256467e-02 4.835387613891461989e-03 3.747309036075870958e-01 -1.065390925295775781e-01 1.298884122901889770e-03
9.076431139914626148e-03 2.724131063426210586e-02 7.125478753506025997e-03 3.810095730164525518e-01 -1.003280828414861575e-01 -1.182110311684647988e-02
-1.007900912873989883e-03 2.473907488549450390e-02 4.323907887792882709e-03 3.740916179079327164e-01 -9.621793343805197518e-02 -1.539108745515528620e-02
-4.632326130657063272e-03 4.035135469305925482e-02 4.382480292143220435e-03 3.750567939376298066e-01 -9.768452006996718173e-02 1.403055111259135859e-02
-9.966117581091732056e-03 4.519022271833232629e-02 3.534503685873102707e-03 3.715939003047024625e-01 -9.756370564034488879e-02 9.801971956907866781e-03
-9.948911651027975839e-03 1.384021313165496696e-02 4.881787825313871343e-03 3.740706151525468037e-01 -9.561745007801684959e-02 1.198690486648150769e-02
-1.244865227500936526e-02 2.357152455110900213e-02 2.520140173529916705e-03 3.718312674543621243e-01 -1.023819457326890503e-01 1.625662980489002429e-02
-1.314177930532031344e-02 5.910771019882111316e-02 3.010656368183872722e-03 3.726371509366644408e-01 -9.781052478205852496e-02 -8.745381505648174578e-04
-1.280354950027790852e-02 3.388200851340630176e-02 2.697925616006985328e-03 3.757342048346257735e-01 -1.017822472243152948e-01 -6.929832433527644692e-04
-1.750941956510682941e-03 3.260960898916581696e-02 2.412629999105853074e-03 3.743929913378851726e-01 -9.953190564030288401e-02 3.039847494790700808e-02
-4.923266270011418533e-03 2.614958376339431359e-02 3.951060898657293707e-03 3.747476102521112296e-01 -9.705751670468613923e-02 1.915932593478140988e-02
-7.664497799346207431e-03 1.989241964513461386e-02 2.216326867825385571e-03 3.737566193517289914e-01 -9.806108870532256883e-02 2.068859912835810735e-02
-3.461208626555246394e-03 2.535182182945832502e-02 4.575050236791888825e-03 3.749061472606116108e-01 -1.045584390694046795e-01 -2.944923282725588065e-03
-4.277808056846070517e-03 2.536488468483408254e-02 3.224533301763671256e-03 3.775881013018117516e-01 -1.002102067035341992e-01 1.251933668256528971e-02
-1.187663825763561262e-02 2.976239549013620644e-02 5.958465007235902444e-03 3.715683438779021075e-01 -1.055866882838448068e-01 -1.481609493724165118e-03
-2.270830405843416811e-04 1.902085950695901403e-02 5.703928412125747194e-03 3.727274938921518177e-01 -9.824570405436523768e-02 2.705150856668599516e-02
-4.958564119373998907e-03 1.622095879933129620e-02 5.226523450674119831e-03 3.745438646664432936e-01 -9.678204663981643252e-02 1.039397819377212324e-02
-9.002621545894698082e-03 2.174855523640636251e-02 4.959604921469129568e-03 3.721272027928134718e-01 -9.880643963583223000e-02 1.467513904165373625e-02
-1.042920259721152182e-02 3.908298414592708409e-02 3.795790175447899539e-03 3.731312102352350446e-01 -1.015885956933930273e-01 1.860173773312855106e-02
-9.544583295311857146e-03 3.746770409881872849e-02 4.095114083229656199e-03 3.742547586721879371e-01 -9.733210261479914582e-02 1.515303082933067320e-02
8.212655125855139807e-03 1.621359023237526481e-02 3.736130012915811482e-03 3.763462667459817612e-01 -9.677907071600266864e-02 3.039006842747630013e-02
-1.555161596350697513e-02 1.932065222849290234e-02 2.711323561259304515e-03 3.802028978339396792e-01 -1.036863416846915409e-01 1.739650831694936582e-03
-1.366092071371993732e-02 2.757448148087145862e-02 3.099637406236838144e-03 3.788988081799717356e-01 -1.034155751363046577e-01 -1.740248348142526755e-02
-1.204475296844211701e-02 2.444066389996044433e-02 1.325711441139659774e-03 3.775940279607713501e-01 -1.088137730829929622e-01 1.349218095187017068e-02
-1.060111588866935808e-02 4.759652728328503390e-02 2.561433531385853835e-03 3.782073482792455699e-01 -1.065944986776404813e-01 8.675800215439767593e-03
-1.115222053055399745e-02 6.194079867113608945e-02 2.902187961017155260e-03 3.727225795793219776e-01 -1.029966037027010006e-01 -5.396592669577480669e-03
6.189570171127809113e-03 3.686206385440442268e-02 3.492805832706225022e-03 3.731228761549833517e-01 -9.737718565678900318e-02 8.160798984917899332e-03
2.977665836964676384e-03 2.153696556118770214e-02 3.880362552969723877e-03 3.731275887677592551e-01 -8.902714517807860939e-02 8.278793420920067467e-03
-5.639412007995416726e-03 2.454480737500428292e-02 4.565244954348596229e-03 3.711335882953676335e-01 -8.898354998677510119e-02 -1.835342549677082893e-02
-4.672209840508840563e-03 2.249989659721459909e-02 4.742581316559912885e-03 3.758369850786734689e-01 -9.383616673012831755e-02 2.441304206821504844e-03
-6.433858262789906787e-03 2.536005984398189902e-02 4.463792639614216906e-03 3.770540636071457730e-01 -9.224952454536793078e-02 8.595391086102547804e-03
-6.630537515807667127e-03 3.142715496974794048e-02 5.399004417782765630e-03 3.766727480133743589e-01 -9.195924106640507301e-02 1.696079659201805631e-02
-3.006334379710886694e-03 2.397556792740744569e-02 3.491971220686895805e-03 3.794194371558458068e-01 -9.533552062781518177e-02 1.118581383272426559e-02
-1.430160132621457678e-02 2.367964083417684051e-02 4.214559347103907783e-03 3.820772807653549097e-01 -9.464214281465289924e-02 -1.571951121359748543e-02
-1.423294016747111979e-02 3.888526687365212453e-02 3.600638324695676351e-03 3.777916246531434763e-01 -9.651138571344702877e-02 -1.155211122821699250e-02
-3.524664967271240804e-03 2.974584479899893344e-02 3.598725971146743419e-03 3.763717786441233004e-01 -9.896396601465652643e-02 1.655336611455789433e-02
