-2.016827417288125368e-01 -5.341491209807550794e-02 3.705673847732354753e-02 -1.443448621514154817e-01 -2.064715056146372019e-01 5.007640695221941135e-02
-1.744395860757781969e-01 -4.254662644185314146e-02 3.707261756373991801e-02 -2.031971942509396278e-01 -1.860010813538646446e-01 2.954047678590443135e-02
-1.479645845705826468e-01 -5.171760911221062740e-02 1.283538251265420316e-02 -2.028583715805049870e-01 -1.156403594245088706e-01 4.135703541851314113e-02
-1.247586407184169965e-01 -4.407136389160393880e-02 2.529540013606346172e-02 -1.628703518599748101e-01 -7.991145255315214302e-02 3.641451095174184915e-02
-1.074261328701779372e-01 -4.482857839132368960e-02 2.003258783425582168e-02 -1.418638721829165728e-01 -4.122076111208295562e-02 3.401301435138201490e-02
-7.979510278512753907e-02 -3.533331827974160733e-02 1.471799747435875716e-02 -6.566296565617074643e-02 -5.152870784907623986e-02 3.440822836399527046e-02
-6.324134726041516497e-02 -4.024203414855841848e-02 5.963036305371316459e-03 -9.954070041443045802e-03 -9.333874629926709743e-02 3.080551620482593900e-02
-3.704854091836785879e-02 -3.897101696178287278e-02 -1.289940977752418449e-02 -5.173047611400480306e-02 -1.550747699084705777e-01 2.994257839593605225e-02
-4.911354613299299954e-03 -3.520862926037864049e-02 -2.563484767019080790e-02 -1.508078082005941400e-01 -2.522672074085637872e-01 1.744742503533401601e-02
1.384013890687514278e-02 -4.429271278841192400e-02 -5.667126145321788044e-02 -3.177034603664526946e-01 -3.532742167393503330e-01 2.871701169929020622e-02
4.506169936942409915e-02 -2.803621015896118687e-02 -8.866516795738532686e-02 -4.265175653321970350e-01 -3.458050803715964072e-01 5.791493569803667779e-03
6.608449283545721198e-02 -3.896851876238308088e-02 -6.170433422228954745e-02 -2.637858209819798905e-01 -2.358889687539149072e-01 1.526236828704629830e-02
9.484487936886659698e-02 -2.754150552499929142e-02 -5.820012763846915682e-02 -1.706090836172253211e-01 -1.411074542369664953e-01 -1.799010332555318762e-03
1.177501815779198879e-01 -3.982104170600672677e-02 -9.474354333869222655e-02 -1.862941621102342515e-01 -1.433461289322499055e-01 1.095828459635291713e-02
-2.680215519896165244e-01 -4.626747359137026172e-02 7.003212094683131106e-03 5.926212014515274129e-01 7.333994504779525747e-02 5.864657518603878794e-02
-2.490567557753721739e-01 -3.278782472401961523e-02 1.681047004955310564e-02 5.764699592002811013e-01 4.239358015739353586e-02 5.750321821233060626e-02
-2.171044073558255905e-01 -3.406248250253636478e-02 3.550148618744780604e-02 3.416317474524392939e-01 -2.298884285284494636e-02 5.249561945879911012e-02
-1.919721663881955309e-01 -3.852053771107454699e-02 4.697478345745026429e-02 1.772052450428114045e-01 -2.660663591137391384e-02 4.575722844882574442e-02
-1.703573150692564986e-01 -4.170581761748014260e-02 3.457584224131299289e-02 2.296535199852312581e-01 3.405427625309872391e-03 4.728860166308651580e-02
-1.418100261935402451e-01 -3.793948319771436872e-02 1.607883290248507402e-02 2.678590300709030592e-01 5.054553710309444420e-02 4.149866463178270709e-02
-1.170707606011576196e-01 -3.807373361335088940e-02 2.308497674912463049e-02 1.729783956124240352e-01 7.603901839280466368e-02 3.903801780915506364e-02
-9.740091691850008560e-02 -3.402207998456027727e-02 2.016365573110728837e-02 3.355687078126751849e-02 1.129975156317014617e-01 3.269986018961699992e-02
-7.503205941402965595e-02 -3.626468852385363040e-02 4.628054110028645418e-03 1.101307678747700039e-02 1.419556282171861306e-01 3.536989888099607848e-02
-4.661867898764691931e-02 -3.978019799414448526e-02 -7.946867015426906100e-03 1.331700608704083633e-01 2.384567919177861262e-01 2.732753643008919292e-02
-2.083174011410702381e-02 -3.679664135531025143e-02 -2.375432787581793770e-02 2.846590447013106484e-01 2.823837853068180137e-01 3.469967796281852451e-02
1.316361211126586966e-02 -3.529694912443616384e-02 -3.887350790392174460e-02 2.293436246620284280e-01 3.121014646507797585e-01 3.260381466890724389e-02
4.158184270187033349e-02 -3.746392453058360744e-02 -6.518395845868091287e-02 1.409770439461864311e-01 2.238003416143882762e-01 2.435457488852520169e-02
6.791885542323809755e-02 -3.470657890544169566e-02 -9.548678588249220889e-02 8.019202783477513696e-02 1.653126524132979558e-01 2.445476588464305309e-02
9.142929859224607769e-02 -4.134603939546521029e-02 -8.324723186733973268e-02 1.232591101109169057e-01 1.007338436401215426e-01 2.844028795115918426e-02
1.144353453564538325e-01 -4.253368171049306395e-02 -9.380334034945247978e-02 1.695552495076688704e-01 6.569409981892940231e-02 3.827115932495745582e-02
-2.375212903051586444e-01 -4.926560839428446859e-02 5.736156110803980468e-02 7.034395750418465099e-02 1.233535882810408851e-01 2.713635959906384593e-02
-2.066845043663179116e-01 -4.167336369570803778e-02 5.481126299489913478e-02 9.452609141610460175e-03 1.505671935478447021e-01 2.907387593986374488e-02
-1.788324749769852340e-01 -4.110342183684700945e-02 5.693022077751314081e-02 -9.165189590205171863e-03 1.770723117389692569e-01 2.697058085118113346e-02
-1.530311975102068012e-01 -3.971677345679824889e-02 3.336925460488437967e-02 -2.478267430553621892e-02 1.900639147676791707e-01 2.690019565133608057e-02
-1.322675175027135386e-01 -4.421453292344324632e-02 2.414179523398424232e-02 -1.088514187902125778e-02 1.656122099440608675e-01 2.390904323909309043e-02
-9.994241654419881715e-02 -4.323889506465855570e-02 2.939778049609870214e-02 -5.690301164504948765e-03 1.459710027306040103e-01 2.917771808331985628e-02
-7.665716049589010872e-02 -3.281844985699557127e-02 -1.085451112642243920e-03 -6.730490848558882966e-02 1.240457585054058620e-01 1.815994459802814515e-02
-4.762234114263830254e-02 -4.695968943059514178e-02 -1.442512913629884208e-02 -1.369950845946901474e-01 1.344709828032843724e-01 2.773255571408352743e-02
-1.600267443943524659e-02 -4.459204852919527312e-02 -2.666381617821983463e-02 -1.254742474655343443e-01 1.072586931076565941e-01 3.543318867854255289e-02
1.907288574204145035e-02 -5.236468407701923289e-02 -4.193719573190585193e-02 -6.946436824805574117e-02 1.341122095413375681e-01 2.435819673946764546e-02
4.852786066986104763e-02 -5.037102619958047645e-02 -5.144029799156885074e-02 -6.357336524326877292e-02 2.102839339864613633e-01 3.073972635048045562e-02
8.128209315143025693e-02 -6.734999807803482286e-02 -6.952395683121753711e-02 -1.072765856896458897e-01 2.806121618347116597e-01 1.543030835298138045e-02
1.146798418812087494e-01 -7.627325567214576774e-02 -6.689479639889667206e-02 -3.769633952729762455e-02 2.797897318424520940e-01 4.303178812459231353e-03
1.371087790661615069e-01 -7.797923304158956015e-02 -7.547377322017323475e-02 7.346034524583960890e-03 2.175756383771289271e-01 6.247370817270832960e-03
-2.207671024232287782e-01 -4.942449339858775298e-02 4.453503457192181658e-02 -3.216043814008976570e-02 5.284621207873340526e-02 2.541818886857148685e-02
-1.923111917193251474e-01 -4.927913136760814217e-02 4.400488844932554100e-02 -1.672970720478529627e-02 -1.478965179324526419e-03 2.777943306759899852e-02
-1.650016632549995421e-01 -5.252323439346888445e-02 3.700461833377405307e-02 -1.096296157495176976e-01 -1.792200465785694780e-02 2.277967947987556696e-02
-1.370957369404488535e-01 -4.732328985004551763e-02 2.078598883418092402e-02 -1.621987150062461358e-01 -2.595227220121648290e-02 2.123542346307692730e-02
-1.116782038489584766e-01 -4.528168886872491194e-02 1.561066732029658954e-02 -1.499163760485288377e-01 -4.230002875178493632e-02 2.221127550800092512e-02
-8.445597051243847186e-02 -4.924906507820926010e-02 5.084588495501307648e-03 -8.290108616073378622e-02 -1.014870388780387822e-01 2.199295975751199700e-02
-5.327885426342524045e-02 -4.661258908790123084e-02 -1.255562088351841465e-02 -5.616884020513880638e-02 -1.288988798017547122e-01 2.039145395090524032e-02
-1.665230214249375021e-02 -4.676567658211064349e-02 -1.602904023329471128e-02 -8.220470772006829852e-02 -9.201207191421383047e-02 8.424621078909982907e-03
1.091090698869458253e-02 -4.430231156530871350e-02 -3.996792353472083947e-02 -1.140344177110332868e-01 -4.855116619869889738e-02 7.149559641522995959e-03
4.017122196263486766e-02 -4.499895130893257628e-02 -7.187828868508772118e-02 -1.048309084753622777e-01 -1.047789321637569299e-01 -6.770855928187334604e-04
7.021465306510926707e-02 -4.185366933452076138e-02 -8.350124417008680799e-02 -9.827555085699306303e-02 -1.225575152050995820e-01 6.460579437092353779e-03
9.745309523927159212e-02 -3.988682818632328930e-02 -8.746045477730235440e-02 -1.419947150724256424e-01 -2.051039314946772815e-02 8.806525391021244840e-04
1.315897012099702668e-01 -4.269897914066136252e-02 -1.337553622959967714e-01 -2.315737569974305465e-01 6.080045102451974576e-02 4.316792888013351939e-03
-2.274727390227983259e-01 -6.003157607993610256e-02 7.476157699071134255e-02 -1.733963642822169693e-01 1.437237323820320378e-01 3.243739238376307926e-02
-1.991368298723465158e-01 -5.602794156051970481e-02 6.132604216131870567e-02 -1.317586621990009810e-01 1.238322791859694100e-01 3.326691308982094447e-02
-1.693547302853195824e-01 -6.014507252223845468e-02 3.602170806643267831e-02 5.237885508411261291e-03 1.704837355007048083e-02 2.970345578594803942e-02
-1.413509647121197199e-01 -5.524240038410867248e-02 2.126792876119959486e-02 1.926349764399788028e-02 -2.302386001724117393e-02 3.466074165121112854e-02
-1.068122185954558379e-01 -6.071145538661837371e-02 7.612273261514701517e-05 -5.395725500066066160e-02 -8.933497415234704919e-02 3.530522542127711300e-02
-7.716993933435040143e-02 -5.356784481624445038e-02 1.289623504448389468e-03 -8.648325863129469049e-02 -2.817660052272157739e-02 4.348104195370143532e-02
-4.483457036547233709e-02 -4.987882918185308073e-02 -2.733136884743625483e-02 -6.899247773145140983e-02 7.132273223480008195e-02 4.006634205403594023e-02
-1.499318962180572895e-02 -4.669761483256432144e-02 -2.864058259190077615e-02 9.844746745755963979e-02 1.430182865072915921e-01 4.386404642565040757e-02
1.576727067151643957e-02 -5.148347763769908075e-02 -3.448917857077565818e-02 1.655768168865863754e-01 1.908729591869692543e-01 5.131005169260994397e-02
4.597794094208279558e-02 -4.686866064744267535e-02 -4.347046214846378431e-02 1.919285517654155671e-01 1.997604775121943621e-01 6.043298752309914090e-02
7.539441721759360115e-02 -4.218289416848439166e-02 -6.473537849813876255e-02 2.067311139042382895e-01 2.789457160450962703e-01 5.622395929049971153e-02
1.109787992562730891e-01 -4.688344516681119956e-02 -9.601407794335831136e-02 1.298856986445768580e-01 3.301787200087706875e-01 5.137981209936971772e-02
-2.412943963904897460e-01 -5.638667711045816655e-02 7.135432009692488364e-02 -2.723924162962884088e-01 3.337460552398943681e-02 5.002772818215411171e-02
-2.105178806446376949e-01 -4.903199951912959320e-02 7.097519978450184119e-02 -3.186785001541015960e-01 -3.147091041275829060e-02 4.641002598482452113e-02
-1.787016915800609118e-01 -5.297518662873781231e-02 5.476023133983176638e-02 -3.141092996259416403e-01 -8.570420817644912315e-02 4.154109322938585175e-02
-1.467299225531001339e-01 -5.522477243438087685e-02 4.255788500190926804e-02 -2.329078124958153251e-01 -1.458399614972049063e-01 4.412740218406852044e-02
-1.180396076186537718e-01 -5.064910753256003650e-02 1.937163318065282525e-02 -1.432345812917334149e-01 -8.040403972488488482e-02 4.030042575496806112e-02
-8.499103732309126746e-02 -4.685410327458374574e-02 3.241329106770829416e-03 -1.710676022404252483e-01 -3.599274495797170903e-02 3.376631503877828427e-02
-5.357527123227349974e-02 -4.923348677178417121e-02 -5.411520596934671357e-03 -2.069821183302066880e-01 1.726117556169275147e-02 4.197241914435400484e-02
-2.156923632724599624e-02 -4.086931533914983650e-02 -2.446922259203854200e-02 -2.539341680112234823e-01 2.602913640207596413e-02 3.773936557098525602e-02
7.080442150017386693e-03 -4.367500169745021366e-02 -4.795734655694516846e-02 -3.011804036271123475e-01 -1.432039673484809990e-02 3.991916474604007004e-02
4.581915684307046738e-02 -4.449388143568924758e-02 -5.693764873183448927e-02 -2.812908965931650296e-01 -2.867560250124700800e-03 3.241540016993928186e-02
7.876607372902674764e-02 -4.128492000488584446e-02 -6.786616027458192146e-02 -2.433712976978434361e-01 6.849050014367446225e-03 3.497488857815072433e-02
1.148515119664964418e-01 -4.011271371910086342e-02 -7.718065526769854467e-02 -1.784635727550456796e-01 4.560470107685084956e-02 2.721650679794572480e-02
-2.530909748216368937e-01 -4.592273526912413889e-02 8.293775611785864088e-02 -3.544658295474761855e-01 2.667429242967992997e-01 1.305413799179276114e-02
-2.191506647556336618e-01 -4.415461466446123084e-02 5.208603227163949301e-02 -2.714047427415458569e-01 2.276278795735607319e-01 8.297203826158401629e-03
-1.887906395599116827e-01 -4.586239422659869197e-02 4.623949599025961588e-02 -2.012269813658097428e-01 1.617670519344193980e-01 4.614587670129741484e-03
-1.539716637890720385e-01 -3.480852666432396325e-02 2.361012558310504605e-02 -1.848555964631417026e-01 1.640309172315699837e-01 4.899142850642454472e-03
-1.207066748105828785e-01 -4.597412318001843634e-02 5.603841922004249021e-03 -1.749871796794045531e-01 1.372505573414099511e-01 -1.704545418426828361e-03
-8.688017628212971188e-02 -4.019663934275062578e-02 -9.758961928675480291e-03 -1.446084515132409765e-01 1.085981060176517965e-01 3.754353078048451586e-03
-5.525631456663598895e-02 -4.193974841066998999e-02 -3.340717637168477694e-03 -5.967727160862546648e-02 4.276812058873378369e-02 6.895886591491937403e-03
-2.023097039099296460e-02 -4.866379613266905851e-02 -2.603392883902100330e-02 9.998858266836660458e-02 2.563602063651076318e-02 9.689023805816635374e-03
1.294347542912827401e-02 -3.262540393221226992e-02 -3.419880496588545427e-02 1.684166969415880344e-01 5.801044617822188193e-02 1.105606012330631084e-02
4.466712082486756774e-02 -3.898232851981081604e-02 -3.414212442915176560e-02 2.022674688955167777e-01 1.048893072126089315e-01 1.278785273523861885e-02
7.817337192581491623e-02 -3.980369155339629622e-02 -3.018926757281586992e-02 2.704024895123757211e-01 5.648101934655913592e-02 2.230429755401445654e-02
1.124196085442734777e-01 -4.220457655354315635e-02 -3.407706317605752044e-02 2.910262379848861936e-01 -2.689676542887803074e-03 3.034315764041664934e-02
-2.346584148061824637e-01 -4.486874861372119883e-02 3.992069899302214120e-02 -1.220414382425615701e-01 -6.346235894475220352e-02 3.957438459683793042e-02
-2.015409680057832775e-01 -6.444932858207727544e-02 3.419417502127192199e-02 -7.902150313059076725e-02 -1.949678363445655482e-01 4.402785133261017531e-02
-1.662048471566927310e-01 -5.674840236249810432e-02 1.149888050349623381e-02 -1.200006989523784776e-02 -1.434464780042241649e-01 4.866150027500672909e-02
-1.335708277679321654e-01 -4.320094829068699821e-02 1.178594939091720528e-02 -3.904743836541177404e-02 -8.194056216320855235e-02 4.239917784127165273e-02
-1.032159703818537611e-01 -4.961337194056045230e-02 -2.173020790926794010e-03 -5.938788425036371083e-02 5.040078919478616776e-02 4.075175624095105781e-02
-7.150274013558922948e-02 -4.905464424858205219e-02 -7.691607007843492827e-03 -1.601592736833200303e-02 1.103712387807063711e-01 3.773383924476688550e-02
-3.504685561643852698e-02 -5.283168252916633362e-02 -6.067424781641073128e-03 -4.360164911147396821e-03 1.435458943526018716e-01 3.545016300229425488e-02
-3.739326818643314010e-03 -5.892291976487031707e-02 -4.624853026187147886e-03 -7.746809491902388600e-02 1.163046657866948358e-01 2.601905405210566680e-02
3.057451530589672464e-02 -5.602115938324590816e-02 -2.748491383726930914e-02 2.229722094746899082e-03 1.277919785485474580e-01 3.888534901641226005e-02
5.610502792334954442e-02 -5.868977170159549173e-02 -1.772409734931862380e-02 6.728226188207812875e-02 1.375809289395386326e-01 3.571257635551342013e-02
9.552318138543117176e-02 -5.384414157413884572e-02 -2.631357857039307024e-02 1.843238067669112495e-02 1.832057144878308230e-01 2.621970915713166955e-02
1.278885020753402491e-01 -6.580036047058050730e-02 -5.102957412845032792e-02 -6.103595427691350939e-02 2.059555778172894869e-01 3.504221606923647869e-02
-2.316996492342288383e-01 -5.142424647240200625e-02 4.838802985129231349e-02 -3.616796166776594101e-01 2.881962622078213312e-02 4.003769636174363093e-03
-1.989193696762135144e-01 -6.987135054140926338e-02 3.340279450726413302e-02 -3.264503274963380663e-01 5.973674979658728096e-02 1.163788743266090490e-02
-1.587773324091521499e-01 -4.527558881440002514e-02 2.313707008493620654e-02 -2.517376085391234142e-01 1.192332860845638776e-01 1.654548317948832236e-03
-1.212817070292431382e-01 -6.123244394798929569e-02 1.495737126694185459e-02 -2.033301853275248650e-01 1.100462758532910340e-01 1.389387449506452633e-03
-9.053481909349429813e-02 -5.921253597262538665e-02 3.130921947293474616e-03 -1.733631877163868129e-01 1.152470277965033513e-01 -3.041783916607904755e-03
-5.896139009926987251e-02 -5.679174223904691343e-02 2.999563435704233338e-03 -9.966305500209315937e-02 6.438290493755181865e-02 -6.139241153297632543e-03
-2.345695768400415243e-02 -5.578871633003108788e-02 -2.257199490938088804e-02 -8.472784048379342070e-02 2.218681228871762987e-02 -5.030093273176208454e-03
1.333992542710879178e-02 -6.225556813363958275e-02 -1.526619797536282741e-02 -1.033039915126884450e-01 1.122226950182966670e-01 -4.303376339472675914e-03
4.391336027518222968e-02 -6.016284465292486699e-02 -3.420278837209689282e-02 -1.171941936556137737e-01 1.245845574155857172e-01 -6.145624362137151568e-03
7.953792512228714806e-02 -6.155910081458796507e-02 -4.184083036425106927e-02 -8.477774937456965254e-02 2.228468611981020975e-01 -1.810482075399021205e-03
1.123762447970506478e-01 -5.773053828200820636e-02 -5.046512595694097048e-02 -7.242561994920579393e-02 2.362526024651422640e-01 7.107641763002993732e-03
-2.562115916805392524e-01 -5.896467987274787992e-02 4.528683220292367695e-02 -4.978027410370742395e-02 1.967169300453272540e-01 3.609666113496932949e-02
-2.184609103632683125e-01 -4.198642645528994494e-02 2.694296792010397734e-02 -2.767407738227054687e-02 1.741205345702227791e-01 4.410224805971516004e-02
-1.837288696313120751e-01 -4.599408025763931235e-02 2.296506773940554247e-02 -3.861346369647494087e-02 1.698427322065393374e-01 4.002851587824497043e-02
-1.532122345837401145e-01 -3.478982496233459787e-02 1.043489500799948955e-02 -2.610317932030028262e-03 1.357482376377715516e-01 3.272429857443154982e-02
-1.211978130762886435e-01 -2.680181348477139736e-02 -1.573784605649608537e-03 3.304801134713997862e-02 1.074406336429646752e-01 3.620067583194173932e-02
-8.781810235995465841e-02 -3.353263379915296521e-02 -8.707022228628014116e-03 6.529859251247609186e-02 1.098783392915758661e-01 3.173181173487133605e-02
-5.350482397743579199e-02 -4.552728041660694669e-02 -1.673628595057469193e-02 7.043412018860938095e-02 2.221279881158141553e-02 5.898848890339575962e-02
-2.121111252921997412e-02 -4.448161074668764009e-02 -3.295328256852247950e-02 9.340727368737060388e-02 -3.968077182581295631e-02 5.747703814790529331e-02
1.514710906384685724e-02 -5.223707878097141877e-02 -2.498668440516260691e-02 1.238609566922302535e-01 -8.913212659509427149e-02 4.471676227506398565e-02
4.739707699434762833e-02 -4.286804554142510659e-02 -2.252148199638348558e-02 1.931329890460320997e-01 -1.805107625687329964e-01 4.892091673800346568e-02
7.543463393063185030e-02 -5.216657364280017500e-02 -3.164339976489538575e-02 2.394783985229362588e-01 -2.556273575509455664e-01 6.645856892098316038e-02
1.111475938078263920e-01 -5.144442771355776933e-02 -3.249825014260743217e-02 2.628241676480727596e-01 -2.086836667248311850e-01 6.643285258101591650e-02
-2.589319946468771061e-01 -5.423232106486733373e-02 1.408422236447920417e-02 -1.014692759246650505e-01 1.696803268887143445e-01 1.154168466581440358e-02
-2.257849245389500770e-01 -5.267797565287082873e-02 2.086497320091601493e-02 -1.674162776955993026e-01 1.366468631684634172e-01 1.109576375797843330e-02
-1.905043518207028275e-01 -4.917483984386676610e-02 1.381682234569492351e-02 -1.394075892829076679e-01 1.115596731351605891e-01 1.908894175810096558e-02
-1.581734180585763205e-01 -4.741330578341467622e-02 3.215331604922211373e-03 -1.069051941528720989e-01 1.596535357947758971e-01 1.628540995073600450e-02
-1.245574648718037192e-01 -4.571032182602702970e-02 2.032795742509901915e-02 2.473030458079523639e-02 1.225449733019709914e-01 2.258351530971085958e-02
-9.355056159000657567e-02 -4.439223869486734475e-02 -2.540877386874540456e-02 2.249169418067964998e-01 3.931676984655356477e-02 2.295776076168241225e-02
-5.376069924312326664e-02 -4.310324683284726122e-02 -2.667830978458118896e-02 1.784212605427084319e-01 1.392084557138236964e-02 2.421546650108303417e-02
-2.144649898497212256e-02 -5.050161463023033342e-02 -3.111011366114008192e-02 4.353923639774845422e-02 3.159543467947160955e-02 1.552397987276001728e-02
1.559772274685316054e-02 -5.039460898760637214e-02 -3.290137751555072265e-02 -9.039268346181338412e-03 1.213116835641062513e-01 7.892848514508893007e-03
4.694484625511602394e-02 -5.863743853075481516e-02 -3.161986402234118199e-02 6.356309517340409665e-02 1.919190275274583468e-01 -4.973681757209990435e-04
8.209158845247065128e-02 -5.031937774231909355e-02 -1.249157837140335570e-02 1.247259163090740502e-01 2.601541620987354864e-01 9.921087781909143644e-03
1.091667143108128318e-01 -6.304004624552131397e-02 -2.305481669609055206e-02 1.405181284262245756e-01 2.806971340152569216e-01 4.073884551434405789e-03
1.404942057672259603e-01 -5.342282581754163873e-02 -6.640119908781938474e-03 1.867053493706650469e-01 3.100692579641214919e-01 3.600916932055604151e-03
-2.282510803410328915e-01 -5.271748609656203011e-02 -2.119624707394296426e-03 -4.963997435861416951e-02 -4.323670867315032584e-02 3.389252289632425919e-02
-1.988622235775003300e-01 -6.054763472567803451e-02 6.203738093703670131e-03 -6.686816868081689458e-02 -8.946283700996580934e-02 2.326734796005357903e-02
-1.643840378812311542e-01 -5.410265540797908057e-02 4.450181217886040042e-03 -1.176374952231853538e-01 -1.466023650499855002e-01 2.722179505680956055e-02
-1.353928732116912170e-01 -5.752178646195188483e-02 -3.963460429319831668e-04 -1.389415233558750906e-01 -2.242192897139248242e-01 2.283938508675373291e-02
-1.030465612336192022e-01 -4.757878865739124247e-02 -1.295483330137203737e-02 -9.034078097208675384e-02 -2.501193749426239288e-01 2.899503965954796508e-02
-7.026959646050538744e-02 -4.807172081815755393e-02 -9.650615677825657990e-03 -3.528425391717576309e-03 -2.470827617451862857e-01 3.422919116653276583e-02
-4.144181752971241861e-02 -3.399716454654921893e-02 -2.145492696788947606e-02 1.509115145710026029e-01 -1.636792665308470784e-01 3.909321481170997814e-02
-6.056669517189264274e-03 -3.824321850444023507e-02 -2.854561385232234905e-02 1.423508312639641671e-01 -1.322714815379438802e-01 3.396308414666966008e-02
2.724342018782648783e-02 -3.410950395352962267e-02 -2.722270766654683039e-02 8.757567842813214487e-02 -1.352973102485050816e-01 4.070802329114074636e-02
6.259224222330633802e-02 -3.125848114877752271e-02 -2.091571323999075194e-02 7.266761262389057063e-02 -1.598018429263007023e-01 3.319551094939658664e-02
9.390881527445199550e-02 -3.895019508999505303e-02 -1.757188279443894219e-02 1.421514394511287083e-01 -1.566977784420189035e-01 2.285731275202739984e-02
1.139520574015840532e-01 -5.849381604893738595e-02 -1.362070951075933234e-02 1.660722704966075547e-01 -1.395227482190914414e-01 4.052015485550896495e-02
-2.385316604207058100e-01 -5.178514519886759371e-02 4.941956258914526057e-03 4.462357868237596531e-02 1.092537085614791598e-01 2.769398464914887836e-02
-2.136128394302823086e-01 -4.284612725624582785e-02 -5.709213745735297607e-03 1.317506367791909661e-01 1.009127762266510270e-01 4.009698012616950275e-02
-1.865788072184101642e-01 -6.268233098110315149e-02 -1.595889040890885457e-02 2.162970219790149307e-01 1.355449271042471204e-01 3.415404928615636132e-02
-1.600154221182925607e-01 -4.935865684933698344e-02 -1.483390171338233587e-02 1.974523027953964949e-01 1.526078735480158322e-01 3.386300430845805287e-02
-1.316062272904903463e-01 -5.554400056828405485e-02 -1.226833161824503193e-02 1.518007778760362969e-01 2.000960866430877838e-01 3.110926322608835795e-02
-1.038250212375265713e-01 -3.127298585623682764e-02 -1.191338444315970246e-02 1.194161946672433611e-01 2.870951123786354420e-01 2.823033920723446236e-02
-6.729565198709207274e-02 -2.141503768647748385e-02 -7.947219090316037793e-03 1.011467778816106666e-01 3.670654592213705714e-01 7.305067853967773389e-03
-4.235570223878653423e-02 -1.976526562448651519e-02 -3.024667436566597090e-03 1.444271425227520445e-01 3.877904539926050886e-01 1.824147327761677095e-02
-1.012561931324069790e-02 -2.827870331493144776e-02 5.332784139171875548e-03 2.147279416846984423e-01 3.708308564940202001e-01 1.995507821290734909e-02
2.095695877039115487e-02 -2.578373334672673725e-02 1.125148346831861268e-03 2.998344245125877383e-01 3.598349784390915129e-01 8.419330555314817610e-03
4.473880717933001461e-02 -1.939411574291270007e-02 7.570827581564576469e-03 3.035789636579338535e-01 3.441531930674819328e-01 7.175940781672343616e-03
6.759976202121456557e-02 -2.897197273808643087e-02 -1.658502499951441944e-02 1.929196197793907330e-01 3.486626146568056472e-01 1.832873653698929503e-02
9.670013616586771443e-02 -1.718555518303095664e-02 -1.467617711637764222e-02 1.030465709585147160e-01 3.466919849592501324e-01 2.467474880381902158e-02
1.225837542811992753e-01 -1.479406465530155521e-02 -2.845291649905973275e-02 1.328396714400532086e-01 2.485889870991340178e-01 3.219897456395532515e-02
-2.340376944733258691e-01 -3.369997847579186273e-02 -1.923528171306759793e-02 -8.611300715838822450e-02 1.017533120211837894e-01 3.138008015261502248e-02
-2.056828142367142509e-01 -3.612833123303178101e-02 -2.442305544325495958e-02 -1.113118754296938268e-01 5.774198000173573486e-02 3.011389927845758985e-02
-1.788640271514548297e-01 -2.762319599777043194e-02 -1.870960778787927881e-02 -1.629444716091315581e-01 1.172870387954502575e-01 2.303684315883994596e-02
-1.533138508372087760e-01 -2.780807639068965526e-02 -7.725914528340371845e-04 -1.618200093208511936e-01 8.697302868293606271e-02 1.685506650259232034e-02
-1.278125535805919588e-01 -2.231172844329188873e-02 -2.473850156302970227e-03 1.546123784374360760e-03 1.680693723550116814e-01 2.239324349795672117e-02
-1.003905262923901198e-01 -1.493850078085640597e-02 -4.316660331981303500e-03 2.205281677874804461e-02 1.390439294631523881e-01 -2.732519855977897164e-03
-7.760925434649350307e-02 -2.045734649692098131e-02 -5.005598180388426410e-03 5.428465902231919410e-02 1.896885553616189379e-01 1.544655193050233424e-02
-5.229900414025584476e-02 -2.219441313551249323e-02 -7.089201233500819210e-03 3.426439477070952755e-02 2.154609797618471934e-01 1.365538181210967407e-02
-2.653768429150689390e-02 -2.094090376050244950e-02 3.909492293452554446e-03 7.104109565629973533e-02 2.156451752032426394e-01 1.053632281735815933e-02
-2.795178063531675305e-03 -2.022456742305626595e-02 -3.272351696112563157e-03 1.321026345374896604e-01 1.978142407929862345e-01 1.537122012113185075e-02
2.255677135485738977e-02 -1.823629546356946018e-02 7.629025586007476267e-03 2.095383281923083874e-01 2.044130350006891916e-01 1.748052268247245189e-02
4.663535287022303744e-02 -1.747511501650494958e-02 4.472242798354342241e-03 1.692558373954408668e-01 1.634771546016952071e-01 1.399438504265869236e-02
7.010308848701066187e-02 -2.763500076589674864e-02 -7.684730397397421253e-03 1.368108593908256843e-01 1.886802552430560942e-01 1.730047712647919331e-02
9.880278456132002285e-02 -2.781551217028194883e-02 1.334805395397870020e-02 1.610261734103619335e-01 1.805594266673150039e-01 2.817486117022918735e-02
-2.621583624327659123e-01 -4.020335780928585567e-02 -6.110248819778929530e-02 1.574101983116780457e-01 -1.381860241357578956e-01 2.805547199613367751e-02
-2.401462399385335400e-01 -3.767509946866630377e-02 -5.449118084853660227e-02 1.780668228953773413e-01 -1.003461915812909333e-01 3.759246817465266427e-02
-2.150417766694343313e-01 -3.006022569107792697e-02 -3.987262621021914200e-02 1.016072374344363510e-01 -7.356200521623519617e-02 2.586298545007241836e-02
-1.909959499460756049e-01 -3.913178610628147147e-02 -1.861469940077875584e-02 3.312097475476680902e-02 -2.677008677675464868e-02 3.016086358198032114e-02
-1.728816086439492750e-01 -2.478090853466666937e-02 -2.618601320010999212e-02 5.976447112967440967e-02 -3.884181460017541426e-03 1.975938106919062492e-02
-1.566561506074194976e-01 -1.952040345892906009e-02 -2.141407394037853074e-02 1.543997678126951545e-01 3.258970149456866944e-02 1.695856926652977714e-02
-1.222209291548388699e-01 -2.477761865505135469e-02 -2.768786126977834661e-02 1.910404263860188134e-01 4.175120809370688052e-02 2.868532927101030694e-02
-9.972214761208222922e-02 -2.869194199277019103e-02 -1.662346195249131409e-02 1.531073603405203876e-01 9.684791683757682304e-03 1.032910739375566406e-02
-7.551911434528205125e-02 -3.367334313718214900e-02 -1.574101532599814224e-02 1.155545733086044274e-01 9.901868462822009317e-03 1.240529147672244856e-02
-5.901516537277257113e-02 -2.071137860536598554e-02 -8.876348704553671531e-03 1.316645395400179996e-01 -3.720730253824575812e-02 1.331012242168786580e-02
-3.472038845163299969e-02 -3.088237676075128099e-02 -7.950416190705356101e-03 1.640057447060517537e-01 -4.709633599588963077e-02 1.939346430378127706e-02
-1.709986425165545276e-02 -3.420624102406810696e-02 5.086096975272846876e-03 1.546927535694145595e-01 -2.747987662593994254e-02 -1.855589454668181947e-03
5.383834297197284680e-03 -3.158228048862243148e-02 -1.115488809307751961e-02 8.625333380094972469e-02 -5.474403890257972458e-03 -8.376404615002852952e-03
2.681577745103905230e-02 -4.231351222069688195e-02 2.026813436767471721e-03 3.876638486278340123e-02 4.056534294253395789e-02 -3.229605937599942540e-03
4.585073187116531224e-02 -3.635443905619113736e-02 2.151347577667050981e-03 4.956685748869468777e-02 2.716621755551533457e-02 -9.972995926624338148e-03
6.180117435739930498e-02 -3.641534197149218222e-02 2.708434930558012432e-02 1.257991470813710211e-01 1.207995130807134054e-01 9.380554410112452394e-04
7.483041491454156535e-02 -3.738905658674451793e-02 1.604396773738958615e-02 2.587106403735053295e-01 -9.104720369674544622e-02 -6.230810959402139151e-03
9.559181190135225548e-02 -4.097797329250130877e-02 3.725135697527248713e-02 3.585416051471708720e-01 -4.007490821421612337e-02 1.785877751324715284e-03
1.112063306851633071e-01 -3.539002600111799957e-02 7.160901540205305560e-02 4.150446010516398165e-01 -1.956333261571595317e-02 2.460335288792699082e-03
-2.410581730549902491e-01 -3.930458148110214933e-02 -8.209711238791847498e-02 2.016235588207140605e-01 2.662374600677471781e-01 5.040971378164102457e-02
-2.296709871078250476e-01 -3.786130344093367045e-02 -4.051800074732891943e-02 -3.415579090562549658e-02 7.792755863126536731e-02 4.938485239756801315e-02
-2.082673241706445022e-01 -4.444437499323605073e-02 -3.501939266939696482e-02 -1.348231501430883494e-01 8.747846454851317122e-02 4.190235030975079933e-02
-1.881339546329248991e-01 -4.000985026651031340e-02 -4.840343238383720825e-02 -6.421207879531501406e-02 6.564359899071767201e-02 4.639994941864736266e-02
-1.821224344576787557e-01 -4.623937047005914625e-02 -4.711911584360900518e-02 4.296326268911154767e-02 5.653347605541660797e-02 6.399687160719924606e-02
-1.616782037563940233e-01 -4.568613789534385627e-02 -5.281416164525420953e-02 7.417226772398578805e-02 9.915372795012723783e-02 5.154387176925320779e-02
-1.431816048248146511e-01 -4.922896045444931368e-02 -3.701285427348921520e-02 7.028284515512274455e-02 1.705730030675826903e-02 4.768679194025067514e-02
-1.342105981916673074e-01 -4.100112535299934441e-02 -4.129653127641430554e-02 8.859111929220282733e-02 6.736668409255544554e-02 3.210639237125507278e-02
-1.225599106510505687e-01 -4.185395193244606515e-02 -3.705322802551719308e-02 1.469654101417744718e-01 7.397118961532170300e-02 3.887740039428852490e-02
-1.075655477973929269e-01 -4.697676776210994720e-02 -2.690835367259120092e-02 2.032352857306267135e-01 7.916664608801404768e-02 4.381523548722951467e-02
-9.496875937610863017e-02 -4.193585357682876741e-02 -2.982720775271940905e-02 2.064973282895041784e-01 6.787742748514911939e-02 3.472776388749933968e-02
-8.274409606004314022e-02 -3.992899524045451926e-02 -1.975324165121389308e-02 1.821848063597763245e-01 -1.945876690500370973e-02 2.465491502960003023e-02
-6.969286065560076349e-02 -4.051782926500910320e-02 -1.954767030494786173e-02 1.085403028414711757e-01 -8.411822552670951414e-02 2.375836239190098204e-02
-5.471598288974678648e-02 -3.884731641033678518e-02 -2.001749405912872648e-02 8.172613528211164491e-02 -5.316560195159612118e-02 2.823826432027791780e-02
-4.174034346298174936e-02 -3.684112121138700957e-02 -1.496685198696223740e-02 -1.390676761632310236e-02 -1.157920957716847415e-01 2.335551227550741737e-02
-1.970067579598593077e-02 -4.451422410132110236e-02 -4.275668302801644005e-02 -1.899133467873080627e-01 -3.954561498247084472e-01 2.318404294829322712e-02
-1.216430260683294684e-02 -4.675020395748731572e-02 -1.614010487168632269e-02 -8.062076869875899054e-02 -3.354305331863181028e-01 2.384356906665801787e-02
-4.291655903182919202e-03 -3.832314574209458313e-02 -1.631097946493020867e-02 1.470144684055988415e-01 -2.368226105073214516e-01 1.640762713383838931e-02
-1.488588344497485116e-03 -4.129596116717258736e-02 -9.406878836319965131e-04 3.030656406637637357e-01 -1.413688001200151534e-01 1.838998300048174175e-02
1.244028409901182589e-02 -5.057552297954692050e-02 3.902275542486177695e-02 5.442003998679926235e-01 -2.816310128308430749e-01 2.962393392785673402e-02
1.428157921782148218e-02 -4.808838955148565797e-02 3.889973159025722493e-02 5.122586892884942733e-01 -4.480405039465563122e-01 2.002997394734656531e-02
3.302255347091950788e-02 -4.319670671864778155e-02 6.166189131309784965e-03 1.435902233422844676e-01 -4.356512336603894364e-01 1.958053988588123046e-02
4.075342183828427334e-02 -4.647538497216313624e-02 -3.372096732890439430e-02 -8.984657884094063296e-02 -2.617304987818789286e-01 1.320254703508353528e-02
4.562371606670007074e-02 -3.969352073630667832e-02 -2.678475747510788985e-02 -1.140830960218510159e-01 -2.336071303713311287e-01 9.070179108980773452e-03
5.847101617813178775e-02 -4.757463939303020056e-02 -2.270809088524372577e-02 -6.442145139519958597e-02 -2.435958541606988714e-01 1.329940100054507156e-02
5.954395717997412740e-02 -4.183104774981580287e-02 -9.329394578562466567e-03 -3.226375380517122055e-02 -3.817038306412228743e-01 1.518006350383304011e-02
6.832114662850248543e-02 -4.977689178595880171e-02 -1.873229779038598775e-02 -7.121499607845351021e-02 -4.255511210832398916e-01 2.734173834000943118e-02
7.192814420063134428e-02 -4.233384017757577111e-02 -2.786155475950657934e-02 -1.371086060442577303e-01 -4.816568837777607803e-01 1.382008268968771929e-02
7.662766471365384247e-02 -4.045419531063296215e-02 -4.157152780219319776e-02 -1.784875735661642648e-01 -4.674732148100096962e-01 1.703106392873296807e-02
8.811251183594970282e-02 -4.061427081833118846e-02 -3.913741682976856762e-02 -2.013062075722555078e-01 -4.764497599477464651e-01 1.785360780229600444e-02
8.950531181808851766e-02 -3.329405799196891863e-02 -4.124221775046471583e-02 -2.142468833769603787e-01 -4.887009275505160288e-01 5.928328275787654936e-03
9.693674417393612075e-02 -4.782728046569793140e-02 -5.232223274378156042e-02 -2.305052107727876554e-01 -4.838528900734965221e-01 4.382434376535076712e-03
1.027102784320934326e-01 -4.252742874821186653e-02 -3.731010997609829349e-02 -2.602976290638581158e-01 -4.885123217937617501e-01 1.381942579550267565e-02
1.113245347991599632e-01 -4.253862731099707778e-02 -3.909519175270459446e-02 -2.317357214472447469e-01 -4.827918797701146181e-01 1.559521672502698665e-02
1.094131873457474674e-01 -3.548243958912117302e-02 -3.379301183486671523e-02 -2.038841269996142513e-01 -5.401597183454036610e-01 3.898447841012324649e-03
1.193820619398872074e-01 -3.480339820641803472e-02 -3.055840620257471718e-02 -1.838767692990289360e-01 -5.753853852537467173e-01 2.282495757265348626e-04
1.241304208225489092e-01 -4.579640131674771186e-02 -3.326852436170713023e-02 -1.700837486020090883e-01 -5.790237674225021669e-01 7.073094958035054431e-05
1.167514362215703455e-01 -3.336497855636717108e-02 -3.289599546599353275e-02 -2.054665364083541890e-01 -5.894396224535133344e-01 7.372446864737916203e-04
1.235562030229802322e-01 -3.561376447595868133e-02 -3.425268617964155604e-02 -1.821472028065611592e-01 -5.506403222353796201e-01 1.634781610424600184e-02
1.327946449375831117e-01 -5.299311188353732910e-02 -2.777701312043301396e-02 -1.705967614137413879e-01 -5.248015960586832618e-01 1.074114812400372987e-02
1.226866336258965601e-01 -4.535482114724228436e-02 -2.002735007989864258e-03 -1.368220822923940094e-01 -5.638547425516806655e-01 -1.394281141802181101e-02
-2.409485605109798756e-01 5.852300347044095408e-02 -3.704654309195948292e-02 7.697720454850050763e-03 -1.187006541511298918e+00 -1.000402010082951723e-02
-2.301985522179805232e-01 4.867976454011697929e-02 -3.153035006844140398e-02 -2.880225646211201015e-02 -1.211864763030619407e+00 7.303654737199936431e-04
-2.263153584236604343e-01 4.412052519679984797e-02 -3.500916323174224631e-02 -5.456803530356751225e-02 -1.211637072803399384e+00 6.607807138400804102e-03
-2.233002819085444790e-01 3.833809057209903309e-02 -2.099671813394549114e-02 -1.033421681483840116e-01 -1.221317604162515780e+00 3.379194745766922036e-03
-2.092248538562562488e-01 3.959245391803652842e-02 -2.012982461027551517e-02 -1.469563385079130369e-01 -1.195187884293216651e+00 -4.728547130465720737e-04
-2.143500811101091141e-01 3.480404927019958156e-02 -1.977815856224512947e-02 -1.872380286269154093e-01 -1.179530823336723877e+00 1.416404657223556580e-02
-2.144283014246405328e-01 2.907181430358305591e-02 -1.058758243743224137e-02 -2.035547150504672942e-01 -1.147798525017027282e+00 2.522880460144507481e-02
-2.073917505184607601e-01 3.259282283418463849e-02 1.055882651553374796e-03 -2.492713855686880808e-01 -1.120213561164450589e+00 1.065386883194004673e-02
-2.036291140890864326e-01 2.735697913786987179e-02 6.866733053898510519e-03 -2.694938733551353049e-01 -1.078719563944886772e+00 8.387798028569735248e-03
-2.035328727527028758e-01 2.845080472381753683e-02 7.641857989370060000e-03 -2.812474286359536446e-01 -1.081719261338135896e+00 5.875805891967377133e-03
-1.993545255352870693e-01 2.625005125223688063e-02 8.362118727251455219e-03 -2.726562792766037968e-01 -1.073267457262796931e+00 -7.758421981628355090e-05
-2.033783048350163436e-01 2.586869899283190596e-02 6.259400786623514623e-03 -2.969434884251265228e-01 -1.050420104229729201e+00 9.845581558011060053e-03
-2.022125266773483754e-01 2.186098295682326054e-02 3.610539186832184555e-03 -2.914862659767576414e-01 -1.033922793456184541e+00 -3.441069360819501606e-03
-2.007029263965063315e-01 3.316316151577750060e-02 3.406501141001161415e-04 -3.157566139664876315e-01 -1.009260531178739262e+00 -2.504857500601723793e-03
-1.992700546965759656e-01 2.765374857956790638e-02 7.766181329775745379e-03 -3.447827818344738060e-01 -9.976839046852792325e-01 -5.284152140118121392e-03
-1.942472421517307812e-01 2.520275202207581874e-02 9.627066999896738420e-03 -3.865479706789935466e-01 -9.774219415961660218e-01 -9.053268724798929374e-04
-1.932659105268356714e-01 2.440861666628429960e-02 7.379158659160833800e-03 -4.105827429609886781e-01 -9.630675625056024369e-01 -5.419326365256400130e-03
-1.902092147890991347e-01 1.543672951974657190e-02 1.308148898959160533e-02 -4.035756301268060842e-01 -9.685559713859475117e-01 5.308781252115053924e-03
-1.965646173094613147e-01 2.114712082004346211e-02 1.700115052480521971e-03 -3.507075789430894042e-01 -9.385997846748626028e-01 1.654514738642118114e-03
-1.973945001175421710e-01 1.863907199126023373e-02 1.015591021058676047e-02 -3.340855243664277996e-01 -9.530856437946583215e-01 -6.046662150312842425e-03
-1.880952196137742893e-01 2.328279653912532915e-02 2.530091168786496869e-03 -3.462342149142270675e-01 -9.449141052514463679e-01 2.153061993211390253e-03
-1.892945859458609881e-01 2.006467684239465060e-02 9.869666133284993315e-03 -3.559822100425350522e-01 -9.345898855527562388e-01 5.881642647957181259e-03
-1.859201161294809779e-01 2.523078936110927442e-02 1.012771840103815491e-02 -3.560137076468390394e-01 -9.298265247673701550e-01 -2.843705574876894651e-04
-1.969334751677411233e-01 1.332585556802733454e-02 8.636633755435774162e-03 -3.588429303571955553e-01 -9.388926735948398550e-01 4.021981996038560651e-03
-1.868072590269398980e-01 2.752009411114696158e-02 1.291115246492990920e-02 -3.653662051568746238e-01 -9.224500286795109805e-01 1.066098247353218986e-03
-1.928306794911779642e-01 1.280740421470956576e-02 6.937986126034190182e-03 -3.674187396159536712e-01 -9.251117539305223625e-01 -5.209804678539326677e-04
-1.818544458627007476e-01 2.345045948851520040e-02 6.796941876672402127e-03 -3.707107374378330045e-01 -9.156701515777605493e-01 4.378166978155570606e-03
-1.884277194187531368e-01 1.892039015996802714e-02 1.355973470812660286e-02 -3.829164194152405165e-01 -9.172107996831071475e-01 -6.079271073303223541e-03
-1.888355832432892234e-01 2.070399820773287380e-02 1.617403695191665935e-02 -3.994665891475700503e-01 -9.082868644467920749e-01 -9.517092361675081810e-03
-1.887239097141605315e-01 1.811255728684662072e-02 1.121826219826949078e-02 -4.245344694501080873e-01 -8.831358211871267461e-01 -6.821710184527479161e-03
-1.920341490740108403e-01 1.653097245292462630e-02 1.186402863249752526e-02 -4.262863085785920658e-01 -8.858959790863920603e-01 1.574253983509279076e-03
-1.884615595364282359e-01 1.758061922238641356e-02 1.536280501540748800e-02 -4.232527533638309469e-01 -8.900798483112301041e-01 -6.696998241764773145e-03
-1.929420807427512652e-01 1.753372168366303802e-02 2.194506366683102172e-02 -4.315005406192893855e-01 -8.811441198502877326e-01 -7.861474280334599524e-03
-1.943939456070021554e-01 1.850787251770462730e-02 1.200023110753090094e-02 -4.334552513462970880e-01 -8.878403723036878414e-01 -6.691850628875944430e-03
-1.911068543200763747e-01 1.548583849062006891e-02 1.849706628019831545e-02 -4.472594360863045848e-01 -8.765034377677136668e-01 -6.213831979599381168e-03
-1.932176087340448378e-01 1.627426399551102493e-02 1.698884175169057542e-02 -4.376945928782566275e-01 -8.766728685212639149e-01 -3.046391793992205606e-03
-1.919051227390790038e-01 1.882639848777809335e-02 2.071784885263833198e-02 -4.353134164658753469e-01 -8.773968495761619302e-01 8.113983311534973776e-04
-1.943652710230823200e-01 1.480624489664111171e-02 1.855615734457388699e-02 -4.378361905648252561e-01 -8.862627436022725291e-01 -7.572318929312538138e-03
-1.962750631650050925e-01 1.503361036182161541e-02 2.387127879428296851e-02 -4.327626274651755200e-01 -8.883940761627052707e-01 -9.103638843040424630e-03
-1.899168850040188483e-01 1.332835950572546987e-02 1.940954594369087571e-02 -4.354399383428274040e-01 -8.939669554745737212e-01 -4.077742002512839414e-03
-1.964740595675707469e-01 1.220773432190140444e-02 1.637238846273386672e-02 -4.398331264684486319e-01 -8.909622316893791583e-01 -7.807079797960932762e-04
-1.979015119563914959e-01 1.605565262122021081e-02 1.356570961216518878e-02 -4.257761767930134389e-01 -8.712667530124357240e-01 -5.785855942508659998e-03
-1.919504553018225868e-01 1.786990134430523763e-02 1.530817926671595997e-02 -4.330943171619238141e-01 -8.831963516327452357e-01 -6.457310239973673704e-03
-1.888008272816646960e-01 1.525196133103290212e-02 1.385220517399415874e-02 -4.401345195888990980e-01 -8.865595545479659778e-01 -8.850110966751554035e-04
-1.930251684757786079e-01 9.259445561868414470e-03 1.673318017088304410e-02 -4.254414069750768745e-01 -8.946000697084529607e-01 1.732834554855191677e-03
-1.947556953878377684e-01 1.062720307716529325e-02 1.388134215535896665e-02 -4.315997575141831133e-01 -8.860239191518104462e-01 2.943199591594540358e-03
-1.925697347265469261e-01 1.285653413996231710e-02 1.454965424895859893e-02 -4.329731313325505537e-01 -8.769030642536903564e-01 -2.723419550496022825e-04
-1.967862491211171405e-01 1.060337701798948033e-02 1.516820696448206718e-02 -4.298304114374617568e-01 -8.892151904826818276e-01 5.319243582439150270e-03
-1.900135461254869318e-01 9.555528263450831228e-03 1.911045255982218860e-02 -4.265138616427552321e-01 -8.861656407678307756e-01 4.573655350441015004e-03
-1.952188952075689377e-01 1.177209492906987343e-02 1.724946123512000051e-02 -4.238990517371470923e-01 -8.772758359799819328e-01 -3.544667680227410900e-03
-1.934268691365113590e-01 1.172226471275689304e-02 1.924205227020731046e-02 -4.214334124895792733e-01 -8.867821377349162093e-01 -4.552656023203123861e-03
-1.919173237529516463e-01 1.247027446025107851e-02 1.991320230913323774e-02 -4.310814680599614479e-01 -8.819658380739558989e-01 -1.070480859792704870e-03
-1.946084423310797396e-01 1.182965704858354554e-02 2.190340686258146485e-02 -4.339441716947680661e-01 -8.885598456178264160e-01 -5.551018938398783603e-03
-1.900751962031456133e-01 1.701422593249098808e-02 2.283121160363510427e-02 -4.207226311589656875e-01 -8.911304237442239096e-01 -7.700626508284449598e-03
-1.890363827648033623e-01 1.675083463641416012e-02 2.078871553881567191e-02 -4.325315527070512367e-01 -8.882612234374404059e-01 -8.485313569640034331e-03
-1.904372115652027686e-01 1.329331582621293660e-02 1.799194148524924097e-02 -4.174979086789831206e-01 -8.828564845890016777e-01 4.605578299331927012e-04
-1.941606178021290097e-01 1.565430576234599913e-02 1.895771520087574658e-02 -4.239380244873188763e-01 -8.818331242752175392e-01 -7.585576148746177826e-04
-1.913218566640726981e-01 1.736554216060435391e-02 1.766293632917975698e-02 -4.380141645839129572e-01 -8.863817290887213707e-01 -2.880657387704879495e-03
-1.904606246271852710e-01 1.222473748305400766e-02 1.627679653681290972e-02 -4.274297645541005330e-01 -8.929980451596076785e-01 1.296361560088858970e-03
-1.973213495811271811e-01 8.851627806659181225e-03 1.897375226932562775e-02 -4.360230101503014821e-01 -9.053229111410339147e-01 -8.259734089082971164e-04
-1.891696434064031873e-01 1.444831989649121053e-02 1.975021149070133042e-02 -4.201543220951531876e-01 -8.837165839702005865e-01 -5.438758105723842141e-03
-1.923337513247368458e-01 1.653795103806516426e-02 2.557183307564531161e-02 -4.302975223994283671e-01 -8.921327674422510068e-01 -1.510260202407564048e-02
-1.910727753578180255e-01 1.752047564007537528e-02 2.170370506494823104e-02 -4.393306448956284527e-01 -8.896506619342499089e-01 -6.712209029091381444e-03
-1.874858262106755824e-01 1.364497969249263941e-02 1.855579133101808997e-02 -4.308979294554610151e-01 -8.843180358940792019e-01 -6.061505770907482833e-03
-1.963989115580963563e-01 8.351104925932269912e-03 1.624532312005438905e-02 -4.249467834271757338e-01 -8.844721363311587314e-01 -4.901194826914972470e-03
-1.967213808470998360e-01 1.192665121411718224e-02 1.539151968304608431e-02 -4.224154377754965606e-01 -8.971549519150746610e-01 2.885673887105113383e-03
-1.934001158764930284e-01 1.803649149818301739e-02 2.053139870561304647e-02 -4.193325559786623136e-01 -8.983564864731968802e-01 -7.732013439621967556e-03
-1.897026264441571408e-01 1.523506942304492760e-02 1.491566563731028250e-02 -4.242198165674172516e-01 -8.983817795434102527e-01 -1.535750065347964675e-03
-1.879419567604178332e-01 1.681939935307048134e-02 1.102728123118462689e-02 -4.168615180454275926e-01 -8.801784654904939442e-01 -4.654551142625751314e-03
-1.906252991319265788e-01 1.199261269573644040e-02 1.234436541733785475e-02 -4.206636127933713332e-01 -8.866561836881090564e-01 -6.856086912387342061e-04
-1.952204940588345705e-01 1.019183103372886708e-02 1.644736652728923110e-02 -4.195071630733647194e-01 -9.093263410504881517e-01 1.697690846489857555e-03
