-1.243799156065051280e-02 4.543398505062670734e-02 -1.244499701561496696e-02 -4.642933983060210101e-01 1.030945930880807909e-01 -1.326427872852274821e-02
-1.265893130002925838e-02 4.814566283263902596e-02 -1.093927657632098871e-02 -4.620255423136038209e-01 1.092342372005326162e-01 -1.693017529144652880e-02
-1.230109162556291061e-02 5.180055439150603458e-02 -1.155059818587061971e-02 -4.592134037095572108e-01 1.123854132317898963e-01 -7.207289451938191267e-03
-1.061945248427579452e-02 3.962451486257387301e-02 -1.568089249681337005e-02 -4.741911347014029499e-01 1.057316941912813113e-01 -4.043662383729745846e-03
-8.431825158047426272e-03 4.004086659117678249e-02 -1.249412811219302588e-02 -4.747035541120898094e-01 9.874177531265682095e-02 -2.244910872295207121e-03
-6.644598598741779938e-03 4.248424909850259668e-02 -1.145179489639563952e-02 -4.644032862724622457e-01 1.263250758613814195e-01 -2.524318351592753397e-03
-6.115793087048477378e-03 4.103426398865965552e-02 -9.924664161657270611e-03 -4.747228732652564176e-01 1.094823570928298989e-01 -6.634008677481049825e-03
-6.280093592532388219e-03 3.877777219589761959e-02 -7.679521176281955963e-03 -4.630335579609825558e-01 1.227480975497517862e-01 1.610899636013647619e-03
-8.449712371848348835e-03 3.861235049805627345e-02 -1.067929812176177107e-02 -4.599767102070777547e-01 1.026382777429245691e-01 7.030747470313817790e-04
-6.793146764807286853e-03 4.098661074305731677e-02 -8.013061055740122729e-03 -4.654866299583350631e-01 1.086451910576430452e-01 -1.761002099360348301e-03
-8.919253599433001750e-03 3.655687696382685370e-02 -8.275141429839871776e-03 -4.732520742167465322e-01 1.092068952629938611e-01 -1.270712210023642978e-02
-6.131106714893336251e-03 4.274813010085312670e-02 -9.249680836521056992e-03 -4.670366449289349298e-01 1.120005053578914667e-01 -1.187650995753065930e-02
-7.427545781450099749e-03 4.996940958003605326e-02 -8.480936406178973819e-03 -4.706862663568120997e-01 1.206474317529852708e-01 -1.883828993451930681e-02
-6.987891199441535750e-03 4.831749759396577332e-02 -6.462804639356500847e-03 -4.774811305874455125e-01 1.283470733783249051e-01 -2.276192333103731896e-02
-5.466257012994184261e-03 4.047366791983248585e-02 -1.206689689895729112e-02 -4.594075847131132706e-01 1.007397272818284228e-01 -2.076284206217703099e-02
-4.424240303448314510e-03 4.809953113595580310e-02 -1.353812300537871049e-02 -4.628983856211034142e-01 1.218340396474482112e-01 -2.440248194531271370e-02
-3.395583613525727379e-03 4.253663747484386082e-02 -1.147987265620575847e-02 -4.759058508483759997e-01 1.192537821220980149e-01 -2.376194745554589122e-02
-5.140658642721875060e-03 4.529483882018600638e-02 -1.280247990271099479e-02 -4.648905699721778140e-01 1.158808966318596034e-01 -2.690890224505024936e-02
-5.058252794368566646e-03 4.045428470691460332e-02 -1.062131719804060292e-02 -4.783975658589196267e-01 1.231293754187775535e-01 -2.588671031183524540e-02
-2.461818631692265502e-03 3.950861689678096533e-02 -1.080831602169396444e-02 -4.680065518518361500e-01 1.189961549456881179e-01 -3.277420229600593732e-02
-5.214130597773987408e-03 4.128302567883482266e-02 -8.466368722775119426e-03 -4.641564284992572564e-01 1.061749011094570150e-01 -2.624644736048483556e-02
-6.977058939715254787e-03 4.199719026281583528e-02 -8.844221102667970680e-03 -4.700148885803847043e-01 1.185396927316729465e-01 -2.379742444117467770e-02
-4.556994912317046537e-03 3.747756118779224654e-02 -1.030332493141306038e-02 -4.631037523132504607e-01 1.089162038558598028e-01 -2.570316029421707005e-02
-7.069638091610045555e-03 4.689512443089120797e-02 -1.031892722290639330e-02 -4.663273417236358243e-01 1.137495695050357997e-01 -3.099997227607766137e-02
-4.343427276418329597e-03 4.716809840859939595e-02 -9.703665212889234226e-03 -4.633735203534169456e-01 1.218605374550967985e-01 -2.595782177851839803e-02
-7.488054278745447795e-03 4.760177714116477915e-02 -9.648155567269389721e-03 -4.733214137006107602e-01 1.146509079013526000e-01 -2.008530643638288538e-02
-8.615801076663025942e-03 4.057962733298919877e-02 -1.356478665740379341e-02 -4.678717365458038846e-01 1.175025183950766938e-01 -1.807137793066559278e-02
-1.070113134873961792e-02 4.467302632496279735e-02 -9.643747292422399919e-03 -4.627958363182757551e-01 1.141845230639874365e-01 -1.625718426907274416e-02
-7.775340993240981158e-03 4.396640498959255433e-02 -9.660926494474475490e-03 -4.667702913508816609e-01 1.100001452567803267e-01 -1.312706887134251418e-02
-9.422678287932194016e-03 4.316910386416766138e-02 -1.264351830028326296e-02 -4.599455717095164986e-01 1.061824305510057631e-01 -4.996691775638877932e-03
-6.735312080903853305e-03 4.764182295046799631e-02 -1.418874654878415908e-02 -4.476760248139285969e-01 1.140708673259246547e-01 -5.630792391314678492e-03
-3.243708640114844471e-03 4.372869964544351395e-02 -1.032148571245683488e-02 -4.526482297672864696e-01 1.243056167711068805e-01 -1.089704807252603845e-02
-4.162016343997876344e-03 4.429607451162799470e-02 -1.412242910322086820e-02 -4.575416194974561979e-01 1.237309192116319567e-01 -1.499760357463776096e-02
-4.352752497017831068e-03 4.340885100188580925e-02 -1.179805305089576262e-02 -4.460638571840430111e-01 1.315602189456062943e-01 4.478207500558365373e-04
-2.572612377611152579e-03 3.911375163287779400e-02 -1.422128836992642142e-02 -4.405979304481767445e-01 1.330437203531325552e-01 -4.597717382220944428e-03
-6.895539175186381903e-03 4.661020883210073573e-02 -1.252561937333113162e-02 -4.431173207005511538e-01 1.195806177441047086e-01 -6.478125047442085359e-03
-7.161969393545894458e-03 4.541458556768125654e-02 -1.049440411256380434e-02 -4.564979387053398341e-01 1.153066147491581817e-01 -8.355088492515618664e-03
-7.142726259249953386e-03 4.212710461815269425e-02 -7.419433803466768396e-03 -4.377060421445554406e-01 1.116607258885211756e-01 -8.421135667088231608e-03
-8.152105757562429222e-03 5.189732564734618470e-02 -9.291094205292227404e-03 -4.511218588405598862e-01 1.216837803402906343e-01 -1.392111054681213073e-02
-6.953990712161222526e-03 4.079014747280280961e-02 -8.827944853373403955e-03 -4.390307836418484433e-01 1.132579746346208394e-01 -1.181805220695507710e-02
-6.005978857422218653e-03 4.309981957560653221e-02 -1.021116232451063643e-02 -4.423143503085014139e-01 1.142282666854406298e-01 -1.584288011662808929e-02
-7.139262673299097417e-03 4.568424896153329418e-02 -8.490358091873539959e-03 -4.441056529192520808e-01 1.291342376670105707e-01 -2.090634730200816721e-02
-5.347411985685383840e-03 4.532944060172514056e-02 -4.345385631606135668e-03 -4.454769695439464994e-01 1.305835136967683496e-01 -2.006749924704198662e-02
-3.298962522609721892e-03 4.648495189174150360e-02 -1.211563140366206381e-02 -4.512615323059435690e-01 1.205259513896638629e-01 -2.299660994951795850e-02
-2.923069639584021523e-03 4.670300637165209628e-02 -9.871730397757794151e-03 -4.443942586568762065e-01 1.280524517185384903e-01 -2.965897370747471937e-02
-5.845909467594098685e-04 4.108127446275108147e-02 -1.025513831317892421e-02 -4.478498437351486894e-01 1.197212902916930388e-01 -2.425231286103223666e-02
-3.708651210122766717e-03 4.195202806259429318e-02 -1.151765089039025192e-02 -4.550584563532571458e-01 1.286734668519610159e-01 -1.777857882278637350e-02
-2.010752057918601537e-03 4.332584784932917710e-02 -8.882472347337855290e-03 -4.415658176704959081e-01 1.136781484644260182e-01 -2.331378353045773441e-02
-3.988284761499292369e-03 4.374257467260332655e-02 -6.382439758203184432e-03 -4.472423241995477361e-01 1.244588292210347946e-01 -2.812495337498005510e-02
-3.334338159292130760e-03 4.668587514414231088e-02 -7.792918946977145378e-03 -4.418226858712946958e-01 1.236878192156377620e-01 -2.218826423489938388e-02
-2.973549690708749554e-03 4.235876099118938976e-02 -7.484002486571661450e-03 -4.419820413752396648e-01 1.201036880823409536e-01 -1.671608432790791521e-02
-1.609662694192610932e-03 4.783765588199603153e-02 -9.976463333153107182e-03 -4.515294254446924338e-01 1.220841618943307727e-01 -1.946657620761053226e-02
-2.364196261892635015e-03 4.848370391701605636e-02 -8.405471668542940922e-03 -4.397836802940048306e-01 1.160026786988643810e-01 -2.146272587122889999e-02
-2.366605712763220765e-03 4.789885301303753451e-02 -9.731330888971101434e-03 -4.452810859929868803e-01 1.229539173023370263e-01 -1.674699484798768817e-02
-9.675009919020635674e-04 3.714447624873568055e-02 -9.394368497796512507e-03 -4.356727449460478518e-01 1.151962831796126546e-01 -1.353933822402598672e-02
-3.206593876281218364e-03 4.598302832294341030e-02 -9.309050663283024996e-03 -4.479288125342482663e-01 1.212671515663327759e-01 -1.305942471422554332e-02
-5.828514268894108286e-03 4.751586704059912458e-02 -1.138754074643305580e-02 -4.518974812561672438e-01 1.257727930131344318e-01 -1.641454969686393164e-02
-5.295945927004334225e-03 4.723227120379375199e-02 -1.150234104760228249e-02 -4.401524774954873043e-01 1.195478523164549278e-01 -1.378902045882447920e-02
-3.767323690893283061e-03 4.635918311694851857e-02 -9.302841355300295323e-03 -4.323455497636017886e-01 1.258180383741013264e-01 -1.337450862388762582e-02
-3.845704485062384492e-03 4.302453239857435829e-02 -1.419923777221498984e-02 -4.421593792862787420e-01 1.018692127578638279e-01 -6.467662300690031792e-03
-5.766176196848681046e-03 4.422762429445151189e-02 -9.388290933085852163e-03 -4.417013290622592847e-01 1.180668447843161023e-01 -8.545105788447979536e-03
-4.777319664622338424e-03 4.277060620315761841e-02 -9.353483493600156518e-03 -4.365168573848293709e-01 1.186643016317163041e-01 -1.170884427182647923e-02
-5.119194960837309544e-03 3.700847525142474115e-02 -1.072665914504650209e-02 -4.455851584110602226e-01 1.218965460118408561e-01 -9.337652292722072381e-03
-7.643303055608799412e-03 3.968804272964894519e-02 -1.157209403432241102e-02 -4.568885299539119926e-01 1.120113456952273046e-01 -1.292139416125212027e-02
-4.192175264935191215e-03 4.507466846609597955e-02 -1.199691839560979023e-02 -4.956355112438309840e-01 1.179318540195532783e-01 -1.856592835784048531e-02
-5.643685499649383347e-03 3.919399642254829674e-02 -1.215975799708279848e-02 -5.276010663915380317e-01 1.206101336963811693e-01 -1.315804429718062975e-02
-5.147183428228570279e-03 5.066669944540761611e-02 -1.572678035221791726e-02 -5.442681213202126278e-01 1.276568689896949160e-01 -2.013739074972171333e-02
-4.336038739767764799e-03 4.090084907043896323e-02 -1.530840904532126956e-02 -5.517015129249995820e-01 1.205885861438679291e-01 -1.901657203890162393e-02
-3.919651490203839017e-03 4.607737415718813484e-02 -1.271828555780563086e-02 -5.855707422082513380e-01 1.052334940093545834e-01 -2.152780264458180326e-02
-4.962720104276369115e-04 5.136119030918470663e-02 -9.785863300756092453e-03 -6.895881530734695453e-01 1.187669663566665174e-01 -2.065010894714435635e-02
-1.808772381231758125e-03 4.333721703028965699e-02 -1.906142189927922947e-02 -7.499262875772337855e-01 1.039297223675071657e-01 -2.334845379376616903e-02
2.821619318686997835e-04 5.229066610808433269e-02 -1.385079696096935820e-02 -7.341346297623061457e-01 9.871563419630459413e-02 -2.777345504740975912e-02
4.034622919387061135e-04 4.988445652100671063e-02 -1.148588883322160248e-02 -7.556495046087778888e-01 1.165757964467744462e-01 -2.944476091605264731e-02
3.768735363051684689e-03 4.445771632595048317e-02 -1.462478695918578708e-02 -7.999848006417182855e-01 9.851639083592821089e-02 -2.664493455091915264e-02
3.905414888562663833e-03 3.930243366233612812e-02 -1.200695128619566621e-02 -8.269893125560603409e-01 1.108467453577550443e-01 -2.183419618036062243e-02
5.191016742238770132e-03 4.683084457568888193e-02 -2.064406721237266318e-02 -8.434114108544719102e-01 6.981444047405752085e-02 -2.613435010748284965e-02
7.229105860390695748e-03 4.299716352673170483e-02 -1.965163477392034563e-02 -8.558701960632392192e-01 8.467725340857980287e-02 -2.766738087577092636e-02
8.962303730867801632e-03 4.230568489109934327e-02 -2.001367536020259852e-02 -8.570854872927371471e-01 9.121642780628815006e-02 -2.362836293696501250e-02
1.370253893660062366e-02 4.743432033195149611e-02 -1.609351914707118913e-02 -8.793106069046903173e-01 1.002510512402430415e-01 -2.606164897856308449e-02
1.888893617755972587e-02 4.789626670226512090e-02 -2.497445316323337883e-02 -9.118138125832159213e-01 6.815462561120620710e-02 -2.585826350536479801e-02
1.516126515907910074e-02 4.234264813469559158e-02 -2.822811415431913939e-02 -9.168226541329174140e-01 1.098947799900642196e-02 -2.432537866010919814e-02
2.387451193878568911e-02 4.645696417130752709e-02 -2.159432893509216633e-02 -9.204443685180737633e-01 -1.924551448078146154e-02 -3.279125665228308645e-02
2.780278870194602750e-02 4.438080972144857472e-02 -3.377532064521548971e-02 -9.413380064976855088e-01 -1.006726653941607437e-02 -2.947288199732096131e-02
2.700289296241101256e-02 4.798881581761439696e-02 -2.676678392714432198e-02 -9.456674559013048542e-01 3.038384022586331553e-03 -3.081763188950698701e-02
3.281943232145088929e-02 3.853583396549618845e-02 -3.111139612218660755e-02 -9.146842642079292540e-01 4.365090007511904929e-02 -2.664791562821585205e-02
3.525568612215650155e-02 5.106511142240005574e-02 -3.292825249398900755e-02 -9.040214607357123233e-01 3.919661725522444878e-02 -2.310541150040831132e-02
4.207816436737242538e-02 4.473210413681905778e-02 -3.778403885149483887e-02 -8.653978936248567511e-01 3.827348160126259335e-02 -2.062179702450649132e-02
4.695985314490733198e-02 4.411199888397493440e-02 -3.952105741881850598e-02 -8.427289298742628443e-01 6.011388881118085586e-02 -1.977156130224044447e-02
5.261867178934800937e-02 3.821110005317841785e-02 -3.679336564757329509e-02 -7.831712796003963417e-01 6.904730526110922084e-02 -1.889643794066383706e-02
6.033065876036919351e-02 4.147279732356074639e-02 -4.098756945214154790e-02 -7.503825967682362652e-01 8.226384632158952048e-02 -1.763339964889608369e-02
6.125539200006917262e-02 4.235043923928703130e-02 -3.873650022568875251e-02 -7.079517688205190229e-01 7.640991526934683142e-02 -9.946694651584759087e-03
6.805620604043673139e-02 4.775549033084754147e-02 -3.430669959245191691e-02 -6.484185604162663319e-01 7.984840055551936655e-02 -1.195481987565489776e-02
7.358521411009474877e-02 5.189238095628284642e-02 -2.665048404165576423e-02 -6.235214626297232998e-01 5.102112888511839417e-02 -1.866129709681447341e-02
7.213131839011129032e-02 4.502256320381575749e-02 -2.841318384768631855e-02 -6.053214589194967354e-01 3.365932108770067210e-02 -1.293885302654207772e-02
8.284619824646088926e-02 4.378385069920957828e-02 -2.983369500858462642e-02 -5.896535212072347987e-01 3.659251039024512958e-02 -2.200507215718348897e-02
8.624753456311651245e-02 4.511759679591617611e-02 -3.880266429209755508e-02 -5.833957972913271783e-01 5.580426972938286323e-02 -1.652449430139051739e-02
9.064782121310140106e-02 4.679571044177231742e-02 -3.360816518983411605e-02 -5.787538380756818146e-01 8.964247437865627277e-02 -1.384404054057958126e-02
9.758640814471661318e-02 4.035759066861543953e-02 -3.450466312542899150e-02 -5.751081754179828698e-01 9.706954046175471362e-02 -2.186333604486241644e-02
1.033403753344753206e-01 4.458853531394990632e-02 -3.365618884502102892e-02 -5.388630924966968383e-01 9.114265594971669715e-02 -1.442985388170238761e-02
1.089957654372655099e-01 4.073939949949609979e-02 -3.409007586585877103e-02 -5.410589649099147858e-01 9.380629808292161032e-02 -1.104755826328270192e-02
1.132696669036920567e-01 4.380520744930767318e-02 -3.578299574233484437e-02 -5.622589999142799666e-01 8.770352610510705194e-02 -8.123605762285896620e-03
1.161425258408101124e-01 4.228924083385590671e-02 -3.726110887015626760e-02 -5.593836317078432208e-01 7.104770528359070914e-02 -1.008634993861908836e-02
1.197641848565857009e-01 3.437453188417920885e-02 -3.479819010030688053e-02 -5.571952808161297899e-01 7.916877063358412903e-02 1.986273759470313666e-03
1.278590812959389256e-01 3.563352909056838325e-02 -3.344546281334676019e-02 -5.615907148417744743e-01 8.388355453441306842e-02 -1.375523036698943213e-02
1.309826634861638028e-01 4.031568982568299597e-02 -4.246557685570373497e-02 -5.867896209554074316e-01 1.129232039373332386e-01 -2.127822565141123268e-03
1.340853420642859894e-01 4.571663781474551158e-02 -4.103646767128865669e-02 -6.221116633283746422e-01 1.453233301289400814e-01 -2.994700599920783503e-03
1.401718445866402263e-01 4.096174818926677508e-02 -5.082982084869486217e-02 -6.345106947031236011e-01 8.636370435902486487e-02 7.944960100625365288e-04
1.441362516527653903e-01 4.414115354966952065e-02 -4.655482013645956263e-02 -6.739903518449027464e-01 -1.102990142040386340e-01 -3.596007762900060422e-03
1.515391307875546822e-01 4.566310783757220049e-02 -6.223360634021390947e-02 -6.677764303942334001e-01 -1.417938869046683203e-01 -8.131851212962368930e-03
1.548771927872025223e-01 3.588462967481298449e-02 -5.474117296459801718e-02 -6.210935661014848064e-01 -8.605592873367587381e-02 -7.679955450169671100e-03
1.610645014394270769e-01 4.142738148067241777e-02 -4.229744370014987265e-02 -5.427201432530043279e-01 1.358446238302946363e-01 -4.505403484482910226e-03
1.671716145692568045e-01 3.869204268868182972e-02 -4.917456357303978676e-02 -4.875884763052682480e-01 2.477035593641843392e-01 8.726741714053978805e-03
1.709433547910187978e-01 4.631589642975418586e-02 -2.431691532471957906e-02 -4.367086203945638179e-01 2.124587479343308938e-01 8.230875895356291189e-03
1.830954156667786159e-01 4.599304160340403347e-02 -3.078259828733082015e-02 -4.381069685915705558e-01 1.229460803650644224e-01 -4.017188222152952813e-03
1.839611352130980926e-01 3.710436254470828032e-02 -1.662642542942360802e-02 -4.129319300610435617e-01 8.602388664426829923e-02 4.874265192438224231e-03
1.905007714699599453e-01 5.468715539561849748e-02 -2.677406305735052783e-02 -3.737809946322674937e-01 6.560445397201618289e-02 3.552553692362213095e-03
1.957096805748443635e-01 4.814779811982631413e-02 -1.487574128618307512e-02 -2.944796522176977849e-01 -8.212314042341854747e-02 2.099310930411253315e-03
1.990363422162300111e-01 5.738105792748005030e-02 7.100361611910299686e-03 -2.292954890066524754e-01 -2.294468788543574944e-01 9.392333147946609062e-03
2.010442402210795010e-01 4.857520152281832176e-02 3.031609483923614068e-03 -2.696026648739150988e-01 -2.423276685252185036e-01 1.253572927062369946e-02
-1.756917066348476775e-01 4.352259432556265795e-02 1.145706554932757193e-02 -7.827376860149609650e-02 1.205331007080848171e-01 -5.797523957815343271e-03
-1.687640181950350038e-01 4.562301185115859303e-02 4.055699098779674827e-03 -6.882203234500051947e-02 2.299196894502416044e-01 -6.260659947850751028e-03
-1.669507522722121218e-01 5.457669478280328251e-02 2.337766907842375730e-03 -5.464310595141503440e-02 2.381174759344336089e-01 -1.276578498884954269e-02
-1.590848501555503225e-01 4.387312152650125335e-02 -9.712182644552480593e-03 -4.965923974177156169e-02 4.827019598281944573e-02 -1.154377754587637001e-02
-1.525025054232807264e-01 4.556854248658923079e-02 -1.376339648222019152e-02 -4.779166930304615951e-02 -9.809176742667984061e-02 -8.966403565657019015e-03
-1.526594851437766132e-01 4.904906650116290512e-02 -1.842375027715537072e-02 -3.812544649143361636e-02 -1.558825079802394209e-01 -1.705011864285665285e-02
-1.436422660179129118e-01 4.899576874826092748e-02 -4.868559151032736398e-03 -5.051479460947057992e-02 -8.773708365565567602e-02 -1.405349192518039886e-02
-1.391564508419392554e-01 4.268656820861410628e-02 -8.169560833667932620e-04 -8.690066916115048168e-02 -6.100051517042982818e-02 -1.824818282486025470e-02
-1.336992377483888494e-01 4.497374109093942030e-02 -1.344332267139869419e-03 -1.174469235325673599e-01 -4.826412686185319739e-02 -1.918622282122510458e-02
-1.302483468577242121e-01 4.427053440316836702e-02 3.646546820003038203e-03 -1.298471605288670505e-01 -1.727100599596760599e-02 -1.893693992269148904e-02
-1.267810081792524468e-01 4.169099788032810255e-02 5.883753443978345654e-03 -1.660711291558298885e-01 -3.412056562812270516e-02 -1.816795370890667699e-02
-1.202392779014678226e-01 4.413467875165344445e-02 1.109316909458124556e-02 -2.115259300778350171e-01 -1.993888911991149177e-02 -1.516465651861373734e-02
-1.192759724939715521e-01 4.633684692392374405e-02 1.597120521617451105e-02 -2.543068875222300740e-01 -1.491308006181799387e-02 -2.011660233740070539e-02
-1.117209883744231802e-01 4.734785559915649644e-02 1.517231804111868199e-02 -2.779761982321997116e-01 2.119382569130980401e-02 -1.728441287754306499e-02
-1.133139552541141681e-01 5.065399673192632485e-02 1.950504989555057467e-02 -3.085482249855437953e-01 4.972723449566270049e-02 -1.632611726138614994e-02
-1.091232319219055114e-01 4.784022292907810781e-02 2.377792315893018094e-02 -3.469322901989946306e-01 -5.569736527658204935e-03 -1.424753820686188929e-02
-1.060869706269728513e-01 4.888946930421717713e-02 2.574939020710936832e-02 -3.291701486505845264e-01 -9.546375251076256313e-03 -1.842790837190990891e-02
-9.759984289940629165e-02 5.052395551999305789e-02 1.885218817052314311e-02 -3.259372247884840257e-01 -4.090226161881987260e-02 -1.268161599793999998e-02
-9.257191898511807349e-02 5.291965656617454716e-02 2.116593771727059980e-02 -3.427100150065378603e-01 6.444756630275537759e-03 -5.928780496533411423e-03
-9.190204298603077415e-02 4.550014407303239888e-02 2.251328577532474284e-02 -3.702082038832835709e-01 6.248446618406142128e-02 -1.128449805782030801e-02
-8.398483154186567323e-02 5.127516477176111143e-02 2.674298632896748851e-02 -3.728324678682542470e-01 1.018932046912710832e-01 -1.305123252288202702e-02
-8.176150431910608751e-02 5.400759863075395989e-02 2.278071723390467929e-02 -3.495206125229617933e-01 1.080031474209964815e-01 -2.920375003081434641e-03
-8.052227496539526852e-02 5.000798391497188189e-02 2.496401692375210812e-02 -3.447602631019485719e-01 1.039520190264736355e-01 -5.078931033058090190e-03
-7.486130263669812934e-02 5.152363708122683489e-02 2.210339498585794926e-02 -3.204501290928784552e-01 1.050428883421915954e-01 -3.044744239201628067e-04
-7.506331430791271520e-02 4.912940192470979794e-02 2.123520799828065853e-02 -3.007900466749854340e-01 1.060477982994441210e-01 -5.472312247344407118e-04
-7.197050694614802457e-02 4.164599296857446342e-02 1.558081624525980979e-02 -2.755560611775934032e-01 1.213667605593754806e-01 -6.031832154348913851e-03
-6.956962234344921114e-02 5.079084268154718251e-02 1.512156708029532837e-02 -2.446404679302582874e-01 1.504632897568307370e-01 -3.653119486584893282e-03
-6.511829706056868061e-02 4.990096222545811755e-02 1.057772310605831212e-02 -2.331826180806675086e-01 1.398528766102022924e-01 -9.219902896729477437e-03
-6.783573756959419832e-02 5.040491955371884103e-02 1.377381787636161592e-02 -2.383478259928611953e-01 1.408527102685105392e-01 -1.047858040487486923e-02
-6.329083838101455528e-02 5.202656395389261557e-02 6.606741670448335046e-03 -2.170941125660467985e-01 1.363699218775940580e-01 -1.199183111892899826e-02
-6.022883600367606727e-02 5.275288748381465331e-02 1.047335394395249031e-02 -2.072269695084747732e-01 1.589747744874364654e-01 -1.168506755135710444e-02
-5.851719212578000012e-02 4.919734430224093763e-02 1.088172881324234176e-02 -1.808876282755069731e-01 1.942401597395211621e-01 -1.970491669548361108e-02
-5.755716864674829958e-02 5.123880633772748272e-02 9.260496245749483268e-03 -1.757334194855833809e-01 1.991927605016836078e-01 -1.779741638418111047e-02
-5.522548616040442310e-02 4.484484330277379444e-02 6.688364071796681909e-03 -1.852621896502677223e-01 2.049709027732900257e-01 -2.039643353298851297e-02
-5.120826104667006856e-02 4.929890326216547491e-02 9.103919602327703586e-03 -2.066032117472139940e-01 1.920921553960540651e-01 -2.064761643387008974e-02
-5.248807346037298593e-02 4.716804881192400434e-02 3.033385620882456113e-03 -2.154047777651935114e-01 1.722071605429251195e-01 -2.204191432969842060e-02
-5.051450620822102444e-02 4.871824482917785915e-02 9.657052954285816337e-03 -2.169077432952867535e-01 1.846863516550561746e-01 -1.728469120752612262e-02
-4.903370071409793307e-02 4.754381115269565306e-02 6.723821903037108250e-03 -2.298463149348966006e-01 1.759087127664937522e-01 -1.675710146863718802e-02
-5.117131755221529521e-02 4.671741968509425524e-02 1.260053419639650674e-02 -2.203798890793928766e-01 1.925670433161039974e-01 -2.559011830501389806e-02
-5.021453917318216553e-02 4.796373230674726845e-02 1.238893340815161448e-02 -2.207256996072275990e-01 1.911154447361521347e-01 -2.215120119644591740e-02
-4.751827160531127414e-02 4.816033441212690114e-02 1.210542528247732230e-02 -2.287277901447401784e-01 1.914078957661135838e-01 -2.112573748873660881e-02
-5.063345131177747482e-02 5.107292749617729083e-02 1.731258446731381850e-02 -2.375675297384018114e-01 1.873676189817583271e-01 -2.194976517090541784e-02
-5.118681017051712051e-02 4.851944798387939489e-02 1.755086415391593491e-02 -2.482824390494393629e-01 2.023364237472267957e-01 -1.404329085926029133e-02
-4.999915660771622750e-02 4.279621349552245602e-02 1.710004911826823459e-02 -2.733330286223788486e-01 1.917610882908178105e-01 -1.935281839812084265e-02
-5.071383297609877161e-02 4.542911005717914508e-02 3.053996629385458128e-02 -3.231260358724185600e-01 2.141610993147206876e-01 -1.637972475823898377e-02
-4.898155189606435977e-02 4.719906520286912960e-02 2.388163169929796714e-02 -3.303288241249004442e-01 2.025298379581429997e-01 -1.436009331489872080e-02
-4.856987897433948098e-02 4.353681179779245181e-02 2.540938997569675006e-02 -3.258442705103973269e-01 1.994391738287022986e-01 -1.177398340891974877e-02
-4.785001620504068798e-02 4.327412586126321015e-02 2.364153028316196004e-02 -3.282554754278501075e-01 2.056821653507595327e-01 -7.661153206669443251e-03
-4.713089980406456880e-02 4.447135173361468213e-02 2.457809227223201054e-02 -3.140630163512015405e-01 2.215263682746139717e-01 -1.208937033736860386e-02
-4.795389450398764020e-02 4.346847324518784278e-02 2.409305148853596590e-02 -3.335486261024733223e-01 2.100748244580851465e-01 -1.389849581310002684e-02
-4.719062887282977903e-02 3.903328286945543374e-02 2.266388339730057710e-02 -3.187696369449707912e-01 2.105834304699855386e-01 -8.043152545889643845e-03
-4.590764402859383309e-02 4.031064538781210099e-02 2.258989876047834411e-02 -3.252958419442459892e-01 2.050790767774530732e-01 -9.879674480783126600e-03
-4.791401512339531904e-02 4.466589227440279086e-02 2.608999878478929224e-02 -3.266805068949617530e-01 2.092205185747318952e-01 -8.852241825123742178e-03
-5.147010593346097729e-02 4.515365249388594154e-02 2.252990174022462266e-02 -3.284471488956344776e-01 2.016681643770495691e-01 -4.866882043512250552e-03
-5.058045048160636492e-02 4.600817828479347033e-02 2.125578664387905992e-02 -3.287285184847917319e-01 2.153554431953720316e-01 -1.356618988817072380e-02
-4.964811837328558797e-02 4.468387768599352966e-02 2.434049985669040073e-02 -3.285348588228246824e-01 1.917031808214894606e-01 -9.016663902105008163e-03
-5.123839465040169738e-02 4.212387829412966161e-02 2.324917464234604880e-02 -3.237161750515028524e-01 2.164343151836136681e-01 -1.458691560117608178e-02
-4.972810843856077800e-02 4.275494222131936278e-02 2.754874256441158797e-02 -3.139512541331854201e-01 2.152971574697726820e-01 -1.567188303635405275e-02
-4.879588261114242709e-02 4.461869385895489426e-02 2.733792214192221071e-02 -3.312273714909756417e-01 2.205424077282830408e-01 -1.784158182793369254e-02
-4.786586087507235798e-02 3.898014588014513115e-02 2.060094108443516481e-02 -3.167855264745776389e-01 2.185155338059539543e-01 -1.939340921111398774e-02
-4.467522238817893399e-02 4.511377809210787015e-02 2.370544213180370008e-02 -3.289854594049008707e-01 2.193220220521746866e-01 -1.964175254675835924e-02
-4.685382887024911597e-02 3.987419653664703995e-02 2.524407505707199073e-02 -3.266282857231042613e-01 2.048913191225857633e-01 -1.463713570737721834e-02
-4.687797121027258151e-02 3.814390017362226382e-02 2.145911683843854112e-02 -3.220087034745396926e-01 2.107783491873985449e-01 -1.686103870905734589e-02
-4.755693426572111387e-02 3.631450291092579163e-02 2.324872577290554299e-02 -3.309955815394372003e-01 2.128460508470228219e-01 -1.989783230918266629e-02
-4.801287105702457814e-02 3.582323579765940569e-02 2.849516749235664337e-02 -3.260724183514894237e-01 2.262737965948725671e-01 -2.027771891544847410e-02
-4.710119771630565111e-02 4.106863344003150451e-02 2.735283289149254005e-02 -3.247660596379554065e-01 2.207851529636093713e-01 -2.043511306182518514e-02
-4.680446828943257004e-02 4.561466902127912781e-02 2.930808982751920144e-02 -3.321504488865946181e-01 2.221407926264561961e-01 -1.713020915749348047e-02
-4.809926298328841276e-02 4.433141576871553469e-02 2.515522470932712862e-02 -3.216425844580160232e-01 2.139274747296180113e-01 -1.595420682869068407e-02
-4.770975387613217433e-02 4.381942280035074078e-02 2.126000197973282324e-02 -3.287033769549903561e-01 1.999728577567153054e-01 -1.909043342652725489e-02
-5.055697455487943859e-02 3.793304696330834780e-02 2.641622091241124792e-02 -3.252173484794010916e-01 2.134197343498307198e-01 -2.736634854891159888e-02
-4.911516552792762058e-02 4.218878311244924489e-02 2.647426539646069443e-02 -3.288835026789622140e-01 2.234782069287562234e-01 -2.593888296835370616e-02
-4.846303375732198548e-02 4.188852572136919639e-02 2.559967311297273174e-02 -3.302052340999185320e-01 2.102569784170192080e-01 -2.154828967288551639e-02
-4.677954764623611095e-02 4.428973660196462714e-02 2.164226444603994937e-02 -3.264088190767936437e-01 2.000674923835941421e-01 -1.788967726136059949e-02
-4.776634750376217847e-02 4.119325583258463819e-02 2.042476533088349866e-02 -3.100336776071123679e-01 2.170457005054092781e-01 -1.726126232556258328e-02
-4.686010365288208884e-02 4.135963522180512164e-02 2.766933327536230669e-02 -3.164463045865090751e-01 2.196197528375098407e-01 -1.769640344668369988e-02
-4.694431566200450712e-02 4.133886675682514611e-02 2.467677024716052880e-02 -3.088344618617678838e-01 2.089226453861266208e-01 -1.552672197687193084e-02
-4.834629796889711173e-02 4.237081318475261621e-02 1.734302817862498625e-02 -3.066354337944920960e-01 2.106207436549176470e-01 -1.040376428436017194e-02
-4.820067911414654266e-02 4.232659325547435958e-02 2.362052980585432893e-02 -2.954722484449562314e-01 2.278657550342962357e-01 -1.303003957838637025e-02
-4.832284333187048669e-02 4.581211818877301001e-02 1.896950764285199043e-02 -2.966918858066490139e-01 2.081627594500649603e-01 -1.232210397992740750e-02
-4.826210070193617807e-02 4.230498462636402002e-02 1.947058208551366576e-02 -3.046909670227095912e-01 2.037333713142447100e-01 -1.057294170325813118e-02
-4.896322582982508276e-02 4.055490303113884476e-02 2.412694196022147075e-02 -2.879389478582240480e-01 2.179477777218987444e-01 -7.804398608570628504e-03
-4.864344307343755613e-02 4.247072774039264281e-02 2.024876908845657519e-02 -2.998703634401818086e-01 2.108693965280343252e-01 -1.653155323728838777e-02
-4.983015110235065881e-02 4.311312309784127300e-02 2.696330871313540323e-02 -3.003743417422870543e-01 2.147129249113663707e-01 -1.625799842198752745e-02
-4.897683867641479394e-02 4.074043797694702762e-02 2.228911410841077911e-02 -2.988911924848207669e-01 2.068600495156096841e-01 -2.065954775662779547e-02
-4.848981983776862875e-02 5.075750878474242361e-02 2.135912184112676027e-02 -2.963334098253072590e-01 2.266273151633945993e-01 -1.692837598874423477e-02
-4.717631008079887361e-02 4.488527998553716591e-02 1.841355908178210488e-02 -2.976022999115416900e-01 2.137412263484373409e-01 -1.957782266498619278e-02
-5.155346334367104377e-02 4.658738955314835339e-02 2.248498745823057643e-02 -3.054082420588273838e-01 2.166714112783783286e-01 -2.620754927182992675e-02
-4.779363315426150838e-02 4.334907245868684089e-02 2.047416677892149872e-02 -2.954125802876139129e-01 2.223432878934192836e-01 -2.297333519187643239e-02
-4.857695579078703807e-02 4.034757772739201720e-02 2.272768292365179299e-02 -3.011119370648054905e-01 2.236266994264266839e-01 -1.543987202368207745e-02
-4.487147148219158832e-02 4.239597233020544337e-02 1.931864199749733224e-02 -2.843888848926458546e-01 2.101633847243460917e-01 -1.829446239614302555e-02
-4.839160869038825613e-02 4.228030701916543621e-02 2.238304582463879200e-02 -3.015647161714634095e-01 2.121721575017379846e-01 -1.995429646084825523e-02
-4.947365993433446019e-02 4.371350474897917754e-02 2.314094789112647321e-02 -3.018026724731516230e-01 2.166981346768999395e-01 -1.044795251475784739e-02
-4.720043203427008033e-02 4.471278052975562883e-02 2.152751883442921566e-02 -2.950166818316518613e-01 2.039219879630814192e-01 -2.160839642276519978e-02
-4.484022937868219899e-02 4.350156235889462292e-02 1.767821855833995315e-02 -3.006987365893185604e-01 2.058679978215333661e-01 -2.167585635228357066e-02
-4.745827626625401946e-02 4.460911209167252311e-02 1.709730501284562054e-02 -2.984256027503688902e-01 2.007519243000936149e-01 -1.849017808466810533e-02
-4.798085242199030820e-02 4.274301156754316267e-02 2.120835895731709719e-02 -2.934018058638628301e-01 2.094413307451047090e-01 -1.908651141524315975e-02
-4.986914156181451729e-02 4.459772135751723099e-02 2.524217501213205095e-02 -3.017254881746698203e-01 2.155228089231581712e-01 -2.199826269896592440e-02
-5.185579566634422599e-02 4.634955464961531407e-02 2.284476818947656085e-02 -3.079476870943963496e-01 2.144530575216194723e-01 -2.575105060699996520e-02
-4.864595437093774399e-02 4.333134567797676528e-02 2.290047652532040123e-02 -3.050376406537047558e-01 2.059342523938143266e-01 -1.967593531112441993e-02
-4.912984240468597219e-02 4.752512902468106898e-02 2.201956275041538902e-02 -3.039961412345231206e-01 2.132724127794831392e-01 -1.771351311015717522e-02
-5.011169697130563039e-02 4.695439527533205870e-02 1.907844939498443138e-02 -2.994260908223252970e-01 2.123673451850737748e-01 -2.056165956583781013e-02
-4.940157821133159266e-02 4.748648907170185257e-02 1.856912918595460260e-02 -2.970844285376874061e-01 2.097512789616171602e-01 -9.526853427709217059e-03
-4.734805330999839607e-02 4.500054750411759674e-02 2.184425127842970493e-02 -2.962044800339524442e-01 2.226056925608745074e-01 -1.926504418200155472e-02
-4.988691661842475922e-02 4.575467061651342787e-02 1.947721414309966370e-02 -2.951771528362566732e-01 2.088132186100543630e-01 -1.471006867889132486e-02
-4.789827062752669007e-02 4.177259187168058663e-02 1.696134459364573299e-02 -3.067695145409753410e-01 2.144203004296588722e-01 -1.608840174867278566e-02
-5.038824603231158161e-02 4.355204139118144802e-02 2.238978851408901516e-02 -2.993578437299767581e-01 2.074007631344816360e-01 -1.511218427203457962e-02
-4.923287242458004864e-02 4.586053886659616913e-02 1.896262235965162635e-02 -3.014783313046431323e-01 2.008451747291233325e-01 -1.528809139933165993e-02
-4.979260782180550127e-02 3.940996358166413277e-02 2.369623827657263426e-02 -2.970727951214843232e-01 2.150024346123932950e-01 -1.945782887123512911e-02
-4.845555004808520250e-02 4.171858247913984297e-02 2.304354958208393311e-02 -2.973342194088532398e-01 2.205219962091223562e-01 -1.697233412963376417e-02
-4.822847729858527333e-02 4.320757499619770625e-02 1.779224273264179423e-02 -2.994281119290241877e-01 2.085932516060013120e-01 -1.738345733345888697e-02
-4.902183075925774236e-02 4.596641133765841380e-02 2.111234990261501299e-02 -2.908664297700452872e-01 2.184338821235898842e-01 -2.032552958168417842e-02
-4.779590105082462403e-02 4.528881061325945590e-02 1.709558946160705251e-02 -3.013009501643194032e-01 1.946160885202475599e-01 -2.411032453346703686e-02
-4.831704959931772125e-02 4.735157620008399737e-02 2.033690984581221217e-02 -2.976057272709813906e-01 2.020656422479690517e-01 -2.458443231786750297e-02
-4.746743570569839782e-02 4.821396297202774905e-02 1.730521214798896867e-02 -2.970562475168684879e-01 2.033879403711311429e-01 -1.847189289753723915e-02
-4.315044131086850920e-02 3.967259701963888469e-02 2.286271367096365248e-02 -3.029395597024697739e-01 2.117064792198693202e-01 -1.589450509016599941e-02
-4.501312517827477100e-02 4.033275781890404560e-02 1.882574415361071285e-02 -2.907051915164364786e-01 2.218037093541376514e-01 -1.326783315009902146e-02
-4.806139181267528315e-02 4.310503819977741513e-02 1.802976467348904599e-02 -3.033182471015081760e-01 2.132287195137261837e-01 -1.741226022801785345e-02
-4.841936171792174393e-02 3.965822593597442131e-02 1.659297517332686267e-02 -2.903020435088099482e-01 2.149463293198732583e-01 -1.588963355695276192e-02
-4.825328706518267063e-02 3.626944204373715175e-02 1.981328237574925266e-02 -2.949830560534315582e-01 2.185851778204215834e-01 -1.524586096954013738e-02
-4.702578146440101331e-02 4.253313046923281465e-02 2.514023358501932259e-02 -3.114760862330187008e-01 2.274312871997804242e-01 -2.139143630679942940e-02
-4.841255589051760011e-02 4.324541451807860371e-02 2.226901346317683439e-02 -2.932542142743922442e-01 2.040316057713014442e-01 -1.466735519722124105e-02
-4.655189116674022382e-02 4.201970900840826945e-02 2.157720379957572820e-02 -3.011718501316688612e-01 2.196705794980446103e-01 -1.559367708634237099e-02
-4.883345487614237923e-02 3.966568329484389949e-02 2.165181830791518269e-02 -3.044309852434958219e-01 2.027932758750551900e-01 -1.203115798786522951e-02
-4.678059113956287152e-02 4.788194432760817243e-02 2.009103351991287090e-02 -3.025126001856934255e-01 2.175033326141428136e-01 -1.035300458339836333e-02
-5.005006359175873804e-02 4.310808777887589066e-02 2.469890628203602612e-02 -3.094305898079744432e-01 2.195831307367569207e-01 -1.574491753811873770e-02
-4.774871746175286813e-02 4.549752497595023482e-02 1.770743528398527333e-02 -3.053047510009054277e-01 2.125359917691982681e-01 -1.399267759350177574e-02
-4.589409873382870736e-02 4.468928738567016362e-02 2.052763668551071952e-02 -2.975702663883968424e-01 2.077971834706628940e-01 -1.535168733625008781e-02
-4.652865674678387242e-02 4.332677443096921710e-02 2.099450281947468078e-02 -3.170662296254678214e-01 2.095187685407845779e-01 -1.347614797969965035e-02
-4.596086703253016159e-02 4.550110666799930120e-02 2.228873022396843373e-02 -3.500859593350801879e-01 2.098513216552301275e-01 -1.468404247639348847e-02
-4.711987280051273264e-02 3.891320672549865300e-02 2.260257199935961081e-02 -3.618242911154957997e-01 2.062529563940862509e-01 -1.569711261805100885e-02
-4.688270438551504771e-02 3.581235760346489216e-02 1.905532870429060832e-02 -3.744433850064641800e-01 2.147760111201985345e-01 -1.374475550553867602e-02
-4.632057411255421919e-02 3.436958962756512387e-02 2.583982533643075508e-02 -3.875196954055723508e-01 2.120497555302657267e-01 -1.734990305575331848e-02
-4.679488313130339416e-02 3.915754741928967331e-02 1.748888254999314551e-02 -4.453779644600883714e-01 2.119073966610514337e-01 -1.385029486704929952e-02
-4.638316314054511530e-02 4.408174060706646080e-02 3.377930164672870994e-02 -5.271715097596267885e-01 2.177687345545656350e-01 -1.805193405502364748e-02
-4.512616781449851899e-02 4.281935774170453346e-02 3.577699195668609944e-02 -6.262142228789291387e-01 1.952264800113398258e-01 -2.455813243438619356e-02
-4.225264076165860527e-02 4.372687664452865053e-02 3.113106665521653271e-02 -6.059046381072560328e-01 1.958555403551572871e-01 -2.601249643654180571e-02
-4.148052540132839139e-02 4.117512373524770397e-02 3.708239788814476912e-02 -6.310934831126954192e-01 2.044851774540341338e-01 -2.752716022005126037e-02
-4.088636337527315479e-02 4.351502064211995591e-02 3.783591579935663418e-02 -6.492456659965624155e-01 2.200791502204214323e-01 -2.446885345243238197e-02
-3.867620747873223158e-02 4.180516447412467584e-02 3.661141700232511953e-02 -6.609968739164694407e-01 2.142733596503579863e-01 -2.689790310080757141e-02
-3.522070282903138477e-02 4.074624757076867471e-02 4.226693179867019312e-02 -6.833296683854693798e-01 2.342382118367656862e-01 -3.135947551808406647e-02
-3.632558590892460970e-02 3.940753388248097178e-02 3.153796524652241473e-02 -6.991503172439397229e-01 2.454547167243842365e-01 -2.666440620308832901e-02
-3.099869807701172847e-02 3.629565548467218739e-02 3.519072968061631723e-02 -7.349511106064492427e-01 2.616652305788418342e-01 -2.728327623177279407e-02
-2.716180415036783743e-02 3.962267817945837323e-02 3.859702443733964428e-02 -7.260282669204186634e-01 2.717197353199766185e-01 -2.524317462684648114e-02
-2.411457614530766388e-02 3.706126953097496624e-02 3.767498712610689582e-02 -7.289207603330231100e-01 2.592693065130316499e-01 -2.061653834333440627e-02
-2.195682005850841875e-02 4.070230694909353353e-02 3.677936383755764371e-02 -7.625365765073643942e-01 2.501458035439030336e-01 -2.113401635473431683e-02
-2.014472443083384356e-02 4.180625416628064306e-02 2.749214761516927119e-02 -8.114891501248980843e-01 2.016751228715890909e-01 -2.055120614958218586e-02
-1.760165174503113689e-02 4.013195916927354834e-02 3.086160303950608030e-02 -8.099218211548175894e-01 1.886432962724579887e-01 -2.197691544948516054e-02
-1.083997475975574144e-02 4.303065419496736321e-02 2.521928068711559723e-02 -7.904186479883532623e-01 1.719884960324450374e-01 -1.986142529943856275e-02
-6.220435052764566874e-03 3.923541824176779436e-02 1.556093440471945089e-02 -7.746145140745229751e-01 1.963336913365517911e-01 -2.846206526865585271e-02
-1.592382651423696061e-03 4.691020272926754719e-02 1.670348821203954115e-02 -7.437179982477705176e-01 2.351698402453594738e-01 -1.216220278606031796e-02
3.351717096491332870e-03 4.599915098298913707e-02 1.501135555494909068e-02 -7.242380357706826866e-01 2.590448319952615153e-01 -1.819682424471286489e-02
7.626525691831493453e-03 4.206090128745113010e-02 1.981288686297533186e-02 -7.180030879173715519e-01 2.916068453235174940e-01 -1.772510584051188373e-02
1.586931378801006640e-02 3.915387588883544046e-02 1.487403834864048369e-02 -7.070584676380693434e-01 3.179959398116505853e-01 -1.719521073881273912e-02
1.975332083954111501e-02 4.136655804139002801e-02 4.109340015783280453e-03 -6.829105416283516305e-01 3.446197447429482641e-01 -1.885931489718361415e-02
2.534779185187276129e-02 4.313436519161775728e-02 1.200666117129856048e-02 -5.959851918067404775e-01 2.761729807638481082e-01 -1.667414199802384062e-02
3.316873405644255035e-02 4.050037868658669382e-02 -2.486411908470598231e-03 -5.113325900186249662e-01 2.070367489326098154e-01 -1.046695153435353749e-02
3.986762860676278108e-02 4.012295428517635709e-02 1.375278430912063587e-03 -4.828364563280015953e-01 1.548657622655562338e-01 -1.346573601333435170e-02
4.729151526021702079e-02 3.812604036800101848e-02 -8.194938498620629730e-03 -4.857364823134097676e-01 1.804538285846194468e-01 -9.463640958143624063e-03
4.950518877062762974e-02 3.061128426887349194e-02 -1.061948196514839182e-02 -4.872032316815944064e-01 2.471578818360863072e-01 -8.203347687601732219e-03
5.658939146805698484e-02 3.603661900984980737e-02 -1.136224688146569850e-02 -4.920703429118382655e-01 2.869784416028909879e-01 -1.301264772683633462e-02
6.476310770011078910e-02 3.691345732577876876e-02 -1.233284184931482397e-02 -4.624584833676574913e-01 3.166741825391665710e-01 -1.043660035699528130e-02
7.028627396108824699e-02 3.643941217200519223e-02 -1.771314973226362222e-02 -4.795232539683926820e-01 2.948056301596556072e-01 -1.280165431028271704e-02
8.072344674346407234e-02 3.430235433442552218e-02 -2.278660201044541145e-02 -5.339780557801507843e-01 3.173737020324728375e-01 -1.316544121851910901e-02
8.545529266143681024e-02 3.674559869235596854e-02 -2.590757546307254078e-02 -5.684288885456455498e-01 2.599709463303974122e-01 -1.677611519570321522e-02
9.658436546593197891e-02 3.800596672759427169e-02 -2.809452355221558895e-02 -5.499840775181437103e-01 2.881362500856928799e-01 -1.675252455485225223e-02
1.013456824166782677e-01 4.056948824945680321e-02 -3.127839907770529893e-02 -5.071904840725514063e-01 2.765208057925253038e-01 -2.042298470655797005e-02
1.110205390762003669e-01 3.452964135330061773e-02 -3.142539485342032979e-02 -4.642957081453935597e-01 2.592199967554781326e-01 -2.163083367070245400e-02
1.224531536017637867e-01 3.758370016389761537e-02 -2.991856224607691850e-02 -4.135576153832220547e-01 2.817812975061973479e-01 -2.133194958468558750e-02
1.294946814277025404e-01 3.717682908620491278e-02 -3.969040960888847724e-02 -4.117173973889270422e-01 2.682950803415455887e-01 -2.640715684101091129e-02
1.421828313140867106e-01 2.962191911775722067e-02 -4.369153706485640054e-02 -4.386931050962342704e-01 2.406346917577607269e-01 -2.461124457415831551e-02
1.483088882860687241e-01 2.577667434190820603e-02 -5.778196156053488908e-02 -4.546471288832497071e-01 1.926717352072352951e-01 -2.830637132790230284e-02
1.588313560068446706e-01 3.312371707355686590e-02 -5.768716918798949544e-02 -4.327248210250325688e-01 2.275315447029855609e-01 -2.478476557257887000e-02
1.700024514261689601e-01 3.549321194232421539e-02 -6.145615503076312658e-02 -4.587028886332262245e-01 2.935888365976714320e-01 -2.443191937212713105e-02
1.783454043919865950e-01 3.086679862370513006e-02 -7.346889671422252022e-02 -5.027462671269211647e-01 3.543916316851644099e-01 -2.231623609505214642e-02
1.857565160853064667e-01 2.815722146201225795e-02 -7.610892040949474024e-02 -5.375198505986946707e-01 3.095616422899369891e-01 -2.804819764396015644e-02
2.000553740386980806e-01 3.228034212182828711e-02 -9.356284632531258749e-02 -5.832740997336260946e-01 2.423166594308343580e-01 -2.615764060583614797e-02
2.081009078156497716e-01 3.761324573812996341e-02 -9.664558882636931081e-02 -6.101903287291470246e-01 2.580276245520538025e-01 -2.343959322427045799e-02
2.202124999920354043e-01 3.862618851309955470e-02 -1.040315444342912454e-01 -6.292383990112508929e-01 2.636872636897878430e-01 -2.669168246438913955e-02
-1.696955621634518574e-01 6.298627818378889354e-02 1.237433909613298577e-01 -9.706397456668692802e-01 -1.537686811131313280e-01 3.586033803389714319e-03
-1.609133026982713099e-01 6.199515439310439302e-02 1.036032790321034236e-01 -9.082819750328859909e-01 -1.464702900185622936e-01 9.746320177059184528e-04
-1.472169462289585340e-01 6.550786510538719742e-02 9.538318725969413547e-02 -9.177156099448627868e-01 -1.471849131199111371e-01 8.690604276681072578e-04
-1.327974114236485925e-01 6.918539066180283414e-02 9.143971892266361534e-02 -8.866448345476278803e-01 -1.893500029397618967e-01 1.217032370331910460e-02
-1.180779398295818128e-01 6.299474625242564019e-02 8.385008328611120998e-02 -8.947714161606924455e-01 -1.810068376656256972e-01 2.186965300381373337e-02
-1.041773060499596448e-01 5.627817191845236461e-02 7.650558567472759419e-02 -9.136150760875771937e-01 -1.526145523052611364e-01 1.604572754536106802e-02
-9.366003486273617729e-02 4.773587080349665779e-02 7.202640481864391875e-02 -8.928202485607855676e-01 -1.215537191062820987e-01 2.291325825165771088e-02
-8.086445934834066152e-02 5.580673946275377384e-02 5.312843920454807245e-02 -8.229092726142985814e-01 -1.445380157472496430e-01 2.667230024131847163e-02
-6.973982626017136144e-02 4.655902821575148148e-02 5.143730591893863613e-02 -7.933459305587075017e-01 -2.201481077505176576e-01 2.004436521854333075e-02
-5.553721480065811067e-02 4.592735028360615812e-02 4.063132892997523005e-02 -7.770873511507265796e-01 -2.046663042070061556e-01 1.801942505464873903e-02
-4.608155624686352536e-02 4.322520934372106605e-02 3.481504394972567695e-02 -7.481162029689965021e-01 -2.067492679166150482e-01 3.128653877527114158e-02
-3.335612130273298004e-02 4.843605110817324200e-02 3.456272084713002402e-02 -7.445871400006830454e-01 -2.081538941368951956e-01 2.826921496892504521e-02
-1.896064676142375505e-02 5.040046198688563628e-02 1.767919576975701679e-02 -6.804651720207102183e-01 -2.047529420143843759e-01 2.450585417120457188e-02
-7.142878169421065793e-03 5.357184512690973954e-02 1.730600407565074939e-02 -5.640203055250633257e-01 -2.003683504191878240e-01 1.955669089210830200e-02
8.889075848393230422e-03 4.550268116993675532e-02 6.867093452520622865e-03 -4.480226752938242796e-01 -2.336448567549032074e-01 1.315501039163298642e-02
2.568231061682129182e-02 4.576968981017422167e-02 2.981960507757785983e-03 -3.963377614962784734e-01 -1.923137267077829615e-01 1.101779542462835541e-02
