3.737655518309214442e-03 5.379902603942200018e-02 -2.448642834266817614e-02 -1.794253837199553669e-01 2.181503337674913223e-01 -9.563593936638805151e-03
-1.054377875559199540e-02 4.767660413152170762e-02 -1.395020313588624106e-02 -3.061015487122278333e-01 3.377232847096681145e-01 -1.150552642956097216e-02
-4.812216390822344342e-03 4.698471191350367393e-02 -1.166820646366423242e-02 -1.646809207642553341e-01 3.893611484165989678e-01 -1.032592524608804026e-02
2.274938438192482953e-03 4.762283585364772420e-02 -2.038178807041213236e-02 -1.207763192874683478e-02 3.838349183370359241e-01 -1.282936544117600774e-02
1.467469219231671423e-02 4.751764776471098517e-02 -2.331776400893564860e-02 1.744040970589322836e-01 3.188255167389346112e-01 -8.286524374236858489e-03
2.043180718687728770e-02 4.580055446019810211e-02 -3.583396813640055134e-02 2.780105276489406863e-01 2.501629696512894241e-01 -6.340102630163991539e-03
1.549892696050474833e-02 4.527167409018822974e-02 -3.239841698251794133e-02 3.708130620487716800e-01 -3.965572784756433294e-02 1.950060174301647322e-03
2.126935819977133699e-02 4.872029599379981007e-02 -3.528276138989483446e-02 2.391720401209871116e-01 7.334389301345821399e-02 1.458878638162491696e-04
2.372097336400558198e-02 5.107910917966831249e-02 -2.959982888834344905e-02 1.433099644019214525e-02 3.780035713288369403e-01 -3.462309833192589795e-03
2.297534940214522592e-02 4.238009666738261350e-02 -2.407707742823017583e-02 6.566516511036775139e-01 1.540135205968184984e-01 -7.751360445514009906e-03
3.044394030418915917e-02 4.607962830423595335e-02 -2.815868141190858154e-02 2.389945942810111079e-01 2.239238927180775829e-01 -7.120265284601102421e-04
3.974447780419817361e-02 4.387245445088350931e-02 -4.777184497179554068e-02 -1.260696027104991901e-01 -4.521790245715021084e-02 -3.547907507271469505e-03
3.059893684999527921e-02 3.664122806884579503e-02 -1.602222998806746013e-02 1.046504094314556488e-01 5.460405157732558523e-01 -4.169415413951261390e-03
4.261936159558037812e-02 3.621090741876464153e-02 -3.143863288612036566e-02 2.291397520226390871e-01 1.245649442303933124e-01 4.497820530442611306e-03
4.605767992620736495e-02 3.390297827315033596e-02 -3.006648849576015747e-02 4.650853851035886555e-01 2.783207684965576800e-01 -5.613852515263626809e-03
3.877952996463189528e-02 3.214071410523577921e-02 1.074657595626410389e-02 2.426600098853689824e-01 2.906452970769034944e-02 1.010438397839742491e-03
4.938431507797571424e-02 2.934951486463797249e-02 1.983886959815217566e-03 4.757486305081700118e-01 -5.713346416759903512e-01 -2.774568965031668118e-03
3.558744078776840403e-02 2.826531538239085081e-02 -5.189688074068277146e-02 3.644358834882573117e-02 4.411534265053462800e-02 -7.960989849209154298e-03
4.406140347089412823e-02 3.075779227171189512e-02 -2.132563115635971451e-02 -1.370335250895955703e-01 5.213685663894045141e-02 -7.879124809968230878e-03
3.910634696702669499e-02 2.392439524892612038e-02 -5.073236800727487505e-02 2.428686511480000754e-02 5.566817287788298207e-01 -1.136631796875845271e-02
5.099619625955444102e-02 2.783381141578964921e-02 -8.130793794874097147e-02 -3.114132615885991107e-01 1.130003948496217880e+00 -1.524903872017991692e-02
3.369820151751424381e-02 1.022022462559973692e-02 -6.326808711199488622e-02 -1.109699796561779139e-01 2.389105512474159199e-01 1.994729319089068038e-04
4.429003320192508725e-02 1.128271752756174542e-02 -6.220077843791849137e-02 -9.010039421688739725e-02 2.462049770406926283e-02 -1.058543620058445718e-02
3.654816418952321067e-02 8.645654922924655983e-03 -8.243231189067556919e-03 -9.329778984280122367e-02 -1.992793073260656564e-02 3.611376381822388286e-03
4.952024381134573217e-02 6.555220390246745132e-03 -2.227701281737232142e-02 2.411090657673927162e-01 1.150395680474723820e-01 2.385225247117043340e-03
3.209263165331877055e-02 -4.264885757381556286e-03 -3.892720524813814142e-02 1.826603563564546395e-01 1.520055990568877080e-01 1.299982390682134087e-02
4.005023202473344951e-02 -5.349913596578916020e-03 -4.610477795950856938e-02 2.323516025479379910e-01 3.548568587134522112e-02 8.520897101523696934e-03
5.157158071465148264e-02 1.918641284570017300e-03 -4.516793486501208266e-02 2.606091942902527547e-01 -3.153122082225112699e-01 5.065375364081220466e-03
4.287871836503277106e-02 -1.033756827612537267e-02 -1.934910794831651293e-02 3.306065515906884689e-01 -3.956930538931675567e-01 9.663841253258594055e-03
5.543402927056324814e-02 -5.341964160160478023e-03 -3.011630636516071657e-02 4.526845189677687342e-01 -6.249481665745081349e-01 3.039541333313724916e-03
4.181222224821139893e-02 -2.526469312060760850e-03 -1.362074087691422797e-02 2.329956263751497281e-01 -3.030869528180507033e-01 7.309289611178465540e-03
5.817411520914435308e-02 -6.261322759389108608e-03 -1.984992119883338679e-02 2.705748309600373713e-01 -3.387746956511736296e-01 3.205988411879966225e-03
4.083650620016707894e-02 -1.320320082238101919e-02 -1.005615848191676598e-02 2.178402963134776216e-01 8.121047061455245741e-02 6.820210129438949304e-03
5.367549708928639335e-02 -1.210599674379842644e-02 -1.880866832729655158e-02 2.527773836797673201e-01 4.307392961276109572e-02 6.612384345623596379e-03
3.706657247325902821e-02 -1.101358843217393156e-02 -4.001654453325009797e-03 1.636546362253552267e-01 1.350054698614593096e-01 6.421678605862779325e-03
4.766570989946381648e-02 -1.148267382526152458e-02 -1.149963825473321322e-02 2.856826206813436464e-01 1.316004050444306572e-01 3.607843683371644329e-03
3.489585962260338681e-02 -1.055725833942969087e-02 -2.516535767042793470e-02 7.352089038895771866e-02 -8.438483128321497273e-02 6.698548093487992870e-03
4.643453191495492544e-02 -1.204451977294865653e-02 -2.980705196428951043e-02 1.285186854635145537e-01 -1.188708296180151225e-01 3.134497692541498952e-03
6.226054551605358228e-02 -1.180292176549639291e-02 -3.936629810726111067e-02 1.419031688010970460e-01 -1.339634101067116445e-01 4.261812626342136381e-03
3.882127254043235554e-02 -1.342518446497328183e-02 -3.489278155853825503e-02 8.544421983835086276e-03 -1.533369945884257082e-02 -2.208744142187334721e-03
4.925646616588494342e-02 -1.149214766830045087e-02 -2.570686825571549816e-02 -6.325588199199769224e-02 2.059650982730407420e-01 -7.146955036457394370e-03
3.016245970984538644e-02 -9.410149227121588494e-03 -2.211092517472118546e-02 -5.292476260915866815e-02 1.072206266763197358e-01 -8.362062100147789334e-03
4.483749853846539374e-02 -5.449703012224827239e-03 -2.088625384317466249e-02 -2.627956739521361551e-02 1.022063135802098316e-01 -7.145542089789573732e-03
5.720389268333501281e-02 -1.342334513330708384e-03 -4.339840290895746744e-02 -4.558811399297994782e-02 7.478952720348584771e-02 -6.403878331923712475e-03
3.332328318316263305e-02 -3.082234859212312078e-03 -1.122048819647830653e-02 -1.685824409390990763e-01 3.540465511619990402e-02 -2.596755794644519527e-03
4.953043913536826076e-02 -1.182558847899493892e-03 -1.835380303226497034e-03 -1.094951560448011729e-01 2.192293417612682371e-01 1.239473672608543998e-03
2.881980476940071770e-02 1.744663858414026089e-03 -1.256223506693343595e-02 -2.381329396616246874e-01 2.544839208117041784e-01 6.201048991210663698e-03
4.229894841872997718e-02 7.489296746768267336e-03 -4.007870902750676478e-03 -1.168681198700272372e-01 3.853444882164629437e-01 4.258053432399475091e-03
2.563038670282712789e-02 5.223937815695816125e-03 -2.363977726187571626e-03 -6.206597113214096934e-02 5.497061721402008994e-01 1.297395966328107955e-02
4.355688058794129208e-02 1.173506328883286605e-02 -2.462421911027301569e-03 1.497861946296388282e-02 4.429475763104408492e-01 7.221077986437453647e-03
5.986284378187803346e-02 5.845762869635127805e-03 -6.208782966043657758e-03 7.795828871414723672e-03 4.509083923545965655e-01 2.628592313059321863e-03
3.684077603860355654e-02 2.579443707965645149e-03 -5.607292636329697100e-03 -8.709355097090122838e-05 5.611646324639270045e-01 4.353409116552847159e-03
5.359060686741005941e-02 7.015247818020805236e-03 -1.095608644326917513e-02 -4.336172271074362206e-02 6.046604179060265372e-01 9.940114194140401132e-04
3.234925446736727772e-02 4.283946038626454747e-03 -1.033610091129588682e-02 -6.083647963446009443e-02 6.005699292638865261e-01 1.374938869618927938e-02
4.718090678389719184e-02 3.256838721772091494e-03 -5.236353667007087598e-03 -3.196495664820522831e-02 5.529590436621824034e-01 8.542744186390933622e-03
2.891234681742542792e-02 -1.120789935037270341e-04 -2.204534813086556078e-02 8.669757622822547600e-04 5.293390531530424159e-01 1.370624850590257231e-02
4.438021274339738753e-02 4.400358596608547335e-03 -1.748994636236228528e-02 1.303707625619770702e-02 6.376165012127571474e-01 1.138682028425517904e-02
2.205034570025957499e-02 2.640886726434806681e-03 -2.789062808852038611e-02 -5.911815365491815411e-02 5.673096060680521413e-01 1.090714114477161351e-02
3.545992239959453590e-02 5.256633153355391025e-03 -2.864076320806518972e-02 -1.252067095829343529e-02 6.686525734958962408e-01 9.660695941864133954e-03
4.920702445029091765e-02 3.932884455817299910e-03 -3.401718954700211350e-02 8.048577080591945432e-02 7.591321510637785153e-01 4.505100670936939417e-03
2.743896549429042028e-02 1.708902552271943445e-03 -2.232738477064893923e-02 -1.562528048382093998e-02 7.114401535188578096e-01 1.199534422907803238e-02
4.083753811020641999e-02 1.686181981673622737e-03 -2.771016577472973363e-02 3.216223135037430173e-04 6.940434454598158887e-01 1.077869109681106261e-02
2.117869160258435690e-02 -4.148084508011929197e-03 -2.991933980449190678e-02 -1.361754013164220845e-02 5.784529633863289000e-01 1.176180263857099298e-02
3.670212909949043673e-02 -2.035310049575382238e-03 -3.211452009707399524e-02 -3.117084767471955953e-02 5.234197504910951260e-01 1.665523053206841020e-02
1.951725393931856567e-02 -2.618680058569832977e-03 -3.243789072429492659e-02 -4.177693984895784057e-02 4.300065278822290393e-01 5.679923566779975300e-03
3.213193842291024727e-02 -1.417253058691775661e-03 -3.409497933212296550e-02 -4.726744683080617848e-02 3.930620666845965339e-01 -3.453192644257955038e-03
1.669247876577068315e-02 2.539748261091694798e-04 -3.810131908323255434e-02 -9.066050951683947423e-02 3.644969722601364981e-01 -6.271957926153719567e-03
2.742624259471224818e-02 -1.081957652280056068e-03 -3.948635631742047902e-02 -1.270719395969800714e-01 3.571909612734208705e-01 -1.884038577457634650e-03
4.039334663050224428e-02 -7.047089919713471484e-04 -4.011225289426528784e-02 -1.406883502677666042e-01 3.138249825801320836e-01 -9.032820006446862790e-04
2.480629866535737776e-02 2.496348611097064241e-04 -3.065228620630677803e-02 -1.419769139158526539e-01 2.670857678493635534e-01 -7.953843319092833691e-04
4.076618353436821385e-02 1.091669699195369977e-03 -2.951481033873210036e-02 -1.525046383280278806e-01 2.602735718427621747e-01 2.122456762276433376e-03
2.336534867505963078e-02 4.216104965271878086e-03 -3.138636633649266594e-02 -1.045236795951588055e-01 2.706999143059246049e-01 -3.585470655742791120e-03
3.831399300279980658e-02 -1.037184432779130264e-03 -3.480580541786237880e-02 -1.302184157679443788e-01 2.694983872350739107e-01 2.488046986895728574e-05
2.289414744273496338e-02 3.405844313467635415e-04 -3.319846682126259552e-02 -8.926030549789858159e-02 2.194034151437758151e-01 -6.890037544173469204e-03
3.744883523455608265e-02 2.691814873109071860e-06 -3.270343909359163526e-02 -9.865564025102765977e-02 2.208134095731138780e-01 3.229844750514358613e-04
1.988933549553576624e-02 1.584641011865310298e-03 -1.763808929447790996e-02 -9.616159586528437442e-02 1.750667120161811807e-01 2.805101504622831751e-03
3.416855311776649529e-02 3.028346388496791497e-03 -2.765039291224330453e-02 -9.130892846770198579e-02 8.102528331512651172e-02 -2.169757463696781407e-04
2.742778446210829627e-02 4.872461493823499259e-03 -3.276903734547331748e-02 -1.421963224418879845e-01 1.222509972941268758e-01 -4.294595974058587270e-03
3.808952119148332344e-02 1.355244433386347883e-03 -3.739877135084007653e-02 -1.256119572374467808e-01 1.025149853578147668e-01 3.644884502046428094e-05
2.374289554755440110e-02 -1.945042123601182366e-03 -4.379095471503685610e-02 -1.204433222762365668e-01 1.962204083857799763e-01 6.292323866640038219e-03
3.461470093454215025e-02 1.437373224776100980e-03 -3.794415049159433062e-02 -8.643973307759697522e-02 1.644512374280617806e-01 3.619182110024611251e-03
2.872544876344739276e-02 -5.264735941380712519e-03 -3.723384453049294329e-02 -7.154058782040817466e-02 1.685913632024053921e-01 8.021816310192414479e-03
3.815349385879102107e-02 -1.805872751638539636e-03 -4.234681425208586258e-02 -8.148737551522994282e-02 1.642803041835522448e-01 2.133079680529703301e-03
2.202119737305140157e-02 -2.166589911494907345e-03 -4.152164055081392080e-02 -6.986478530058538861e-02 1.831961918298335712e-01 1.956096494964610581e-03
3.768161558588617455e-02 -1.232413819337925542e-03 -4.214997790647900811e-02 -4.510199823676090680e-02 1.838865525574809312e-01 9.273088108881151134e-03
3.107254105132480071e-02 4.780299082477196954e-04 -3.273506287378025181e-02 -4.595238505578322363e-02 2.362094003965850841e-01 7.238616685610336533e-03
4.504418189934692590e-02 -1.228032611224021478e-03 -3.083469952224365818e-02 -3.570261268903992397e-02 2.314994723493415951e-01 1.142773935453510713e-02
2.207536863448387662e-02 2.151001922088663712e-03 -2.002321978692112037e-02 -1.670091971557685906e-01 3.182604465672955740e-01 9.904403365090059738e-03
3.216174268194630509e-02 -1.246695278805668577e-03 -1.870166465962525004e-02 -1.263042410336311649e-01 2.330333042899363494e-01 1.261309496737538470e-02
4.334506357904412827e-02 -4.632520360906122042e-04 -2.517750865950096895e-02 -9.434288653942649039e-02 1.649462588834403332e-01 1.310480095044186388e-02
3.039131181045187646e-02 4.979639936241779530e-03 -3.871547554454318751e-02 -6.323600585249082584e-02 2.419163561179180910e-01 8.936834294758170399e-03
3.694231407469791145e-02 4.385617286402038878e-03 -3.897277248266362015e-02 -5.638780159355717692e-02 3.010717835297223588e-01 5.376263550880949413e-03
4.575463449136213390e-02 4.254328152641121893e-03 -3.333925952591870745e-02 -3.978538351269350626e-02 3.673802388285732357e-01 5.964624604683227069e-03
3.095556271380382751e-02 5.018892644510787246e-03 -4.030360811954825095e-02 9.570438049926343780e-04 4.425240437789888515e-01 -9.959096515200435012e-03
4.047498957126482305e-02 1.775480249468500832e-03 -3.557566392774980102e-02 -4.458832416940929771e-02 3.627344528601397777e-01 -1.888283690726346494e-03
4.496171600861597478e-02 1.634226302897631364e-03 -3.895586450959381830e-02 -9.502773244787408868e-02 2.922227604272338852e-01 -5.855392937715443551e-03
2.931160543143736599e-02 -2.529980436157836660e-04 -3.617442766020156908e-02 -1.059381645528900129e-01 3.219828526318070927e-01 -1.576252196315543891e-02
3.406814004614115016e-02 7.685968886135974981e-04 -3.903300660798014743e-02 -7.902236680551982806e-02 3.932072895272629154e-01 -8.873107926273078941e-03
4.162136777423783296e-02 4.651154023605441612e-03 -3.865131485762901553e-02 -6.559590915650653775e-02 4.526642924546596114e-01 -9.175290295972247587e-03
4.729874271160168508e-02 3.762415849672965523e-03 -4.360909403026380637e-02 -6.681191908905689814e-02 4.883345833627977806e-01 -3.589491432888526883e-03
2.955410132596301628e-02 5.993465563671105355e-03 -4.270162744159616830e-02 6.248693794629926052e-02 4.815862235459046903e-01 -6.023851812176799110e-03
3.339983320408470430e-02 1.011928114411613823e-02 -3.536190588575377491e-02 6.738689761071928186e-02 4.511015594513981264e-01 -3.003717172403604346e-03
3.893110319594650370e-02 2.084863559968636731e-03 -3.092313609192420820e-02 9.602558265241389890e-02 4.492619142588716863e-01 -2.637481949105581133e-03
4.460867078929305063e-02 2.704478598297798200e-03 -3.415806403110327460e-02 8.672073366998236943e-02 4.344028779128097928e-01 -4.146100928350797930e-03
4.865728583604528312e-02 1.109335709308507251e-03 -2.889056998097627726e-02 7.908000200998041573e-02 4.286954209964763396e-01 5.914062499128528317e-04
3.107193894460087355e-02 2.101437376615394523e-03 -3.042648134208686406e-02 4.287545966398303432e-01 3.923720522859830417e-01 7.310384852176875572e-03
3.177973692119940435e-02 3.464368309105850946e-03 -2.594204802425870149e-02 4.000372977805485841e-01 4.078560415618315282e-01 7.235542659055837003e-03
3.540795637962543263e-02 7.724826374676391216e-04 -2.538560348620044760e-02 3.286653716979284212e-01 4.342877220506993763e-01 8.996459883960229720e-03
3.789991409143952938e-02 5.856490969835370652e-03 -2.804992537653572260e-02 2.798971242397602643e-01 4.711487998754503304e-01 7.280289372329544484e-03
3.936248613839461036e-02 4.171282412726479844e-03 -3.296611397544457756e-02 2.589114595667856844e-01 5.076967522942907873e-01 5.755417850305200901e-03
3.943012310882126892e-02 4.568925651198070016e-03 -3.189825884221147989e-02 2.404314418974133893e-01 4.934542674643295768e-01 2.675665931961286603e-03
4.022911243031604411e-02 4.945601483263801362e-03 -3.247313381269240073e-02 2.315435626235521349e-01 4.918296879211610517e-01 -4.865728521967756064e-03
4.397214543217184413e-02 8.002224497402990813e-03 -3.183163116844889284e-02 2.213888627350467930e-01 4.780167032008175165e-01 1.010212208020475760e-03
4.703672015595292133e-02 8.544954081820840472e-03 -3.401441496831641986e-02 2.099925804749429581e-01 4.786895338380804388e-01 -3.199337020358580287e-03
4.445445743796606203e-02 1.070623308028657329e-02 -3.535988125457645292e-02 2.014756571670295038e-01 4.617154094262792552e-01 -7.800219058058843052e-03
4.984768291346454439e-02 1.133758215333531723e-02 -3.878708425874805021e-02 1.784632973118622790e-01 4.704261842518852044e-01 -9.988709201832111917e-03
4.969525951496273769e-02 1.065793107778905714e-02 -3.636074894112739653e-02 1.711627631772910108e-01 4.844531491598159656e-01 -1.159473288753150484e-02
4.808312186637296592e-02 7.635414876991384117e-03 -3.557461275801032663e-02 1.550424301699662444e-01 4.812377156296799297e-01 -1.131752552607406641e-02
4.862188017085461444e-02 1.130090334533409221e-02 -3.471867549448232060e-02 1.321092137176975156e-01 4.911846393352266027e-01 -1.098192964887718601e-02
4.853731032831677672e-02 9.334757610736757125e-03 -3.403812330600863856e-02 1.203467109665215390e-01 4.934676029719409218e-01 -1.163172818725149299e-02
4.712317778957453296e-02 9.344714359421182545e-03 -3.870883895693233434e-02 8.813519801249647401e-02 4.754844370809487297e-01 -9.988248858606460154e-03
4.605751312962066274e-02 1.016584567305230460e-02 -3.029207349813795025e-02 3.140660809398315018e-02 4.832794891035764318e-01 -1.472983567765863942e-02
4.614615852099473309e-02 1.240273124792956767e-02 -2.741144274957724170e-02 -4.355795016278606047e-02 4.949492916728198688e-01 -1.542815178780500285e-02
4.884934516745460809e-02 1.530077763196745905e-02 -3.219336726983934582e-02 -7.613090710897742197e-02 5.024009252084207233e-01 -1.848909668374207338e-02
4.573410304780856084e-02 1.461816273064191381e-02 -3.370571248496684325e-02 -7.970950403044714527e-02 4.912704766197785733e-01 -1.567673275649776599e-02
4.631594676331605986e-02 1.196494709242655607e-02 -3.458456035397022843e-02 -7.305604508100994876e-02 4.917349925254007603e-01 -1.926541069736333739e-02
4.550075806955288654e-02 1.164962611370100841e-02 -3.320027832932670453e-02 -7.682367079931923248e-02 4.948172785878903190e-01 -1.678869036620021793e-02
4.546188153371210489e-02 1.158609698728494362e-02 -3.461128781337752258e-02 -7.820389021392332163e-02 4.899822631505835191e-01 -1.233791415076551656e-02
2.728137498572635183e-02 7.795705829052673730e-03 -1.765874417999363510e-02 5.029433450170625042e-01 4.782603438291587183e-01 2.281008041084595529e-03
2.581510069911600522e-02 8.750187030157764723e-03 -1.348797078001895411e-02 4.814384139357482661e-01 4.705923084997793993e-01 7.544373691997900873e-03
2.849285870843316221e-02 3.176265364639782943e-03 -1.885846410647934457e-02 4.012468383271711736e-01 4.738500241604784446e-01 1.252742257564789033e-02
3.137640294639366251e-02 3.629800554409695970e-03 -2.102444246967827279e-02 2.621769858425224697e-01 4.656418799788036855e-01 1.052329985203630074e-02
3.386268221139990264e-02 4.501730718596223119e-03 -1.641120969408776942e-02 1.475331362512275757e-01 4.661884768270030954e-01 4.270882206546288903e-03
3.460885954067042386e-02 1.301878156705809156e-03 -2.564197272497231728e-02 5.238037716792022513e-02 4.506077829585599659e-01 7.053646714831615996e-03
4.023048195979574138e-02 5.578301784276030323e-04 -2.015158436561842459e-02 7.339735464792809805e-02 4.481777580382338422e-01 1.118680281512341931e-02
3.706803518338130932e-02 1.521843931968906716e-03 -2.534941998214701453e-02 8.687045032874131378e-02 4.322779891892045701e-01 6.491360973139104727e-03
4.107536773912871808e-02 -1.855643051352225126e-03 -2.522368116100387470e-02 9.345417938658344414e-02 4.409241980690521423e-01 5.067683703701351440e-03
4.563875725864333099e-02 6.509098221745696078e-04 -2.545865794992491216e-02 8.063217841944246567e-02 4.302296794886090736e-01 6.590297969833220845e-03
2.797491679900611025e-02 -1.957914307364199899e-03 -2.431054290183315425e-02 8.261503652357013450e-02 3.564391950558389865e-01 3.472045643725215919e-03
3.312823752100763075e-02 -4.867503802900505216e-04 -3.558740506112240132e-02 3.253682425368755599e-02 3.109075927357952129e-01 6.626404252896580215e-03
3.922491961520425952e-02 -2.721409398010432926e-03 -3.494866897083209745e-02 -6.155771194445796429e-02 3.146508586385449169e-01 -7.168809600535251030e-04
4.602308866401651904e-02 3.610784270780945104e-03 -3.785579930239924007e-02 -1.037121020929205328e-01 3.133801881582581328e-01 -7.602595024415747822e-04
3.477351655454601065e-02 3.776950254371545801e-03 -1.862665836061827562e-02 -4.273353983904576436e-02 3.465705447853402177e-01 -6.861457480255697683e-03
4.332934235335554607e-02 2.138666133584224416e-03 -2.150197071966297724e-02 3.274749502734365398e-03 3.742169880684266259e-01 -6.148312910003088036e-03
5.000495078079515709e-02 1.411258018282731536e-03 -2.933361755992391906e-02 -1.830066400075226404e-02 3.573795295549100914e-01 -6.604203772910060069e-03
5.633732838548921595e-02 1.756544544707435915e-03 -3.308780823068230292e-02 -6.428478495136601134e-02 3.263268218081857852e-01 -1.439752330757081145e-02
4.237148745246788889e-02 1.360125356360852508e-03 -2.300865312125088824e-02 3.333550688491155808e-03 2.771864587633460220e-01 -1.819188179616568202e-02
5.334348402278758783e-02 5.920927778418592913e-04 -2.817059439519914443e-02 2.089206349476686875e-02 2.469215023607313764e-01 -1.610282895753379143e-02
5.847504099570507985e-02 1.420294971441481841e-03 -3.010375048967883771e-02 9.001175058913865601e-02 2.325865632962475782e-01 -1.938068117407807517e-02
3.858334996197149147e-02 9.100666228617200135e-03 -2.006706747410025304e-02 3.353963524228910364e-02 3.181622546242208749e-01 -2.354817827650942247e-02
4.670760147236499571e-02 9.677458841573978801e-03 -3.168875803792747803e-02 2.438955765672550999e-02 3.211896248505869966e-01 -2.635643902113916220e-02
3.708356857590673628e-02 1.342785482039299955e-02 -1.884008181386620517e-02 6.040882732654943854e-02 2.430236141666778094e-01 -2.594801754384484793e-02
4.463986579688052764e-02 1.302284707016828844e-02 -2.086455394643438321e-02 1.286036918909758409e-01 2.320165795866679370e-01 -2.244082042543456626e-02
5.285288003410004709e-02 1.106443675928054163e-02 -2.313840978944231574e-02 1.765560876098514753e-01 2.202976281177600748e-01 -2.323114686770249779e-02
4.490381009906369014e-02 5.837976788280970809e-03 -2.212323703771212902e-02 1.285517602735016807e-01 2.158763747563795521e-01 -2.484780728960648416e-02
5.344465901718210149e-02 1.604680190543602419e-03 -2.528487576459098607e-02 1.716896728366998082e-01 1.773301661518236483e-01 -2.231725908942785302e-02
3.920992710467061104e-02 1.569616744192564584e-03 -1.727404746534344504e-02 2.313541906812126639e-02 2.648809833915973799e-01 -9.775275345143477970e-03
5.153750961242960227e-02 3.799443895855526485e-03 -2.030058212129126627e-02 -5.875031277963443238e-03 3.009334630338211247e-01 -1.783877150270630346e-02
4.351980872214904206e-02 -3.538477049543301695e-04 -1.868007339535515676e-02 9.081786972817093573e-02 3.001870752939760356e-01 -6.500439241005125796e-03
5.261473426217587457e-02 4.057232756347249614e-03 -2.889567473943521758e-02 9.720043096262503957e-02 3.102564423947637429e-01 5.909024573632721752e-04
3.907246473469191961e-02 3.865668451107900222e-04 -1.597709255891932578e-02 1.387041706376002659e-01 2.715417113073406719e-01 3.281726966763093192e-03
5.127747165705717758e-02 1.025873143831760800e-03 -2.357408086220913468e-02 1.074533360205610771e-01 3.467465886140108644e-01 -2.686135311451952421e-03
3.781757312671774757e-02 4.165674961433347284e-03 -1.952526102880103309e-02 1.804024089845076770e-02 2.539621746128641888e-01 -1.762243299274580521e-03
4.921283004678923129e-02 4.910126584748424061e-03 -3.676954979093949305e-02 7.742936291729192455e-02 2.279254106810094938e-01 -5.855138121365670517e-04
3.515159429069741187e-02 3.972462417190913281e-03 -2.685990386210540537e-02 1.578246188562816288e-01 1.358516259749530386e-01 1.010394062996364598e-02
5.179744897457770614e-02 3.988058726909547366e-03 -3.974131973476191515e-02 8.755318270584942775e-02 1.267769644468785817e-01 1.797638322972088584e-03
6.417171396957363494e-02 6.332449025663059762e-03 -4.093237262764576334e-02 -4.290416759403970631e-02 2.386930064689465614e-01 7.615654312006937127e-03
4.613199180596050386e-02 8.807212551539517209e-03 -2.447122162766446340e-02 1.587549053332994731e-01 1.457081654918439551e-01 1.467944372183303987e-02
6.186196737039054150e-02 8.519348654403775464e-03 -2.191011913862450644e-02 1.260034909688545479e-01 2.751641873133002236e-01 1.107976653685290372e-02
4.592823839203525466e-02 1.138631920194797115e-02 -1.109954013406327933e-02 1.351537122504377075e-01 2.363623016563490276e-01 4.987179201838027633e-03
5.897020194991334230e-02 1.158697672968606561e-02 -1.550833596106093726e-02 2.683427052035501359e-01 2.387355771871975396e-01 -3.913394162339548649e-03
4.867927705128233251e-02 5.155591983286288496e-03 -3.600137131119129918e-02 6.677166210857622686e-02 1.104494903117499843e-01 -1.145093723839767097e-02
6.015270348809745315e-02 6.006071563190299063e-03 -4.184248045590743814e-02 1.456204942888458531e-01 9.845130742528677981e-02 -1.070438959366784050e-02
3.903310614381122479e-02 1.162116798047520792e-02 -2.407826171982802022e-02 1.519295181236650083e-01 1.471334808383855108e-01 -1.491331248710068245e-02
5.313281068487005210e-02 6.945304410957883409e-03 -3.398665706389897290e-02 1.654485146869295042e-01 7.769699892795139951e-02 -1.411381223113632524e-02
3.589807407863283839e-02 2.959535733494162227e-03 -2.951978024186019400e-02 2.088921202502632690e-01 4.363433197908973826e-02 -2.011407542106162516e-02
5.032127252788909377e-02 1.092085812785406097e-02 -3.339724014257000606e-02 2.133029164236178443e-01 -2.240580242676519507e-02 -2.723654584643172075e-02
6.651782230614207425e-02 8.768117615339340865e-03 -3.911615010264202219e-02 1.383391192271933023e-01 -2.800338345926025804e-02 -3.360325584670249832e-02
4.624978295824527796e-02 9.907134070936204559e-03 -4.020097082315526871e-02 -1.785187718523669311e-03 -8.149997192263322421e-02 -3.273999916827206175e-02
6.179051228781170385e-02 1.461668270629733722e-02 -4.087554411610294647e-02 5.504063201930733951e-02 -9.703410307868391704e-02 -3.432762350398172596e-02
4.372804767273912735e-02 4.025967502947386950e-03 -2.762449438477188046e-02 -1.029516472805976912e-01 5.009644037190156413e-02 -1.324369597815754605e-02
6.645235257374841609e-02 5.051591878103511152e-03 -3.710550513260457706e-02 -1.019728889176003128e-01 -2.813239461256059407e-02 -7.591221730830071367e-03
4.975994951448515363e-02 5.513781175865033191e-03 -3.966688716787142299e-02 -1.600644492990833112e-01 2.176657180876404307e-01 -1.264433679503682018e-02
6.689432416871937681e-02 9.637235559496545520e-03 -4.932605826880881450e-02 -1.185394740404845104e-01 2.247068072636250746e-01 -1.491036635040686800e-02
4.407654596866773800e-02 7.297151979628848512e-03 -2.163810626095469258e-02 -7.356161623014310924e-02 4.910834999945450918e-01 3.889563391565831695e-04
6.216541833224707020e-02 5.427825986914141393e-03 -3.068175208324053216e-02 -9.857077910865376380e-02 4.562320147335702236e-01 -1.698056264048139561e-03
4.056864116286562627e-02 3.552239992833442633e-03 4.546066144032856471e-03 -8.943967115929293832e-02 5.550430486266314523e-01 -5.301789428483924885e-03
5.797650055009452574e-02 7.052921145927383215e-03 -1.633378744404140326e-02 -1.039979404893850989e-01 5.639663581902218947e-01 -9.714030184263103274e-03
2.966713393686290501e-02 6.639745870561519422e-03 -2.560787036348793899e-02 4.124510926781937981e-02 5.276256201584043071e-01 2.867041090574073709e-03
4.314980287423707261e-02 7.293216867350928861e-03 -2.916065444635429493e-02 -1.336645652977668831e-02 4.994806797760967254e-01 8.181021031550366612e-03
6.762505422514533682e-02 2.634495792251039664e-03 -4.034099606222196766e-02 -6.359276145337618147e-02 4.364187070702844617e-01 2.462098873863803172e-03
4.237459871909669828e-02 2.288361489626241502e-03 -2.382732309010671123e-02 -1.261008368278772052e-01 4.665750616621057167e-01 1.333204297637711512e-02
4.232579721357920821e-02 6.004099447193066152e-03 -1.930643066042059264e-02 -1.414265762424332384e-01 4.954102935936252061e-01 1.039489002886524911e-02
4.094479063657262274e-02 1.078039307798217203e-02 -1.978697218569908101e-02 -8.874800174258251628e-02 5.392168296313097908e-01 7.905479948258284373e-03
4.185486426322602982e-02 1.226202287899946959e-02 -1.642736566991315206e-02 -6.517674296513015220e-02 5.486969174370472935e-01 1.283462078041422601e-02
4.521600324875836574e-02 1.024993981211664608e-02 -2.351343213203099802e-02 -9.925479605135319183e-02 5.722990463164201458e-01 1.043550555926768889e-02
4.612943817840610417e-02 9.472638092098350018e-03 -2.929762363786170276e-02 -9.864146237557919195e-02 5.892623728501331648e-01 2.045998883156657875e-03
4.484174688101855155e-02 8.407554677622566808e-03 -2.027703581532108723e-02 -9.540788861922981645e-02 5.974144439407882423e-01 -2.876160225292205899e-03
4.505739635483144850e-02 1.002287157120242307e-02 -1.043698825027739030e-02 -4.996033072639371325e-02 5.766516925447704445e-01 -4.839734128295355292e-03
4.008862505458741371e-02 6.556108812207536198e-03 -1.767704533545416679e-02 -3.160441408744586733e-02 5.367773199627899894e-01 -6.270724420524327256e-03
3.798205168494672712e-02 3.893672389448253959e-03 -1.822988207204084832e-02 -9.366919257796924025e-03 5.237308988013804623e-01 -1.577707930023903790e-02
6.075790375295729573e-02 6.239055830100318639e-04 -2.061565852679869693e-02 -2.927158200507401498e-02 5.394170760741472392e-01 -1.234146878310176179e-02
5.339415829948375436e-02 3.333610433430918632e-03 -2.167610359502386563e-02 -6.429552068981851318e-03 5.011203979527493191e-01 -2.168112235546005434e-02
5.384062797154232083e-02 -2.141146978215909338e-03 -3.144476764797160540e-02 2.623848716112647805e-02 4.671977786194796423e-01 -9.874771164410999641e-03
5.554241972051453258e-02 -1.909369918010358005e-03 -2.408724625470043401e-02 3.660189577304498454e-02 4.685205402199263403e-01 -7.980696363613459451e-03
5.263352738773583589e-02 -3.134137140155049406e-04 -4.294902380811843612e-02 4.184065833470398954e-02 4.198158990583411576e-01 -1.163716302653433968e-02
5.297185422407225952e-02 -4.866348548699869769e-05 -4.709914077317162162e-02 9.311397315563864352e-02 3.835054870184561593e-01 -1.410836142671723255e-02
5.154227944215467733e-02 -1.171881877736515032e-04 -3.563077615868609493e-02 1.473241475802953282e-01 3.782044221413445872e-01 -5.475444504509024285e-03
5.169867675476147451e-02 5.641387007954135058e-05 -3.344230913933315952e-02 7.240594902782729325e-02 4.191809669722547094e-01 -1.154219154221273504e-02
5.378198216906216605e-02 8.291445781027991999e-03 -2.460824963495644724e-02 -1.241972572370970800e-02 4.325148262217043960e-01 -1.497339976109398826e-02
5.812631704451495795e-02 7.377496246918880188e-03 -8.277014053437647956e-02 -9.834082482501733946e-02 2.309559295040409799e-01 -7.944266381631896398e-03
5.220867751681763924e-02 -2.148507706390863359e-04 -2.090898517318334759e-02 5.366344527825463867e-02 -3.582674307443023953e-01 1.071417573883111244e-03
5.163672096057654592e-02 1.458373874417011676e-03 -1.816664448071947380e-02 -1.066077054760970928e-02 -5.594470374521023914e-02 -1.995378097000364247e-03
4.406267329309342118e-02 -1.379630886394457578e-03 -2.454801913632742583e-02 4.849693290443367680e-03 -9.198599877138961822e-02 7.082609745917747834e-03
4.220904988875026631e-02 -3.873680802048834471e-05 -9.572823891644544059e-03 2.836773032907070197e-02 4.706976993241897278e-02 3.473252076421588265e-03
4.190688940808678237e-02 -2.609782692876644675e-03 -2.355792922918004129e-02 4.835101905219040680e-02 2.058968160265855774e-01 2.553431392498090990e-03
3.623942858178968301e-02 1.600153823983062329e-03 -1.561150709182251850e-02 3.230408080695967854e-02 3.227957033539702314e-01 6.733454082044538526e-03
3.853373460550850449e-02 -3.906900010323654734e-03 -1.506304888869280934e-02 1.192944374119253755e-02 2.785953670989555486e-01 3.423629467858307299e-03
4.116905346113200470e-02 -3.242996483150821160e-03 -1.430643659216673802e-02 -2.941402985980325069e-02 2.266248094738536889e-01 2.073037940361060517e-03
3.795771669035578888e-02 1.322548961331873260e-03 -2.818208004056199645e-02 -1.380037537579861980e-02 2.027560052801835322e-01 5.128363107141454928e-03
3.514688883642499984e-02 -3.271475938496809163e-03 -2.849796311027913420e-02 9.835900418593959693e-03 2.250554846207662718e-01 7.906624689632510070e-03
3.755224964234023244e-02 -2.706145109593964190e-03 -3.387592674236644674e-02 5.851003965837570792e-02 2.286143610233123957e-01 4.822502315917132944e-03
3.456897606392633771e-02 -7.598111731228473012e-03 -2.577684021466802866e-02 8.549387604726572942e-02 2.474196028870100650e-01 1.060610548823293954e-02
3.172436724754185144e-02 -8.712199800474230635e-03 -2.526840849575978654e-02 7.972918707228007773e-02 2.300859096576307883e-01 5.038058563389400876e-03
3.552827523042688396e-02 -7.537154473625568354e-03 -2.401316371426215346e-02 5.918019405775617331e-02 1.670475361060226593e-01 -1.051905389901597451e-03
3.624547226234325903e-02 -8.812420433373963080e-03 -2.077390409689294781e-02 5.683310407433513761e-02 1.062126541356471221e-01 4.597826041552319914e-03
3.901830313035604958e-02 -1.198906822052356672e-02 -2.671568318116862573e-02 5.351298637638546990e-02 3.697807738525729637e-02 1.672072494635771286e-03
3.569905292147508569e-02 -1.863528942017076556e-02 -1.233412442730058567e-02 4.732912963183771859e-02 8.736668150242199449e-02 -6.523225577755739635e-03
3.601853952972563361e-02 -1.711883442427554816e-02 -1.785128783365175220e-02 3.827070632915117315e-02 9.170247845574752699e-02 -7.388314737990684181e-03
5.662371138996427633e-02 -1.742834715012449992e-02 -2.672022617830094315e-02 -5.848104083207926462e-03 1.258365981951961310e-01 -4.950454630929461419e-03
5.581925907048870816e-02 -1.434395073399812037e-02 -3.190826098354743179e-02 -8.310692106529399270e-02 4.675653248690463809e-02 -3.945942777829203850e-03
5.212512748711166377e-02 -1.201631869525609381e-02 -3.883627361099289965e-02 -4.098788650355095903e-02 1.298542790514161660e-01 1.526270240088286202e-03
4.905895210117479366e-02 -7.809697383181215050e-03 -2.858198037980369532e-02 5.435610972605327447e-03 8.993934287436571029e-02 -1.533013874521760994e-02
4.372516810008216653e-02 -8.629453236045874290e-03 -3.646838760200937779e-02 8.906181921467260995e-03 1.360111891694923969e-01 -1.643672688405244109e-02
4.217679060964081572e-02 -7.460696433540406000e-03 -2.771559121809102910e-02 -1.238917634669696802e-02 1.586297272730685382e-01 -2.436362224995352460e-02
3.983498092983715766e-02 -3.026249039678309202e-03 -3.554356425400306829e-02 -6.703073885188697012e-02 1.822798851154374122e-01 -1.294505737907635651e-02
3.959287294507268795e-02 -2.021259491757906174e-03 -3.014704448567495643e-02 -2.629312260341546900e-02 1.478660590475346648e-01 -1.498565685935288050e-02
4.033310382417518158e-02 -2.506967468010575309e-03 -3.210746461448171774e-02 -9.027701161739723566e-04 1.231131572727011958e-01 -4.577322857583078324e-03
4.477489763162392777e-02 -6.661062168786924254e-03 -3.419409657604804975e-02 1.874385222943624266e-02 8.403066972364299503e-02 -1.243506985304248039e-03
4.693200693471809987e-02 -7.856646711978406902e-03 -2.516265832685832260e-02 -2.574843163020615507e-03 6.917240640479839497e-02 -2.882092609508456454e-03
4.615651392733965963e-02 -8.005092824943452201e-03 -3.151354676114737074e-02 -3.802772009647832310e-05 9.419742650965680364e-02 6.275554598793404645e-03
4.397782644855335182e-02 -9.950778887820144192e-03 -2.470561005533411514e-02 2.421394886753369322e-02 8.704569123351170445e-02 8.259385113617716961e-03
4.199712414470188615e-02 -8.048673921190295164e-03 -2.709500556964217211e-02 3.677491811747151534e-02 6.458515087292829304e-02 1.044333004337743426e-02
3.393509271483066692e-02 -1.222363094066753614e-02 -2.641602553667093956e-02 7.024199162741638809e-03 4.441365709714982513e-02 1.425673858000412950e-02
3.513353081024481184e-02 -1.476793434948094931e-02 -2.979344657212867897e-02 1.818666461583033633e-02 -1.560131036964882215e-02 9.951552156463476517e-03
2.704578038942633683e-02 -1.212165458189363304e-02 -2.838086444866189106e-02 4.248007241179174026e-02 -3.833262952121580663e-02 1.403908792825808195e-02
2.511141861331580433e-02 -1.356927341014729262e-02 -2.607443858026037287e-02 4.901425343694554293e-02 -7.118102362531270044e-02 1.941601584524092761e-02
2.434872798039354122e-02 -9.321072838342219988e-03 -3.184802320090840411e-02 -1.253998037909454834e-02 -2.622955779486911554e-02 5.174299408966132920e-03
2.172547897037948109e-02 -1.366866169308380424e-02 -2.670589124877387199e-02 -9.253874866944010458e-02 1.331850473697610698e-02 1.085684270196802040e-02
2.083488441703722563e-02 -7.416515844089709847e-03 -2.208695692421908108e-02 -6.539814397778259680e-02 7.351720057270134945e-02 9.419629604222214472e-03
4.632629774276166013e-02 -7.936887709599854679e-03 -3.028018290271256019e-02 -5.409759798822321754e-03 6.931308092566669521e-02 1.446826908147230695e-02
4.567192710155790203e-02 -6.287101863253126768e-03 -4.846569881377438271e-02 4.068690210062617801e-02 1.449068871910272338e-01 -2.523412615073013406e-03
4.637897067721280520e-02 -9.599264293255771810e-03 -2.374192467442398646e-02 8.108935784973866912e-02 1.686448809765064838e-01 -4.829050408822669824e-03
4.741993807144773143e-02 -1.148944407242483666e-02 -4.620549443651661425e-02 5.931299273552218670e-02 7.418116071300917547e-02 -7.942839141937448055e-03
4.781238494147067863e-02 -1.272176169172327398e-02 -3.612102051759552568e-02 -6.008801183794098416e-02 5.433324225005923408e-02 -7.424540685835508483e-03
5.005120318627397091e-02 -1.091481598737087909e-02 -5.972601717326270210e-02 -1.254501371620324879e-01 -4.888231815732185792e-02 -8.596017009830564382e-03
4.512085753109348202e-02 -1.074013051617900109e-02 -3.903053870899159117e-02 -5.848514031870585134e-02 -7.307600388767000743e-02 -9.207110927081730081e-03
4.534548032247727456e-02 -1.634528669934628975e-02 -3.798073639568022575e-02 3.549388812611670857e-02 -3.521283977083854849e-02 -9.270251400269286651e-03
4.317500265765157608e-02 -1.695707411958128838e-02 -2.617224336206902535e-02 6.443239369097938929e-02 4.518731997229719771e-02 -9.016079730886701615e-03
4.272256181968249467e-02 -1.272803567774757026e-02 -3.050940979212418691e-02 -1.854067835447973864e-02 9.104774226581555108e-02 -1.911071957639623800e-02
3.633365015717587854e-02 -1.336632577041450831e-02 -3.395293669772275758e-02 -7.688553024156703775e-02 8.265756290463154021e-02 -3.156274389283458132e-02
3.763148770310299762e-02 -9.158401385111175630e-03 -3.920316631574521926e-02 -7.609356288779910160e-02 1.068163172454228149e-01 -1.967572441742200182e-02
3.584081089770208006e-02 -1.273906504604045697e-02 -3.724405357755095070e-02 -7.853669797016675502e-02 1.026782216159120298e-01 -1.536964216682826061e-02
3.501122359439878123e-02 -7.661558538521965472e-03 -3.442552955689598404e-02 -5.107160463116643817e-02 1.370867667790769129e-01 -1.647346240717551327e-02
3.710412715821002905e-02 -9.231557089636218197e-03 -2.548394361515954332e-02 -4.485805490090711330e-04 1.368790059668478221e-01 -1.370550243366521447e-02
3.916184303999928340e-02 -1.133951270717417810e-02 -4.053916856277811620e-02 7.262356716317239225e-02 1.054600544125466055e-01 -1.581788958883198482e-02
3.844893502701126481e-02 -1.128036307853704304e-02 -2.560678248651454547e-02 1.453750660594043953e-01 1.022566440825814077e-01 -1.489625058398222172e-02
6.337180644809768670e-02 -5.566001560875359286e-03 -2.081795390372359611e-02 -3.907030848856185568e-02 6.289205299948182060e-02 -1.337458696989844882e-02
5.776943390871089323e-02 -8.031367012845808812e-03 -3.049188827814264258e-02 -7.675023095792308549e-03 1.549264340912498428e-01 -7.390160754701065315e-03
5.852156073452304680e-02 -8.247611394290197892e-03 -2.976647594567810584e-02 8.255436062728507829e-02 1.841618229184064925e-01 -6.535827272905502146e-03
5.472519146387636035e-02 -1.206673411359735458e-02 -3.654213887837803876e-02 1.113158917562005051e-01 2.148263018811500669e-01 -4.882830219915434283e-03
5.494007382085355079e-02 -1.044267305938523759e-02 -3.314287216370942479e-02 1.126925596817104497e-01 1.630750572628488215e-01 -3.866041429277656139e-03
4.713328893708940842e-02 -1.235962232246125801e-02 -4.603630899509114638e-02 1.575569228513191977e-01 1.284230666996906411e-01 1.271358590297363284e-03
4.719195318645702519e-02 -1.208758375533450571e-02 -2.573748321388569238e-02 1.224389013480745164e-01 1.289946681471048073e-01 1.180399280887734804e-02
4.513229866576287663e-02 -1.531595171559687815e-02 -3.478954197549177785e-02 4.997447568953928415e-02 7.346887927258324846e-02 7.282088956953587482e-03
3.631758374393610767e-02 -1.246791118364229747e-02 -2.597181784506319424e-02 3.391669269474177628e-02 7.328574155634129395e-02 -2.511631328407838096e-03
3.488013206885343109e-02 -1.380732638875406711e-02 -3.349216523805798040e-02 1.040265446714833640e-02 8.792743066674028884e-02 -3.857845860598986543e-03
3.153625197644026323e-02 -1.104168919227086453e-02 -2.348521857439533900e-02 2.483355661539397071e-03 1.198619126222140036e-01 -8.429429548978713618e-03
3.611946228340417314e-02 -7.290901229810530654e-03 -2.010534412114467484e-02 -8.581617031448413035e-03 1.133263571374991813e-01 -7.390542345465683782e-03
3.425531097130843361e-02 -1.074590364978642194e-02 -2.402621419933809177e-02 -2.443399659606623059e-02 9.062275796661151128e-02 -5.371288777954199428e-03
3.242854993303706523e-02 -1.195456223009137668e-02 -2.461714495346806197e-02 -1.557728579381731154e-03 6.609334952547128716e-02 -1.025432502022858607e-02
5.429662722136257419e-02 -1.396124359604670497e-02 -3.601513457685823205e-02 4.109552350177827357e-02 1.418200633117691345e-01 -1.019653738926694711e-02
5.533546180923488989e-02 -1.296935666580270423e-02 -3.640846244185752534e-02 1.051807989908110433e-02 9.226609229729350325e-02 -3.304092036372401411e-03
5.359822734654534626e-02 -1.267312602665834724e-02 -3.482344237259243913e-02 -4.835406400159416446e-02 4.885030527572135906e-02 4.624169221802782760e-03
5.177025862745952833e-02 -1.442140679439744312e-02 -3.066636933973326817e-02 -6.602122828449720482e-02 1.060557512064297901e-02 -1.538614595585187069e-03
5.135629428496529120e-02 -1.300720950591307754e-02 8.166666525178944980e-04 2.082360086802018118e-02 -1.800417780497001047e-02 -9.191640709343943012e-04
4.825267804797446491e-02 -1.476999567128259479e-02 -3.018503210068429476e-02 5.650619943426895588e-03 6.973799611558161027e-02 -1.005991942588151285e-02
4.636766103311715237e-02 -1.219217523272437403e-02 -1.781333358259157285e-02 -2.935558009816374367e-02 8.877640988030589819e-02 -1.341807131655197403e-02
4.606348227347263624e-02 -8.336190112342331884e-03 -4.154048502333651527e-02 -8.162437025586201378e-02 1.935662883741044171e-01 -1.595450766597184336e-02
4.403381024733223070e-02 -1.450976441288734722e-02 -3.415298804597921567e-02 -3.577347887435474577e-02 2.032424651663332360e-01 -1.700051026155271344e-02
4.237620384262276441e-02 -1.639844164825668069e-02 -3.108474298164032312e-02 -1.342342571412237897e-03 2.469314891391459488e-01 -1.662511445684600533e-02
3.582514164758689168e-02 -1.375837491546026518e-02 -3.295975708705850549e-02 -2.338231910222782553e-02 2.179942963682383605e-01 -1.823813922080013208e-02
6.497471556846204366e-02 -1.420022675778615656e-02 -3.900868153492081936e-02 -7.124986455110753070e-02 1.136052474954659525e-01 -1.793945915923547685e-02
6.170715421107421383e-02 -1.163794047952813188e-02 -3.270389807779527924e-02 -7.741739730257454766e-02 9.364030664341707610e-02 -1.001003432153498539e-02
5.924532392253716029e-02 -1.048798767088798649e-02 -3.524364190146433984e-02 -6.875273025315777053e-02 1.208013656369704564e-01 -8.550425763162153650e-03
5.801015400036831082e-02 -9.168372586999715482e-03 -4.020999975639738544e-02 -3.290548110448968805e-02 8.870736217053179495e-02 -1.487719440490524979e-02
5.888096885941494774e-02 -7.164527781851457236e-03 -3.921746035899381644e-02 -5.792037470911001913e-03 7.639006301699548251e-02 -1.486453933426257548e-02
5.395845081575983276e-02 -5.010224197208682298e-03 -3.853082273727548301e-02 3.370235880742030376e-04 6.616992376446750868e-02 -1.487360237398030818e-02
5.628411748233564521e-02 -4.913045608002710243e-03 -3.833401033188971185e-02 -4.310896646489689038e-02 5.097478640173986469e-02 -1.233269870568756178e-02
5.468417501286790272e-02 -1.448119378586422076e-03 -3.698945647569756856e-02 -8.457841744989830213e-02 4.243810508297998080e-02 -1.373036634630068510e-02
5.183103940041094981e-02 -4.961223812706085437e-03 -2.127315644091559710e-02 -1.171638378099975758e-01 -2.263182704016015491e-03 -2.122433001173214609e-02
4.479179047550087278e-02 -1.123731133428671272e-02 -2.354846881438299455e-02 -3.844661828291690703e-02 6.684497292089025674e-04 -2.046278877822555256e-02
4.135283893399314958e-02 -1.624881984173570659e-02 -2.248014435559847479e-02 3.165397754065027436e-02 5.199009410547208998e-02 -4.712422832834683994e-03
3.899397422500257282e-02 -1.130832086967253902e-02 -2.801529791043438911e-02 -9.185583066827823426e-03 8.722672706716512459e-02 -7.335778168947806204e-05
3.854842043142660268e-02 -1.300654210570852121e-02 -1.816006809003556377e-02 -5.487945409630469451e-02 1.118308102533110276e-01 -2.247300876689383668e-03
3.737424296843633309e-02 -1.129197564184811382e-02 -2.484075117771317176e-02 -7.161998340498319793e-02 7.459888231088984689e-02 -5.449783827745920128e-03
6.026152962043603012e-02 -1.127191694672712539e-02 -3.071950504120696257e-02 -6.188038459233437955e-02 7.247309942555095474e-02 -2.347320106078953309e-03
5.846214711291269905e-02 -1.368708988247702672e-02 -1.044133957156651027e-02 1.636642377262893105e-02 1.053918943862254404e-01 -5.401361345660123792e-05
5.798918595800481302e-02 -1.146399145647673291e-02 -9.945322831587055656e-03 -9.869699179516291596e-03 1.272036808517369444e-01 -1.194069076755446129e-02
5.876062922601016369e-02 -9.711407660354401394e-03 -9.503893440028721162e-03 -7.692540613689143048e-02 1.515904122101784102e-01 1.858740063520457559e-03
5.604952706232081694e-02 -1.297331554872172693e-02 -2.280262834972979213e-02 -7.507589193629786439e-02 7.012850278498859724e-02 2.956711190136546152e-03
4.987745766158895033e-02 -1.549507074490493429e-02 -2.423855604130481511e-02 -3.501669615060627044e-02 1.341776868936600878e-02 -9.342342519182262293e-04
5.103576451844884371e-02 -1.539026985759219673e-02 -2.907163308018384518e-02 -4.696975189621293428e-02 -2.018235945207594653e-03 2.003409995984820492e-03
4.800648091848122578e-02 -1.672346044924707259e-02 -2.946934226597974771e-02 -5.580087500307846782e-02 -3.980936569387601848e-02 4.470656357923929146e-03
