9.376883770048780736e-03 7.743138829066285866e-02 2.532469462376810143e-02 -9.406725477961862258e-02 -1.408053613055353925e-01 -1.735800697742256177e-02
7.929816547792165049e-03 6.766862657065840503e-02 2.052663761696169042e-02 -1.038773301787016545e-01 -1.250727782960870671e-01 -1.738735886081502202e-02
1.388397850134517192e-02 8.451247361002997560e-02 2.173291356923279238e-02 -6.999317621424704094e-02 -1.267158513217060689e-01 -3.008998183178918789e-02
7.682446071530575626e-03 7.510149789789404007e-02 -6.861159871481559147e-04 -4.242207448700917316e-02 -4.774166976506993842e-02 -2.669404651955726779e-02
7.422024866329518696e-03 7.887895291471530568e-02 4.399275552885995033e-04 -5.350531079034257821e-03 -4.556615236981444855e-02 -3.842506434163126677e-02
6.655371629327396822e-04 8.924588802904154239e-02 -9.645076504226912650e-03 1.692284345727954054e-02 3.322918522237950506e-02 -3.656850113942216457e-02
-4.890200058083015756e-03 8.757334339760476649e-02 -1.064320280575155320e-02 -3.546067732334731021e-02 7.411757454360501374e-02 -2.201123618219511316e-02
-8.583747722233353930e-03 7.900310986291858573e-02 -2.804251852257966249e-03 -3.339084547235885575e-02 3.573056802201900889e-02 1.397990513295229885e-03
-8.423054496081406120e-03 8.731535080835357843e-02 7.863455085569376335e-03 -1.576627559304871751e-02 -9.339846735408779618e-03 6.599637330839531330e-03
-9.377057847775862806e-04 7.730631903240334224e-02 1.048588473193140524e-03 -6.910300728706655904e-02 -3.194900376198847591e-02 -9.540168297424638866e-04
3.526831665796254737e-03 7.546891056637149153e-02 3.977369300017380427e-03 -1.149502205044524439e-01 6.904506609786770699e-04 -2.725727405233747437e-03
5.426112958530134034e-03 7.989618254249312990e-02 -3.085346419088808023e-03 8.242912413899992907e-02 5.571829979460254934e-02 4.545811150552838396e-04
-2.331502173702450968e-05 8.132331504038761705e-02 -8.318435111826755213e-03 5.978192028810832420e-02 1.647696544189660925e-02 1.288925207911238366e-02
-1.799486708651843467e-03 7.444149161552236771e-02 -1.428802268594489555e-02 -9.242076248855514431e-02 -3.467472331087770570e-03 2.839925866456715058e-03
-8.268444905165487496e-03 7.332338633048619825e-02 -8.675025781819917237e-03 -1.945435236970519954e-01 4.218435750764701342e-02 6.397023233791876429e-03
3.792259681889102989e-03 7.646772446761908315e-02 -3.560192659079836064e-03 -1.487570573056587186e-01 2.118494282861225486e-01 6.075380602833841889e-03
1.289692778195655320e-03 8.198433853233172419e-02 -3.471578655411422520e-03 -7.587590865806161100e-02 1.442799901573775523e-01 3.901227512503807355e-03
-7.270013318263958023e-04 7.977937149984430654e-02 -5.841292078063359261e-03 -6.004166254726865659e-02 9.728618486048151714e-02 1.472516322167524531e-02
6.248353311843772052e-03 7.437531161377761157e-02 -9.035685279965080530e-03 -5.797947874437556909e-02 3.852550428128119486e-02 1.987871597692654133e-02
-3.126596875266791919e-03 7.939189247863381871e-02 -1.539176739766764945e-02 -6.514779199947810795e-02 5.710345587413451565e-03 1.801502159894736652e-02
-1.579364495506727778e-02 8.681144184419761767e-02 -1.680831076414447678e-02 -2.611972396859914888e-03 4.205842865000429531e-02 2.950532717485255391e-02
-5.339736253641507412e-03 9.463585475113522882e-02 -5.480822571867410842e-03 9.762103807560580312e-03 1.568531181890420734e-01 2.906437401511272056e-02
-1.301379998603792269e-02 9.419096999404706627e-02 -9.088973808782430108e-03 -5.215718906748048438e-03 1.797446906962038016e-01 2.117992289138882767e-02
-1.872265812297659732e-02 8.268576479753664277e-02 -8.196679834151385236e-03 -6.756644799353009150e-03 2.051283167845911193e-01 1.421559941393968872e-02
-1.082169556044188137e-02 8.556815371169458617e-02 -3.563845065923859634e-03 -1.827249009425056109e-02 1.738456589437206989e-01 3.200812793739553179e-03
-8.897660664388165955e-03 7.904206822828557799e-02 -1.155137566859004705e-03 3.249773606353379470e-03 1.919918506522166057e-01 6.794749020894190125e-03
-6.659832284220322703e-03 8.888678622307343014e-02 -4.627273317053703927e-03 -3.715361830457752923e-02 1.852086603229854966e-01 3.781038035379186580e-03
-1.124813304086983920e-02 8.260034549598518905e-02 -4.185667467787451690e-03 -5.028902304412651014e-02 1.699587295176480661e-01 1.159846035460290921e-03
-1.235420856926102741e-02 7.570593284401219702e-02 -4.600396079724705656e-03 -5.573092101115821595e-02 1.560750275877066662e-01 -1.144620547171065761e-02
-1.214194844236622661e-02 7.524212338801664068e-02 -6.702404347213891667e-03 -5.290508866052915510e-02 1.632224545981540154e-01 -1.767661181469780754e-02
-3.460100659491707146e-03 6.874460248509420279e-02 -1.224445767154758169e-02 -5.870697905013883694e-02 1.732680364311322829e-01 -1.554809831546972868e-03
-1.050767069947625360e-03 7.495816491189791209e-02 -1.132440615252368332e-02 -6.759397163897892802e-02 1.576908934548298113e-01 -7.948163029798165080e-03
-1.795578598076958896e-02 8.354585479773146695e-02 -8.694415026376939304e-03 -6.095858504828638447e-02 1.101101815467716294e-01 -1.181496691876324223e-02
-1.385283001839781973e-02 8.369241439369858038e-02 -6.113239402345760354e-03 -4.844725067121033457e-02 1.139773557735452303e-01 -9.239896261317515416e-03
-1.337520419939010677e-02 8.777100037519795783e-02 -9.891724937999779588e-03 -5.664897383378540013e-02 1.072676896785926814e-01 -1.337446880663405342e-02
-5.710852843771226268e-03 8.935935188771072790e-02 -1.392117932002712166e-02 -8.301762559337259872e-02 7.989698335343675684e-02 -7.439426606336686440e-03
-1.304383705653896185e-02 8.668914969648514046e-02 -1.162046994990470483e-02 -5.743303388933431591e-02 2.693984438115364088e-02 -5.953023376894793148e-03
-1.111326409850712550e-02 8.209167372173262200e-02 -7.466863482711222355e-03 -5.743497200481770260e-03 4.814624112726426791e-02 -6.401340231645404402e-03
-1.307312586728203406e-02 8.472280258206622838e-02 -5.968445704633854043e-03 -3.873908003881005452e-03 7.147742545394092373e-02 -1.112948847700506250e-03
-6.333369976713596437e-03 8.059194792875122582e-02 -2.641755864104256002e-04 -3.533283730607867518e-02 9.915442837897818495e-02 -7.468196666737507948e-03
-1.360387255952151542e-02 7.649358041839079969e-02 -3.695382301168226302e-03 -2.766948214847310752e-02 1.333564658430700656e-01 -1.407911114277850262e-02
-1.884187626170629598e-02 6.717103508249575028e-02 -7.630424258974602414e-03 -6.624313614071100989e-03 1.531063245258000860e-01 -8.826168444373408417e-03
-1.270919303966595165e-02 6.560950190439683583e-02 -8.755185984186869552e-03 -2.623346385995939389e-02 1.281880439613653500e-01 -1.281538608363786379e-02
-9.411444979890097595e-03 7.039238501625386113e-02 -1.628021452797695501e-03 -5.012775393709301142e-02 1.552334163718437909e-01 -2.025056689758501782e-02
-1.150308900062567419e-02 7.289844611775717076e-02 -3.350546525533404374e-03 -5.179770998541122912e-02 1.538007711026030677e-01 -4.740446575866632400e-02
-6.424738702702032130e-03 7.465531756803187036e-02 -7.144578308868679284e-03 2.038791862294560622e-02 9.915548709848027997e-02 -3.362743540393694358e-02
3.350401787953441023e-03 7.526284984357051178e-02 -1.655538520772401045e-02 7.496375141609931680e-02 5.619055538392837140e-02 -3.124002616115109307e-02
-2.895479626671900418e-03 8.904135750317289377e-02 -1.262683649964473076e-02 1.070656354864171766e-01 8.060377153454863913e-03 -3.260192933949977029e-02
-2.823180226597232084e-03 1.067070519119164840e-01 4.531206123745967762e-03 5.240201696026473149e-02 7.613245073526301622e-03 -1.937850844780636753e-02
-8.658575160709492541e-03 1.026641858710365951e-01 4.203795062744014599e-03 1.591195104344511266e-02 1.090687374041706889e-02 -4.527439274842045419e-02
-2.742448836826505854e-03 8.479323659025894688e-02 -8.375565758060837807e-03 -5.468426398784499015e-02 -4.556772979582061900e-02 -3.992900988981799154e-02
9.418307434651944105e-04 8.889369057158952314e-02 -1.667529453252396265e-02 -6.319193288027903643e-02 -1.460228051110676606e-01 -3.125847663544317062e-02
-6.851830359398868898e-03 7.973565306597396596e-02 -1.335503966655937624e-03 -5.103440942264350633e-03 -4.196483013849761634e-01 -3.300620696919644159e-02
1.320570069091416259e-03 8.611073685983938741e-02 -1.119555284190291988e-02 -2.469149826068867473e-02 -2.613484383114069720e-01 -2.880614412706426763e-02
1.362486533325295702e-04 9.156441847000285073e-02 -2.752303550341619887e-02 -1.217395167656676047e-01 -3.052038969538581337e-02 -1.242038212255622796e-02
-2.972054745811268661e-03 7.472471602368523091e-02 -4.026920623970364765e-03 -2.340461886071894537e-01 -1.227385748550100519e-01 -4.358970443352964269e-02
2.444154743860448096e-03 8.239111780430447007e-02 -1.600213356891898309e-02 -3.365513794910927059e-01 8.909458984698281556e-03 -4.392581990063615383e-02
1.210510911067277408e-02 7.531939562074044248e-02 -1.281851482391178909e-02 -2.504810461024721269e-01 -7.475675463464489211e-03 -2.399151172109317484e-02
2.064919810583331055e-03 8.888719485491795858e-02 -1.130672522659866008e-02 -1.349371561181911261e-01 -8.118795190340177825e-02 7.652373146191464824e-04
-3.651503028908655371e-03 8.332427094386678224e-02 -3.727609146750160418e-03 -4.804453639912809743e-02 -3.859956262857031778e-02 6.130226683775381435e-05
8.642937922953451355e-03 8.151113792228407984e-02 9.871999726345226378e-04 -3.511551250247513245e-02 8.635218908865370524e-02 -2.980027335211665827e-03
-9.278700575633881025e-05 6.986430180682150215e-02 -4.897153399058967738e-03 -6.498493496648413692e-02 1.353448385413759669e-01 4.785422281398156626e-03
2.671711579089243362e-03 8.178030660570628774e-02 -1.107284208307718343e-03 -9.745648151295709105e-02 9.861745461666918122e-02 2.263344957338489505e-02
-5.516967890428145505e-03 7.676502747554006523e-02 1.021718417141326274e-03 -8.125193036896008469e-02 6.318801092559558907e-02 8.823656678480619811e-03
4.927277640065252408e-04 7.486667972524292669e-02 1.555873367048460354e-03 -4.864967682984452924e-02 4.964789928053697787e-02 1.515341778452772986e-02
4.630786667182258676e-03 8.584063135405255174e-02 3.085332457289174934e-03 -1.285616276350768153e-02 5.492911016883371411e-02 1.858554532970967468e-02
9.704480164557006613e-03 7.753409611351404218e-02 6.621559604306548330e-03 -1.078097529019395560e-02 1.367031376529505848e-01 1.897145167492068213e-02
1.698404915902814241e-03 7.851537838021033222e-02 8.740165755614842658e-03 -2.793983370284133447e-02 2.107779597291373763e-01 1.412977866653675890e-02
-3.980661631698833788e-03 8.260477967833090851e-02 -2.428676329251866495e-03 -3.478864606827852812e-02 1.269458758705663270e-01 9.765730190285057052e-03
-2.272078369626088059e-04 7.070556370369819599e-02 1.048763054552692697e-02 3.423239341237990091e-02 2.165815233333618639e-01 2.686141485214385560e-02
-2.353889421495992691e-03 7.942620254742523145e-02 6.568856180872023609e-03 -2.739003140348720763e-02 5.846141025987885986e-02 2.336681836369751061e-02
4.665576206870529659e-03 8.716846862427037046e-02 3.181698928549173133e-02 1.396192181195042396e-02 4.948188310064956519e-01 3.827727161317038412e-02
2.195589883582949389e-03 7.497896550401422777e-02 1.205422369674319372e-02 1.288216015176099349e-01 2.894337856219523775e-01 1.943399605344226649e-02
9.479493625535886188e-04 7.655330988273484349e-02 -8.564516853631909399e-04 -1.483741771339915638e-01 3.850342010945833060e-01 1.645135855432931782e-02
5.122501757461579361e-03 7.586141282403346953e-02 9.715938551499714304e-04 -7.894811639660495595e-02 4.925963051848849528e-01 1.924392876899852847e-02
1.478573127710262241e-03 8.574009939204224606e-02 7.125614413291292415e-03 1.683087365721302672e-02 5.448736545013466159e-01 2.224706004174367702e-02
4.729279318652690467e-03 1.006255306888454437e-01 1.500820800061922200e-02 1.509044874384427547e-02 6.024261433975077740e-01 3.098060033091274909e-02
5.180653236901788458e-03 9.247656230656751963e-02 6.075095124713270067e-03 9.205193750112688512e-04 5.692789384189806956e-01 2.078235232776079466e-02
2.413821803383017252e-03 8.422825230223116022e-02 3.478382892809828153e-03 -2.877259765843542469e-02 5.500698021185348452e-01 1.552543444103258313e-02
9.187626713630252934e-03 8.007009337550770323e-02 9.243994279862527419e-03 -1.991575308737840097e-02 4.920101607468882476e-01 4.091837303206326271e-02
3.955940168310964795e-03 8.119705719097469743e-02 9.953363584163793520e-03 -1.456417283418622987e-03 4.306328794338130095e-01 4.060719685155914777e-02
7.224835022426994054e-03 7.027810649857638148e-02 4.738226932201800023e-03 9.571550253310946721e-03 4.003004666836228465e-01 2.926926475929698956e-02
3.344604933681110878e-03 7.958093360831169916e-02 8.917439651776937204e-03 -2.883470786305874015e-02 3.763697230533353810e-01 3.325993762163723805e-02
8.074296373434200133e-03 9.937479322678592630e-02 1.719784013669162226e-02 -6.742388664152180501e-03 2.744318639908561730e-01 4.686135717237516901e-02
-1.523500961793323918e-03 9.640531119605966204e-02 9.312329655948053952e-03 -2.962837277702496048e-04 2.338787380033585384e-01 2.992434096002817914e-02
1.650333981976066441e-02 1.025357835414035662e-01 1.039823560411615166e-02 -5.199996880476148026e-02 1.492125532402898413e-01 3.049007075944919556e-02
8.904882701100402809e-03 9.141672098419793835e-02 9.115677523994281106e-03 -1.181005246174169909e-01 1.053751439527627481e-01 2.612275844188017074e-02
8.439657588848684805e-03 7.767756536781936227e-02 1.014966004073539207e-02 -9.370490115918710117e-02 8.700349623152271727e-02 5.175966719883439565e-02
7.198002894705513889e-03 9.079430459314920265e-02 1.569324197376945063e-02 1.681210575757542160e-03 4.262573062916362454e-02 4.828808243079819179e-02
9.009342600340289678e-03 8.753283383920663907e-02 8.501678258515582565e-03 2.776986434955238878e-02 7.035721467885537594e-02 4.407436055095164534e-02
7.669772095108311032e-03 9.644234428180792351e-02 6.799306142656752483e-03 -4.949113652863217083e-02 7.557414366511423787e-02 4.355575161130310902e-02
9.002852690570977562e-03 8.770298875389744009e-02 9.244533093751033936e-03 -1.202797916056379396e-01 3.894932555826845916e-02 4.415323263516296448e-02
5.061857444230276164e-03 8.419351486205195467e-02 8.679349429885574452e-03 -1.207302262052983299e-01 1.146666703905099977e-01 3.300313863489374999e-02
7.358982952372146447e-03 8.669544415450165797e-02 7.641527673200337878e-03 -2.357664100342074520e-02 6.123797370601812701e-02 3.528115953342913363e-02
9.353027677790301184e-03 8.965057010115744240e-02 8.512817814266715466e-03 -8.617831335502373902e-02 1.658435589291879508e-01 3.218057362805958749e-02
4.820569155291320844e-03 9.642442585178394310e-02 9.504587190574509403e-03 -1.015474008207562090e-01 1.940666528496488019e-01 3.648592211316461359e-02
1.211467525809401327e-02 9.300150928853778698e-02 1.491699963557052699e-03 -1.032260255082950856e-01 1.799130832160666105e-01 2.863239329237546316e-02
9.057501850220316814e-03 9.876937716524426814e-02 1.066089001953568483e-02 -1.374530153619288042e-01 6.915328905798102943e-02 4.326826866498072188e-02
1.358794811853010487e-02 9.486542399711181406e-02 3.540006990136873588e-03 -7.866403418732723085e-02 -5.374891257127446809e-02 4.644319082288286132e-02
6.496044032785853323e-03 8.099105829950248303e-02 7.937217863703022180e-03 -6.616239447622629388e-03 -2.498352318466760119e-02 1.886635668904590099e-02
4.552790627029799746e-03 8.295199361382180059e-02 7.176725600054584264e-03 -5.382500516544485268e-03 -2.166239302753785942e-03 8.918006762826212810e-03
7.695099371980151058e-03 8.864007182591931988e-02 9.523510219113878739e-03 -7.426325504263582566e-02 4.959650468957726294e-02 2.353787010784910705e-02
1.308069953535706716e-02 9.054997435075386181e-02 7.854357420363777820e-03 -1.258717058362476271e-01 9.531503032236007811e-02 1.776082176499060861e-02
1.213501642407333568e-02 8.492844758643251779e-02 1.309601769442009234e-02 -1.348715514238819357e-01 6.153108036880748644e-02 9.626698132682451337e-03
8.812336317542156239e-03 7.600926129044568991e-02 1.806199935517743826e-02 -1.011106024536902737e-01 3.212467177338240720e-02 7.313573585940178617e-03
1.312929027507494031e-02 8.434025910763939815e-02 2.021186510771494360e-02 -9.606951029748117543e-02 2.772572698912515593e-02 2.412873476326878042e-02
7.817062378258642780e-03 7.429223533762664700e-02 1.561459228688516498e-02 -7.972714325448353179e-02 -2.155126838560936578e-02 8.832047795887592798e-03
6.391723125468432715e-03 6.998661353470693458e-02 1.984883723724217841e-02 -6.352355969501112531e-02 2.769008913553391849e-02 -1.849623320231332012e-03
1.437179880789503849e-03 6.789271691160865541e-02 1.849560741898514937e-02 -8.819362684581324996e-02 1.529674348402340275e-02 -5.606015307065762357e-03
4.420646252541443784e-03 6.666453678234700309e-02 2.083312181777469130e-02 -1.229807220012881785e-01 -8.379022089108425358e-03 4.529079659025348273e-03
1.364187416922830239e-03 6.213633899547520156e-02 2.173532429733091020e-02 -9.091333167079444777e-02 -2.163802825872229024e-02 -1.096863049067284528e-04
4.160034169098400167e-03 6.524298352086409236e-02 2.351301424005389218e-02 -2.242153054784915001e-02 1.229110558608263563e-02 1.918502595160166474e-03
4.074380632466768036e-03 5.909812041855771331e-02 2.725996073947403731e-02 -6.531432825177484192e-02 4.752260323104098849e-02 1.935320634304481605e-02
8.973865626104056761e-03 5.997475925329330548e-02 2.494888775524192748e-02 -5.406209224866438678e-02 3.495350937881871317e-02 -4.502170360958666386e-03
3.018095202691800996e-03 6.048658650315888452e-02 1.819133462928554379e-02 -3.247265640523786662e-02 4.422446542201686343e-02 1.754549630321457915e-02
4.131916570885214336e-03 7.652801834026155825e-02 1.049822893015972536e-02 -2.216805072575683475e-02 4.549763968588656921e-02 1.803450283631805734e-02
4.961291860616456840e-04 7.219781289061572016e-02 1.263061943979662538e-02 -2.226486532270502416e-02 5.352981221675561299e-03 3.384756512871467393e-02
-3.612003955445640055e-03 8.437953346045867775e-02 1.636658138672633656e-02 -2.595059872778530258e-02 2.151202705100726566e-03 1.818690256811712411e-02
6.488168074848164012e-03 7.439583989969253408e-02 1.398011067024212961e-02 -1.090783336858892720e-02 -2.745669686965119616e-04 2.284854068601611249e-02
3.032126207432393750e-03 5.099834114195200135e-02 6.701922584204683675e-03 -3.381348274660902261e-03 -2.066644280556138944e-03 5.423951713038638323e-03
3.887446660910387746e-03 5.289469541134016878e-02 2.006158704850766195e-02 4.590865576338114956e-02 -3.031619722170283276e-02 -1.917670536310317128e-02
-6.541929618609954207e-04 6.529307604572122392e-02 1.582680216667897710e-02 5.918278003404196103e-02 -6.541495958515244902e-02 -1.017667583555948579e-02
8.939863111214911345e-04 6.882478336623133741e-02 1.490131691426024863e-02 6.367467377621766067e-02 -6.729640385445349871e-02 -7.176505777249926436e-03
-5.640195059327514013e-03 6.781778739979398007e-02 6.770737266947157718e-03 5.919745496328510104e-02 -4.410613063399526634e-02 -9.224970359041960097e-03
-7.246031278987775590e-03 7.151424226746928847e-02 7.138019681245111325e-03 5.914610930933815458e-02 8.790246705260976179e-03 -3.862059196638340745e-03
-2.473079857946452152e-03 7.300269133577161340e-02 1.095700298154722585e-02 3.433700163523111665e-02 2.692958738470953642e-02 -2.753411287426167989e-02
-1.643187312209697711e-03 7.190912407534051642e-02 4.558902372923334667e-03 4.934824552763903555e-02 7.436219841979825260e-03 -2.360468746970425385e-02
-6.215677602037294330e-03 8.107619233017039628e-02 9.305017056173509049e-03 8.837335239722851621e-02 -3.507462892205048116e-02 -3.420194237279932520e-02
-4.947853937498962462e-03 8.737648889438728861e-02 2.311905726105734082e-02 9.058777624083342792e-03 -4.748039683139012451e-02 -4.181526766311377541e-02
-9.728691865726351749e-05 8.464032998336042113e-02 2.278613213921806824e-02 3.255210328680984561e-02 -2.773385250535440050e-02 -2.789952111928552247e-02
8.377069966297119585e-03 7.819450399440733279e-02 2.644590808191876752e-02 6.299430987866375120e-02 1.596978156784806605e-02 -3.243775412837650307e-02
6.735619976136072128e-03 8.849801048787331315e-02 2.077862641111002939e-02 4.730848951662310065e-02 1.158498601317658853e-02 -3.900162022747101498e-02
1.153979970458965214e-02 8.436519505024932253e-02 1.556554844791302461e-02 8.359524992618233563e-02 -1.050880597079011276e-02 -4.333784952940223506e-02
1.728530150550704192e-02 8.186073229936714768e-02 1.627669669389708584e-02 9.477880119778826773e-02 -5.346226478153941745e-05 -3.721354635056057375e-02
2.345010979396261117e-02 8.987715209492283530e-02 1.235095074143374716e-02 1.363503740517907348e-02 3.118839683365150217e-02 -2.017161206528910247e-02
1.053385435453944689e-02 9.536333578250430487e-02 1.356670844017116018e-02 -5.538008531243723831e-02 -3.707632892662454140e-03 -3.823927641085073104e-02
2.114691166092675864e-02 1.369882732371771605e-01 2.638919608531936634e-03 -9.133278980360377830e-02 3.954041971995178074e-03 -1.786382178527030212e-02
1.406142119386386696e-02 1.100399988683484348e-01 5.834131282645732552e-03 -5.734726069611886801e-02 -5.253376588689274984e-02 -1.791436663082671826e-02
1.701569825052753199e-02 1.140387091592736934e-01 4.280327844875558840e-03 -2.702678722652604795e-02 -3.165450823300036687e-02 -3.345456050802092518e-02
8.587454768105318506e-03 9.218451669638907942e-02 1.684193257789337594e-02 -1.258844003925400044e-02 1.342729656870626787e-02 -5.772337982718983660e-04
1.844124936447922442e-02 1.122470731981596720e-01 5.684877420450068497e-03 -1.534390076540329863e-02 7.333381507644169683e-02 7.533604204949896632e-03
2.003794626435678738e-02 1.056060996193067397e-01 1.372652253886566531e-02 -2.817249284246716584e-02 9.771657909779726814e-02 -4.708454395845398065e-03
1.807460838623926869e-02 8.803938434910248134e-02 1.024181449390518250e-02 -7.836964379133645742e-02 1.328309589882696318e-01 -1.212677160904143507e-02
2.077470905488800965e-02 6.631177118657015368e-02 2.297016634094628529e-02 -8.772252278212704091e-02 1.198742076458409467e-01 -2.390051239839995761e-02
1.908164730449280616e-02 5.712958019424144857e-02 1.752292568412608387e-02 -1.869798173478032927e-02 8.254343871466905680e-02 -2.282752734287815666e-02
1.937405615838868125e-02 7.756237467626074522e-02 1.472014488029133039e-02 2.707586344165388917e-02 4.834092738664499261e-02 -3.539437545837666871e-02
1.313132553413920781e-02 8.047369134387670486e-02 1.541308351110853847e-02 1.894893625121784470e-02 6.700102487143834440e-02 -2.635604330670815107e-02
1.450798332386156984e-02 8.078932805369949677e-02 1.081827427866610680e-02 7.986398480647291520e-03 8.047078675204606679e-02 -4.514102851313459702e-02
1.097094237509206940e-02 6.653965807885117711e-02 1.725949846275984245e-02 6.455397092455164923e-03 1.360618589764357456e-01 -5.229898090169634445e-02
6.412817422331277065e-03 8.101898322752219828e-02 1.079086704985135481e-02 -1.093035546167289013e-02 1.015597254108897840e-01 -5.262490777507406597e-02
2.799470333896960077e-03 9.335369782906766112e-02 1.556665790774233726e-02 -6.385610985553974439e-02 7.649351115487622310e-02 -4.843178931614040839e-02
6.198600836092190130e-04 7.691851318350764743e-02 2.144276868925071300e-03 -7.254163914887527820e-02 1.018062245115309711e-01 -4.424209190661960306e-02
-1.029481040880934374e-02 6.104097825732261728e-02 7.765415482656995438e-03 -7.475413738181564682e-02 1.468479296289778857e-01 -5.606620926269974270e-02
1.331616849145904075e-03 8.338668441669012943e-02 1.234739956358338331e-03 -6.776081410318503251e-02 1.205639213884635574e-01 -5.392883805949062748e-02
1.167855724360414120e-02 8.256007791635033843e-02 9.226788773692401469e-03 -6.668257547633033022e-02 1.497951978951762020e-01 -6.037409533313243398e-02
1.226644692019323961e-02 6.789429557043824559e-02 6.646491031602835831e-03 -2.144448124498373742e-01 1.447251480538796764e-01 -4.086104395789313254e-02
2.243105806122458121e-02 6.429237030776398243e-02 5.828698858253211768e-03 -8.590198160520730319e-02 1.055661712697490706e-01 -1.660894278042757827e-02
2.589710581469294517e-02 7.523725045858373206e-02 3.049622878328384079e-03 -6.466664924690671001e-02 1.768906908925623259e-02 -3.347741594011029165e-02
2.480290786500294678e-02 6.691423969623819246e-02 1.121681823088674368e-02 -1.272205229404224092e-01 1.861559682897042933e-01 -1.135575867057259623e-02
2.614869311993582232e-02 5.211186239622829508e-02 -1.230167781625768342e-03 -2.935053877100251007e-01 1.382532955999197788e-01 -1.832402345404848809e-02
1.397975727688314379e-02 5.117977829299728137e-02 7.539694044403355555e-05 -1.244900545501674283e-01 2.335973976989744183e-01 -4.392232486397712465e-02
2.746546086009541907e-02 5.719691260989764187e-02 1.787717707940339462e-03 -3.189085140714799371e-02 2.361267506769521574e-01 -2.411368087088148343e-02
1.277005888934314333e-02 7.402470837980429375e-02 1.043743187315060439e-02 -1.147457912768321125e-01 2.888736656236159384e-01 -1.777391476689946931e-02
1.334050719238802536e-02 6.789578184772258884e-02 1.809980133084826415e-02 3.560873058276256553e-02 3.806723262051707746e-01 -1.180836010132393921e-02
8.688718998481363351e-03 5.212941477208882235e-02 2.346801770626183448e-03 3.763195028099355910e-02 4.933690575236068798e-01 6.374226602861909029e-03
1.365762243384044394e-02 4.208454238753955162e-02 7.120667115022849547e-03 -7.859111391319401063e-02 4.030466558419407708e-01 1.072478605204653899e-02
1.845681827966828836e-02 3.807904060397848678e-02 -3.147835749356231450e-03 1.836199751630849739e-02 3.166913657990819142e-01 1.683595342223590668e-02
1.600045268839494356e-02 4.619194152039587248e-02 -2.210816423178885159e-03 -3.757984963480383994e-02 2.780560176851577525e-01 6.905933880066749054e-06
1.658760384078244998e-02 5.379190541856721658e-02 -8.317632552688747349e-04 -1.018179784147138639e-01 1.744736218606437184e-01 2.292412973992233663e-02
1.896974947499489167e-02 3.375350912956005811e-02 8.850406096423679703e-04 -7.717745885002696808e-03 1.069451271839517437e-01 3.370641239433200265e-02
1.660398914854379834e-02 2.176849802318946842e-02 -1.807750689062914695e-04 -2.626390394225477237e-02 2.086525536425565541e-01 2.914172371911040449e-02
2.377355369502155702e-02 1.929470164612117136e-02 3.699891766039353769e-03 -4.536368975979965940e-02 2.097441978583773070e-01 1.000863752387461808e-02
1.781017890616810526e-02 1.535420863274647094e-02 3.012466432985000386e-03 9.140791961962026202e-03 2.407037004703093119e-01 2.113839435100756375e-03
1.933131078092403463e-02 1.649475064291923421e-02 5.951549122038962691e-03 4.866235811679289866e-04 2.605240344750888171e-01 7.187202257146366007e-03
7.128129688787742529e-03 9.439654186492757448e-03 6.881992563464806034e-03 -1.614604252524905192e-02 2.312588842375401799e-01 2.499773830149790328e-03
7.884411727487328214e-03 2.186534119412611443e-02 5.384697102515156875e-03 -3.082384865122054021e-02 2.116541184704216483e-01 -4.177798328137241266e-03
-1.752282175081562284e-03 1.507106751738994041e-02 -5.460811322258701805e-03 -2.786624929096188918e-02 2.582140451904209599e-01 -1.581244344881756886e-02
-1.015872684860907350e-02 1.260991397417045301e-02 -8.408380538680315652e-03 -2.281623720059469673e-02 2.181924881002925420e-01 -1.724447205637663974e-02
2.459938419879205678e-03 3.985685549107132603e-02 -9.358804144115245860e-03 1.123121112746924659e-02 2.845419499163591714e-01 -2.609421405676068395e-02
3.779472562393343133e-03 2.735161761146762127e-02 -8.105638543587742606e-03 2.369490232234139002e-02 2.699347712673376698e-01 -1.613159216661191539e-02
8.857492112853162375e-03 2.668217123588420212e-02 -7.761156316501802155e-03 2.777822083271522940e-02 2.403690075756382827e-01 -2.158301123980578204e-02
-7.278686778325342468e-04 2.229537944787838774e-02 -6.762407674351364473e-03 2.240376628563275213e-02 2.743079440707004157e-01 -1.604770938571253511e-02
4.298503922607150251e-04 1.877963055689420985e-02 -8.878891039573733046e-04 1.632388278548034706e-03 2.296477247933576549e-01 -1.537456406170440576e-02
7.286881549320277894e-03 5.681434422159501764e-03 9.544951621885677806e-04 1.829760047369644385e-02 1.965368736106503367e-01 -1.282807460925976424e-02
-2.780113162371812465e-03 -1.331416867908148107e-03 -9.429544281040758147e-04 1.786635881572174248e-02 1.638834627317019010e-01 6.043827305852816911e-03
4.670026144690596175e-03 -4.599390537351821101e-03 -3.944456180485778063e-03 -8.163895175007124683e-04 5.800249616883539766e-02 -1.186679620523794360e-02
-1.848435511434237026e-03 7.611225810608111993e-03 -6.019549734268783703e-03 -5.193022192120449153e-03 3.595264988841600368e-02 -7.185295790345174252e-03
1.075709820710052909e-02 1.010293891237980073e-02 -5.626910831501491517e-03 -7.903125506165420769e-03 4.919086326476209553e-02 -1.773635177489917003e-02
9.104359920667838210e-03 5.883380946684164774e-03 -5.833004926545010127e-03 7.190460333760839359e-03 6.883223447298787712e-02 -6.347880837887160017e-03
3.521149153219545885e-03 1.536388591620952045e-02 -2.227628359636274480e-03 3.142202796462326142e-02 7.475889297527464616e-02 -4.728059842642694938e-03
7.734292981676999055e-04 4.884524057119135274e-03 -1.025406663614382430e-02 6.161692597904411955e-02 1.817552235093786162e-01 -1.014515316805591691e-02
-2.458810508859567839e-03 1.331466651241909258e-02 -1.134324195114158607e-02 -1.458589098949444711e-02 1.512811296405150996e-01 -9.176590617776099468e-03
2.118558684729111071e-03 -4.665996881432826413e-04 -1.315913835072034244e-02 -8.935369716294463971e-02 1.261046268970890394e-01 3.576128170328401155e-03
4.891249128970853385e-03 8.240233508476442828e-03 -1.405562227777318318e-02 -9.180059847386159988e-02 9.730780663615203052e-02 -8.873543177740753768e-03
3.912315485776915631e-03 5.989728550600444297e-03 -1.483920053312516585e-02 -9.415632342349747330e-02 1.149854701236748128e-01 -4.241123807513118293e-03
-2.993327090971900639e-03 1.321787090455126077e-03 -1.688104586547214958e-02 -1.017952991692617631e-01 1.341972321332700890e-01 5.854558150983522717e-03
2.909496487559668984e-03 2.917406934836779160e-03 -1.484885999274518364e-02 -1.060072635645454148e-01 1.448622188628272689e-01 -1.125428328385865047e-02
-3.110900409457512811e-03 -4.362851061985193075e-03 -1.661550399356435948e-02 -1.442632659092051572e-01 1.389274202548518578e-01 -8.902228072881143706e-04
2.268333412884703405e-03 -4.892607368376072040e-03 -1.338177164122875129e-02 -1.762984173977533708e-01 1.391413812556331620e-01 -1.062768433289112621e-02
1.038135126699046146e-02 -1.194385365390054736e-02 -1.000948888423559835e-02 -2.189456864371903400e-01 1.339279385408340128e-01 -1.802166095204873336e-02
-8.015266768907072185e-04 -1.111381531908146002e-02 -1.209945515498754565e-02 -2.905220105246016371e-01 1.455744654333800958e-01 -9.792712784797359335e-03
-5.479336731999569915e-03 -7.182783637071415463e-03 -7.909695693641916048e-03 -3.490063152551152181e-01 1.553369778308161253e-01 -1.975426542162375676e-02
-2.643167626922026531e-03 -9.432368127081714945e-03 -8.466367762913540318e-03 -4.214770765837136390e-01 1.867093173847976517e-01 -1.564705643532276688e-02
7.575816626915235193e-05 2.137158596677707356e-03 -1.151392769174407193e-02 -5.159079054509831952e-01 1.762071810959507656e-01 -2.548109322175427793e-02
1.918785622410313935e-03 6.824452402016839905e-03 -1.349459527986023033e-02 -5.467868900820168632e-01 1.834210631722526519e-01 -3.211670283576874285e-02
-9.207701825207767130e-04 1.002284008680043130e-02 -1.180083209612450834e-02 -5.459674132362107857e-01 1.684289751295139081e-01 -2.941261708110946491e-02
2.156190238112580537e-03 9.556579063368774579e-03 -1.734921193714313026e-02 -5.294716634989107273e-01 1.909512560511807122e-01 -4.316386882483101012e-02
-1.830279908168555526e-03 1.727184843504739331e-02 -1.654588954012492508e-02 -5.236046262796099082e-01 1.898143041481791526e-01 -3.756135694632591754e-02
4.405086032347329573e-03 2.374556119395242193e-02 -1.431505550259852544e-02 -5.587924007268025850e-01 1.933123103759164796e-01 -5.532550970782721539e-02
5.356338225447507435e-03 1.560858515467251559e-02 -1.231547811931267555e-02 -5.924381215455988281e-01 1.715164217756504073e-01 -4.300488033409041733e-02
8.217530761031781664e-03 3.498067719218574123e-03 -1.359532441329923402e-02 -6.577708528132301113e-01 1.702081478509778756e-01 -3.571085908262427305e-02
1.197588993312896817e-02 9.732686822664772183e-03 -1.761065989319321456e-02 -8.183952558956157919e-01 1.849482674945713556e-01 -2.545424486080070936e-02
5.258305744776863022e-03 1.838135403441326643e-03 -2.144514922450471706e-02 -9.940208992281611700e-01 1.941529026945904846e-01 -2.706753803097099523e-02
1.111857428285296587e-02 9.296758395459939553e-03 5.525377209381066024e-05 -6.660828739707440604e-01 1.461464867453436123e-01 -3.609458734172214800e-02
8.313749236701641412e-03 1.714337629722906611e-02 7.233887309644471131e-04 -7.259014025607061216e-01 1.389411524492821515e-01 -2.126695747694188829e-02
1.425293458127022302e-02 1.956678275490370336e-02 -1.770157240227721029e-03 -7.537932454656797177e-01 1.408073456260556799e-01 -2.334142044191307719e-02
1.272639570980996400e-02 1.837637566987993312e-02 -5.618767838610858045e-03 -7.803727189912510465e-01 1.545395776064905635e-01 -3.074162051726394423e-02
1.927614910419191141e-02 2.002679721502032689e-02 -1.087574558752839315e-02 -8.189512361489441616e-01 1.770495684381307722e-01 -2.878858609650221043e-02
1.131939436763012598e-02 8.368715892377434629e-03 -1.982205119947194616e-02 -8.761439782532790543e-01 1.872228028588927284e-01 -1.531675268144599630e-02
8.719064045310802313e-03 1.501476737218444130e-02 8.166050600536267634e-04 -3.576776880081001253e-01 1.035657599378450033e-01 -9.150956315137718025e-03
3.779082840364038787e-03 1.332781840354786002e-02 -2.968883377069908569e-03 -3.456293596392169820e-01 1.201653399759433916e-01 -2.246610339761803340e-03
8.196094599797785346e-03 7.253690416502200922e-03 -1.026053113397674965e-02 -3.428263067782572060e-01 1.303061919799217150e-01 1.928892181128300486e-03
4.374939140139580060e-03 -8.096558283808469357e-04 -1.658145775487157580e-02 -3.879355211587994234e-01 1.321250064566392435e-01 5.501051377664685840e-03
1.116370495561015003e-02 7.583860529845195056e-03 -1.538804371027685525e-03 -2.798129984685202021e-01 1.179841706148408442e-01 1.341375738384453743e-03
9.535669683657852207e-04 6.384674656198120052e-03 -7.629142140889957902e-03 -1.478505488441883287e-01 1.093598522977573817e-01 8.913622160364124275e-03
9.622699221030588113e-04 3.016824243067239494e-03 -1.388560264911972708e-02 -2.068079983855835094e-02 1.633614481901472237e-01 1.042566231282746232e-02
3.257490937777136799e-03 1.153539084049586515e-02 -4.523346256641191943e-03 -7.769831883541456624e-03 2.568546734306840773e-01 -6.388496000331551428e-04
4.010565829813263899e-03 2.070013022086788362e-02 -7.666800096425049893e-03 4.736214486644543982e-03 2.148066451208869576e-01 -5.257121504614384148e-03
-4.361480977478863520e-03 2.429696277115074923e-02 -5.437597453863962649e-04 -1.993198987689302065e-02 3.154519731185467801e-02 2.947076748549189943e-03
1.114758733226011572e-02 3.787859919245276097e-02 -8.941205156982559576e-03 6.719958285374137696e-02 -9.602579793382502032e-04 -1.780147667622249477e-02
-2.234818832984863338e-03 2.162285771358121375e-02 -1.079372038850306970e-02 6.264729943660357625e-02 3.624001815354893630e-02 -2.198614130007474181e-03
3.472836703322298383e-03 4.354314957312419021e-02 5.369896455069633756e-03 1.696273936747886291e-01 1.241272863967742973e-01 6.192500829941421231e-03
7.367789384013079604e-03 3.508982656890701629e-02 -6.564429059467857819e-03 1.669421712150726544e-01 1.073647229596216557e-01 -1.779198884875635720e-03
5.650813420936126423e-03 4.675675981488640331e-02 -1.455063931906973307e-02 2.179787682954543726e-01 3.929000261252414694e-02 4.164945401738057509e-03
2.362635329109523570e-03 4.784312147754545691e-02 -2.059201653254461029e-03 1.377530972661100139e-01 -2.141089005628233830e-02 -1.467609964128757660e-02
1.570145601004944297e-02 3.615887368589932455e-02 -3.481996578482526861e-03 2.493011679085941623e-01 -4.196304710813213851e-02 -5.121729620723783349e-03
1.501823938850148712e-02 3.926576591995967203e-02 1.385707717521056370e-03 1.720666500620960104e-01 -7.336661018929980377e-03 -1.793977817220498983e-02
1.676070013345803272e-02 3.958101163967074620e-02 -2.134196212045164076e-03 1.038334325267644548e-01 -3.768912850953374388e-02 -2.054304087841477694e-02
1.455053391770951346e-02 4.325528074797387740e-02 -6.868609246725054795e-03 2.147686093178489269e-02 -1.223036350968082636e-02 -1.851633817098667992e-02
1.439425423954266564e-02 4.982448106641709090e-02 -1.278491960304492525e-02 -7.237120712631051056e-02 -1.108799012118747984e-01 -2.875615126015487397e-02
1.039071047776560404e-02 5.686485456308367631e-02 -5.914124300572531912e-04 1.012528551566930189e-02 -3.659578823516668883e-02 -8.782920353104173988e-03
1.573814652718035639e-02 4.238773883451660979e-02 -1.441166087447433297e-02 -7.202829721878573066e-02 -4.589001802520017298e-02 -2.659001054433093175e-02
7.468613714234372848e-03 4.837323924453348217e-02 -1.869108288447829391e-03 -1.932742195575841981e-01 -2.560764806158061790e-01 -2.932530927034272469e-02
1.752553025889942717e-02 5.224912335731089763e-02 -1.458057046484911856e-02 -6.493021982842511752e-02 -2.565300106854451548e-02 -7.474109709377277019e-03
1.413722836054579109e-02 6.240895013042528638e-02 6.214805705374137901e-03 -1.421190166262980559e-01 -3.496521507224906872e-02 -1.247363696160551545e-02
2.075946220154197691e-02 6.357241477332926938e-02 -6.559787496328295386e-03 -2.082058076456060614e-01 -1.733262617681537998e-01 -1.294128307641695397e-02
1.791607378151676561e-02 5.942136994867433519e-02 -1.041938900354311137e-03 -2.319526121104084279e-02 -2.767436445772322173e-01 -1.242063826842767019e-02
2.398201177769647766e-02 5.950592464115662950e-02 -1.057687223909178909e-02 -3.928134785145071667e-02 1.799885889839145103e-01 1.166322000785325816e-03
8.148537546930794892e-03 8.155467933998342134e-02 -2.795095299478629614e-02 -1.761634855457026305e-01 -1.111790752049569841e-01 -2.977552682562487410e-02
9.124611242972183525e-03 6.041441536464074724e-02 -3.078704974649176807e-02 7.942863192851468135e-02 -1.280634960365933939e-01 -9.986482610990131403e-03
1.639199042273589008e-02 4.217778250218112007e-02 -7.803012284889249139e-03 1.906691278193734240e-01 -8.058544917777406280e-02 1.513193512918849758e-02
1.109635373344288953e-02 4.694351977994367514e-02 -1.320808096846382007e-02 -3.388207683131455039e-01 -6.244476434482382904e-02 1.909992622114588950e-02
1.458859365291169559e-02 5.054928067336299236e-02 1.174203114741401155e-02 -4.474457676776349285e-02 -1.570991899602337538e-01 -9.674546947599372681e-04
1.627818716393432397e-02 6.001192015727605661e-02 3.341331234398892125e-03 -3.925364918299173445e-02 -6.136307458196143400e-02 -8.502732902471310181e-03
3.700104830777363202e-03 6.030591050860974883e-02 -1.667485924320208368e-02 -2.395445706130994445e-01 -1.432303381077761409e-02 -2.889032706169415623e-03
7.523783324867257261e-03 5.960686335444585066e-02 -2.185928633162921575e-02 7.736944372337457854e-02 -7.181393664953579503e-02 -1.508570287488625013e-03
7.645543437597939092e-03 5.341626961118734612e-02 -4.141314487617564488e-03 6.978116330717402949e-02 -1.472814494942123464e-01 2.814221165374909076e-03
1.131230353635833720e-02 5.923271690972365527e-02 -1.067486444797445533e-02 -1.804842892279996114e-01 -9.939203974687961518e-02 -7.712485575740947799e-03
-2.237861332695166832e-03 7.006431561498843719e-02 -5.104497218775566614e-03 -1.088005389709475468e-01 -6.673198073934921704e-02 -9.105840068430095385e-03
6.170344809960685677e-03 6.998051328958423967e-02 -1.626391732385253086e-02 -9.696516073633261457e-03 5.099446668093556012e-02 -1.073796839995735421e-02
7.662455008700137273e-03 6.384398031735355472e-02 -5.664834600809465215e-03 -2.252271109925720050e-01 4.267317815366859779e-02 -5.867569659673793452e-03
7.311317829901921826e-03 6.838295681247616442e-02 -1.100215838777092447e-02 -1.699457168947050845e-01 9.989604038937630048e-02 -1.390101192654572167e-02
3.627651447362557555e-03 7.020464117233080059e-02 -4.990751975930435291e-03 -1.441727931610437552e-01 1.508191685399310200e-01 -8.714382547374438862e-03
4.817495203952499618e-03 7.623373398661643929e-02 -2.145265284164604713e-02 -2.535929247647135121e-01 2.154769210446108030e-01 -1.824861203075888241e-02
-9.177031881890128405e-04 7.288262534285144811e-02 -1.106557710956385110e-02 -2.019886305103253121e-01 2.180407773306686225e-01 -1.893851367155369517e-02
9.101202162968875450e-03 6.737474007255357666e-02 -1.939988261970750083e-02 -8.435360136128687569e-02 2.809938295483990767e-01 -2.901470856413998489e-02
1.226970666285892922e-02 6.798276785351653473e-02 -4.762917522944110083e-04 -8.506555630132586754e-02 3.165976990625663512e-01 -2.339983035782647325e-02
1.255701157448709318e-02 6.990996567414339835e-02 -9.686452873963732890e-03 -3.102576430229783341e-02 5.264568429562707097e-01 -3.636447344258365161e-02
-1.545840396291433627e-03 7.618205832370704422e-02 1.270841888628526650e-03 8.774288863551055195e-02 5.095532149408724676e-01 -3.029265764736404840e-02
1.562877288220856226e-02 7.349016854114334696e-02 -1.765174813771271112e-02 -3.999166033398893205e-03 5.397747670967539824e-01 -3.585135988330002271e-02
1.595205216236506365e-02 7.246275644969785157e-02 -8.447189482132258509e-03 -6.088503251213494422e-02 4.060644153715082805e-01 -3.274200651591639699e-02
1.951066754917515564e-02 7.067256245693834260e-02 -2.081307520659224364e-02 -8.742693639767294689e-02 4.083543186975110983e-01 -3.382744506916065402e-02
1.746234006423710849e-02 7.293192232986607515e-02 -9.411098798394024190e-03 -1.480560735851706444e-01 5.020147016987058092e-02 -2.211981061944625834e-02
1.659500245395225185e-02 7.375505738011844947e-02 -1.847372859236595666e-02 -1.313503512616529256e-01 5.160731299860733812e-02 -1.777340664270747606e-02
1.162485896736077141e-02 7.359079427630214887e-02 -1.281517352157646172e-03 -3.993959032975325646e-02 6.979512467355457328e-02 -1.028834227069916687e-02
8.139362238265984012e-03 7.187481869378870014e-02 8.083317770400028079e-03 2.797997600177077118e-02 1.510487734002586846e-01 6.315052569235865727e-03
7.474238543311606878e-03 7.534185673319360177e-02 -5.019485534919015945e-03 1.781877651125353054e-02 1.924449069181958238e-01 8.502943666324149288e-03
5.359632297012206087e-03 7.401631131116948037e-02 1.258818257947449948e-02 -8.153082160192270944e-02 3.051713523009132456e-01 2.371417404457852596e-02
9.225106087092089027e-03 7.419271568608025447e-02 -2.423563588214189268e-03 -8.685743329042706906e-02 2.935762051658098448e-01 2.967094394232457424e-02
1.386272118674304610e-02 7.398190083200886780e-02 1.946291224734941760e-03 -1.420375506132892929e-01 1.659637957684448883e-01 3.181838053287609075e-02
9.363785370413829287e-03 8.376701352513707399e-02 -5.370911260566560430e-03 -1.004484169073321109e-01 2.057084592230868647e-01 2.833437395333380376e-02
9.065579004610288538e-03 8.490308516521261062e-02 9.805019581808821494e-03 3.411713827607438382e-02 3.863915787137456870e-01 2.431938556918684935e-02
6.260826315127705982e-04 7.682524514112915037e-02 7.352957928257908282e-03 -4.370522163650288755e-02 2.645490742362637260e-01 2.196827820580470048e-02
1.403790652430739541e-02 7.349106031322294452e-02 4.820076967353703612e-03 -4.536794722130295388e-02 2.363038980644982523e-01 2.237332118813115805e-02
-4.593550665168106423e-03 7.437149318934291320e-02 2.487203937346971205e-03 -7.078425764107985907e-02 1.717306830753657920e-01 1.672882568373995626e-02
-4.474302610154350969e-03 7.046428392568709898e-02 -7.893764460996849364e-03 -6.111220028149567940e-02 1.544076186091728753e-01 3.137475236721597865e-03
5.606722668661091955e-04 7.177851571490641291e-02 -3.887016213459770775e-03 -4.510600194447274280e-02 1.182386994345437509e-01 -9.995563683282533696e-03
1.667557664372627292e-03 6.755576031529554604e-02 -6.469815059823816328e-03 -6.950433533574400247e-02 2.033507898471314523e-01 -2.568261472712172339e-02
9.091751061326133754e-03 7.682710887094683361e-02 -8.414239443660653794e-03 -1.226000556371661110e-01 3.582711728500879156e-01 -3.330265730589185291e-02
1.635879075968999126e-03 7.270126800741830153e-02 -7.568697577002958532e-03 -1.555343962107654243e-01 3.937765037652776190e-01 -2.359794068291043434e-02
1.082215191320346805e-02 7.124881183508184612e-02 -6.948853630157070249e-04 -1.655503679581757093e-01 4.445427478211642081e-01 -5.459446571541398674e-02
6.279889493535062948e-03 7.527717782825663062e-02 -1.228812926494293745e-03 -1.532330758357927369e-01 4.295118778971430684e-01 -4.846963323723066375e-02
6.939223308582292971e-03 7.055203921212579998e-02 -5.058221823134145811e-03 -6.333615342931413206e-02 3.610882817271734435e-01 -3.938940823151114434e-02
4.386262328653731113e-03 7.310355736799693804e-02 -1.207759248822326548e-03 -1.670883539277802365e-02 4.583768276290221544e-01 -2.998819213552797111e-02
1.426833403165161246e-02 6.074433946601755230e-02 1.542369095812506918e-02 -1.272572500966327180e-01 5.414665618948554249e-01 -4.143813384935592092e-02
9.905091656998795194e-03 7.576153211379746399e-02 1.291516717492688371e-02 -3.768500407027874921e-02 5.585776225975846998e-01 -3.356310240765130598e-02
1.231305431962422328e-02 8.737257162323500137e-02 -4.976086245553623666e-04 8.633633955370978441e-02 5.208968165434113562e-01 -3.511891689081348550e-02
1.071771060742243188e-02 8.561851633541010809e-02 -3.801267459477980504e-03 5.073629103039493243e-02 8.521490994212184145e-01 -3.052441420500106445e-02
1.080427781837744322e-02 7.995498738207877654e-02 4.303062979394284282e-03 9.692405624490887245e-03 1.375640211294144599e+00 -5.391326591934433171e-02
1.119839464374215374e-02 8.419382643915640507e-02 -2.137766441324245870e-02 -8.900370110531129197e-02 6.899218455338009814e-01 -1.012428436756239794e-02
1.355961153662491210e-02 9.193421879376201256e-02 1.740190860320733890e-03 -1.405915435536661817e-01 9.069540067068207478e-02 2.479024409779949020e-02
2.060287999084167015e-02 6.458384009379239399e-02 1.427981472668260476e-03 -5.642740216893858685e-02 -3.960604780017917825e-01 -3.598493690374080737e-03
1.647310043461045273e-02 8.583527084371801730e-02 7.937578153719510032e-03 -8.818702435930733663e-02 -6.272433955619781676e-01 3.148808085538706836e-02
1.003222650557106244e-02 8.965667279961193892e-02 1.173401708065791027e-03 -1.201390038914744579e-01 -4.350288761529360615e-01 3.574259979730935732e-02
9.244314697303039965e-03 8.742410337581094093e-02 2.106555499140905230e-04 -3.453928222682787763e-01 -3.120460348130170147e-01 3.595886001794867254e-02
1.528029249584379225e-02 9.127164201329060478e-02 -2.208036770360877199e-02 -2.832975891460327023e-01 -2.136654352244390931e-01 1.681197957165919341e-02
1.427297738473533306e-02 8.929294557937735022e-02 -3.375015612478793336e-02 -8.981922365504056704e-02 -5.681499520436058409e-02 3.749174055099731718e-03
8.372193633854031758e-03 8.700215634151950428e-02 -4.570723517920843859e-03 1.184351977632771696e-01 1.346505719042369875e-01 2.176322948444990232e-02
1.660759917495319496e-02 7.501156474094504423e-02 -9.184889711666699430e-04 1.769648777565111242e-01 8.365264334734964780e-02 2.091476657308138573e-02
1.228778170761250267e-02 6.463198601035043123e-02 1.682018194278683820e-03 -2.269294200298610231e-01 2.270478145272497306e-01 1.572142043485668175e-02
1.125526284612567325e-02 7.923232771586190271e-02 -1.544325319933408103e-02 -2.483672323186627839e-01 2.229161606658241201e-01 1.482137603906714778e-02
1.503711640239221298e-02 8.007536194793357653e-02 -1.639653884919928251e-02 2.945140083837018835e-02 2.153925312424407601e-01 -1.403280304776327895e-03
4.549089992477514536e-04 7.389757187811472894e-02 -4.036383748574068342e-03 1.843099957128305766e-01 2.609913073612182277e-01 -7.677086589372857442e-03
-1.593187147229933789e-03 7.640345316691826705e-02 -6.436119230837158978e-03 1.418013945855225166e-01 1.786622556787551830e-01 -7.440830293265043166e-03
