-8.910421313335538038e-03 1.995088180832454636e-02 -2.386652556501080158e-02 -5.177593031902411047e-01 6.059718619280487356e-02 -3.251060548341231510e-02
-4.518651183960663807e-03 9.311558854324365753e-03 -2.618539599106273208e-02 -4.930596672690867877e-01 6.739982163560466477e-02 -3.399954443064907156e-02
-6.406669357572968015e-03 3.493279218946467729e-02 -2.433173401312627160e-02 -4.775195644778092996e-01 7.760651250811624602e-02 -4.908948513428626655e-03
8.016236123472028977e-03 2.561274852380062209e-02 -2.411004920657358608e-02 -4.834263749374198005e-01 7.822561241145432887e-02 -2.461891914998681763e-02
-6.470263070091576176e-03 2.312214069748300127e-02 -2.339055820047478140e-02 -4.796877421375435602e-01 7.349683552435785916e-02 -1.529673421243299587e-02
-1.287132680994360241e-02 1.910020154844215001e-02 -2.701965103566714155e-02 -4.782057706848287792e-01 6.377666942383203308e-02 4.873176482451551696e-03
-1.235443738777165790e-02 3.235592417017563172e-02 -2.576888780854226513e-02 -4.686468213935858218e-01 6.804559067266997829e-02 -1.218895567923586679e-02
-1.444746846981264515e-02 4.094162675164381843e-02 -2.580492833561977284e-02 -4.943616906226271368e-01 7.632977017671495334e-02 -2.727382555245034396e-02
-6.334003896020183773e-03 2.119243131159813387e-02 -2.400260004744533826e-02 -5.146445371541152891e-01 7.545670204484611343e-02 -3.104936899729930297e-02
-4.753801918992524647e-03 2.483284144468089413e-02 -2.278220349507764642e-02 -5.269397705791379893e-01 5.781108926450932717e-02 -1.778262331821922615e-02
1.337056562106697872e-03 2.430186296600328477e-02 -2.505780731004891848e-02 -5.471931224520623083e-01 4.986391174382120289e-02 -3.404130797919269896e-02
-1.285399111108501656e-02 3.473579767378331268e-02 -2.488405882643743294e-02 -5.848595605274413689e-01 5.374170153829575802e-02 -1.469158362323182490e-02
-7.974523141513464863e-03 2.368858365313125658e-02 -2.589351154542959832e-02 -6.137326788868139316e-01 6.108301414899704185e-02 -2.327825283559841266e-02
-1.474807551798096306e-02 3.424053582930990103e-02 -2.664612677504457627e-02 -5.974403391851524914e-01 7.049663630372889067e-02 -2.679587636816079671e-02
-1.320259428793432721e-02 1.793040018883919687e-02 -2.492881683211350952e-02 -6.027491120990952078e-01 6.909041329829733458e-02 -3.983312126627513300e-02
-7.252072013358121065e-03 2.973726961344695316e-02 -2.316092810391420787e-02 -6.047359019930093060e-01 5.960018151519527740e-02 -3.517473114399052164e-02
-1.398228297325869278e-02 2.198013689689583966e-02 -2.586615821900636880e-02 -6.021897253954598961e-01 5.254366582321289697e-02 -2.162393369485137926e-02
-1.223962767590909377e-02 4.973758166143273096e-02 -2.322049279987116466e-02 -5.928592903934404301e-01 6.214014718291013123e-02 -3.051114185370808196e-02
-8.227478740822868203e-03 2.343304486314894824e-02 -2.333772439975935475e-02 -5.921461448903763136e-01 6.530066745825997832e-02 -1.917233507695991976e-02
-1.599338872695360916e-02 2.215977410409931264e-02 -2.754072546274510813e-02 -6.026249101129874663e-01 5.572437086779301330e-02 -2.367485938405701484e-02
-1.764469098672627120e-02 4.129829955780173201e-02 -2.632809959570277247e-02 -6.096828407671638361e-01 6.158685931236925620e-02 -1.516031744546529961e-02
-1.645023679659592813e-02 4.085731579973671257e-02 -2.740542427596201480e-02 -6.161129854493264668e-01 6.633176180283507917e-02 -1.500893945587654203e-02
-9.882814048344672198e-03 3.336320625464649081e-02 -2.987172409106672588e-02 -6.237789649669843728e-01 7.468900851975267263e-02 -2.312757418999739772e-02
-3.523310299109932119e-03 2.133610363082489095e-02 -2.877752262855742815e-02 -6.159681428064370801e-01 6.897798973742740036e-02 -3.556890410163177779e-02
-8.404266942221001280e-05 2.487868485912038408e-02 -2.781179611704698296e-02 -6.243866610184543031e-01 7.577049875889618757e-02 -1.391606470625808209e-02
1.848996862791287086e-03 1.584154561440902220e-02 -2.692692446422845221e-02 -6.367771968266520144e-01 8.505112919797373772e-02 -2.497116113242089583e-02
-3.095181797174634264e-03 4.062074080841671792e-02 -3.011396336009895813e-02 -6.492212436844653212e-01 8.684787890997930360e-02 -1.664623932858469435e-02
7.181788090004206059e-03 1.662165031739287063e-02 -2.628927474087351668e-02 -4.219658220052236453e-01 -6.691257053320128628e-03 -1.417090506564114630e-02
-2.472580017823035412e-03 6.061889175172799002e-03 -2.677256378235616519e-02 -4.053181268824044836e-01 -5.967359173967370228e-03 -1.656550774525284223e-02
9.940437680519925018e-03 1.140680013548015480e-02 -2.628747068429281020e-02 -3.910565680364154750e-01 1.253121109056712368e-02 -7.578036204868150889e-03
4.685372917774254312e-03 2.337947773049044511e-02 -2.701530657130969681e-02 -3.811174556877117148e-01 1.550514130711273635e-02 -1.085543378486971550e-02
8.433159112150499792e-03 1.844942347529467466e-03 -2.603931770754555619e-02 -3.834014736784910893e-01 1.788510827786122734e-02 -7.929236051588807108e-03
-5.754629610612015632e-03 2.193477338540033086e-02 -2.961034464313558323e-02 -3.801845554376435121e-01 1.784238374378692427e-02 -1.780158457656295674e-03
-5.754308436909696652e-04 2.131730349627862162e-02 -2.690098034561178020e-02 -3.829155964861460926e-01 1.476940935527496813e-02 -1.202143656093568151e-02
7.405555319062341948e-03 2.164983065402118975e-02 -3.004721125737710996e-02 -3.904580743896418071e-01 1.278292174088548755e-02 -4.546074074817788892e-03
8.213244180676712927e-03 1.274029215856075856e-02 -2.765253269278830639e-02 -4.189495858368464942e-01 2.389662605570264109e-02 -9.543662272057322482e-03
1.269482382034299063e-02 3.812167529721090242e-02 -3.117010578893744666e-02 -4.437814651261391963e-01 1.459374615913096654e-02 -2.936080760131522943e-02
7.759411307098309368e-03 3.670932149289593549e-02 -3.048884907875408501e-02 -4.406437738425348916e-01 1.853028940596565532e-02 -1.545074003639323665e-02
1.563908806580228267e-02 3.869238409383742028e-02 -2.860533421432678858e-02 -4.446232803845553971e-01 2.128612583389953225e-02 -2.139347696147736802e-02
5.532711127532126405e-03 2.509506832786083733e-02 -3.102751177320371700e-02 -4.510376084789524676e-01 3.447188386290081508e-02 -2.133545134006560595e-02
1.588764834736957829e-02 7.550145525501140292e-03 -3.043354294298042384e-02 -4.425723902064349624e-01 5.153836978627030635e-02 -1.897269457631227743e-02
1.536998483392865850e-02 3.220289837268024841e-02 -3.179646248439603473e-02 -4.351297217605702983e-01 6.831727198289674896e-02 -2.362520033596280516e-02
1.064690735232066976e-02 1.380756323162289981e-02 -3.060835611166877468e-02 -4.428170081343432152e-01 6.388950915545740794e-02 -9.985654273997788058e-03
6.725150826835642540e-04 5.561936610489264139e-03 -2.920235727534885306e-02 -4.428212709781923495e-01 6.825434351828726931e-02 -1.440720823714624482e-02
1.010012874433686113e-02 3.426131504104433338e-03 -3.154452295055795719e-02 -4.429139189548290667e-01 7.090944576066957050e-02 5.146011163034984633e-03
6.075496158628909162e-03 1.467676550294953232e-02 -2.995460530434312929e-02 -4.449480326418411291e-01 6.317800097379887292e-02 -2.011561423767754819e-02
7.330914595712358789e-03 2.591007980680794937e-02 -3.179954232322645957e-02 -4.606614969072522769e-01 5.064598003834230172e-02 -1.920581994741676814e-03
5.102258238925127219e-03 -8.360246823664744045e-03 -3.048670337623274329e-02 -4.687648626733670332e-01 3.726100516146913649e-02 6.758765275619520174e-03
1.279119692884874392e-02 1.592298207020675146e-03 -3.421493702902707323e-02 -4.828850441166628316e-01 4.176929389124175301e-02 -6.187389716862109340e-03
2.735533245422539644e-02 3.117027777267983302e-02 -3.352024077833831717e-02 -5.075915925450006361e-01 6.982581061201846573e-02 -4.462003041883062966e-03
2.047955613372560990e-02 3.031574396688254541e-02 -3.011327542751623954e-02 -5.156066864668336081e-01 1.268385247817031547e-01 -1.164465720660208536e-02
1.296996665096524295e-02 1.303689906360815109e-02 -3.157010601890114510e-02 -5.348492453000327496e-01 1.498974826788745940e-01 -6.906607421499028759e-03
7.952876556556555399e-03 1.087883341796251624e-02 -3.207114063701671514e-02 -5.376282628052001522e-01 1.780209304819840577e-01 -1.482822313795405201e-03
1.653603763519990652e-02 1.086881326319765785e-02 -3.293689549758788138e-02 -5.511952233709989102e-01 1.938449241332965423e-01 -2.580691300760277768e-03
2.420746163043979021e-02 2.111571002393432261e-02 -3.143460123683383678e-02 -5.518578506487384905e-01 2.030899937526852717e-01 -3.150825494919522358e-03
1.543976890127977432e-02 2.866133651406848129e-02 -2.169072197414223524e-02 -6.012122399548839313e-01 6.082714235018679694e-02 4.542138007988804640e-04
7.015158675900155794e-03 1.568987745079822999e-02 -2.239596159135043285e-02 -5.720599153421297434e-01 3.338035928187378654e-02 1.590510770939913094e-03
1.518276177637939602e-02 6.709903812494675407e-03 -2.406974932845418191e-02 -5.459634444735477210e-01 -5.632119196671260541e-03 -7.793703224408575839e-03
1.885305838573142143e-02 3.437991612457472895e-02 -2.602567986523462995e-02 -5.146525246306435930e-01 -4.625249644494503626e-02 -1.609626143374422516e-02
1.321405426040676671e-02 1.823407353993289001e-02 -2.267122056602494107e-02 -4.983173042887342752e-01 -5.349654408921439286e-02 -2.045252400421107217e-02
-6.282857663859582956e-04 5.158497460846725446e-02 -2.580500909244567986e-02 -4.779022509470731706e-01 -5.228116120422897362e-02 -5.621760791751767398e-03
4.335498380807656371e-03 2.669878392297852371e-02 -2.730439205044647710e-02 -4.602712373788810374e-01 -4.862299429978965415e-02 -2.655993046529876028e-02
4.142027166459268626e-03 2.744851564984244693e-02 -2.796743082907726663e-02 -4.467861155665580619e-01 -4.963566929823338969e-02 -2.833493339665698121e-02
-3.828255379818756333e-03 2.028528717153424074e-02 -3.268968830631119316e-02 -4.422609353452948144e-01 -4.302797741832235096e-02 -2.543846188403634315e-02
-1.381584516588711415e-03 3.404404770879786851e-02 -3.227498767496489451e-02 -4.347015419622555776e-01 -4.295856385633680524e-02 -1.249779290379005904e-02
8.483806784444792096e-03 6.490486141888138563e-03 -3.159518018834524267e-02 -4.093655579870430494e-01 -3.128654196278006505e-02 -1.974576983213722700e-02
2.736344036998196536e-03 2.507907243123995433e-02 -3.262875389541632087e-02 -3.782041674098357009e-01 -1.198720229214568153e-02 -2.446319630035409531e-02
2.979681150568625793e-03 1.991961144366341183e-02 -2.885690807614106623e-02 -3.529876209913477836e-01 1.523624128287489124e-02 -2.982085956244635155e-02
6.128051862798893773e-03 4.456217403289861045e-02 -2.843509685763713490e-02 -3.217398363011380602e-01 4.145355120589389042e-02 -3.050517368712630378e-02
2.101397014430474251e-03 -3.625751597984328695e-03 -2.432982045409470828e-02 -7.330605837277939241e-01 7.886122392487970867e-02 -2.532500291516096708e-02
1.813332149915651212e-02 5.979554436686932914e-03 -2.893090702998608876e-02 -7.279950409521218635e-01 1.184386444876928401e-01 -1.759908279123681418e-02
2.108832492753007215e-02 1.120370365821253371e-03 -2.990449312491239020e-02 -7.032628560173281862e-01 1.217374182460768117e-01 -2.182369038112755288e-02
1.471984223304361079e-03 1.084918013020672728e-02 -2.843246388406175940e-02 -6.507711443824976127e-01 6.668471274301540630e-02 -1.126365231499961220e-02
1.756533107953799425e-02 1.926548880888474813e-02 -2.835274192170182672e-02 -6.442730898954316388e-01 8.987805839438218342e-03 -5.050742233430067368e-03
7.916695553667849050e-03 8.573554131033200507e-03 -2.726175611417550049e-02 -6.253625733981273971e-01 -3.005710821366026908e-02 -5.866706370943159179e-03
1.243081886984641511e-02 -6.230813506233685156e-03 -2.934417090135416073e-02 -5.942362693997900180e-01 -9.816450689778512956e-03 -2.180343135167377502e-02
2.861106161865673014e-02 -3.186481846024166731e-02 -2.832358385175351434e-02 -5.463980369720993213e-01 2.769116492378596514e-02 4.342645981251320661e-03
1.918796852536492833e-02 -1.018754577805214018e-03 -2.446858549505070979e-02 -5.021944006799873295e-01 5.719487176820133717e-02 -2.408632730191940033e-02
2.148857728472460329e-02 1.982997084172999011e-02 -2.334388724553401739e-02 -4.450100285369822384e-01 6.790023841609618693e-02 -2.006439866066380556e-02
2.540352562096607342e-02 -1.121781273020731190e-02 -3.251678568105004219e-02 -7.166570016306643698e-01 -1.827899847425916782e-02 -1.545333087643404463e-02
1.652209477039540825e-02 -1.014469339498809755e-02 -3.045666259331945847e-02 -6.853631633840037152e-01 1.798208616324377396e-02 -1.304344182592593639e-02
2.221137182222137837e-02 -1.547464774609317618e-02 -2.980951469780571128e-02 -6.740384642676702232e-01 5.412461670393112906e-02 -1.845532154506270353e-02
1.548696836061777375e-02 -2.251882649156703581e-02 -2.922767652997841636e-02 -6.678640895983458670e-01 7.597083524568296053e-02 -4.649616252957692632e-03
1.550037128545013639e-02 2.701558526286163258e-03 -3.228993698641663412e-02 -7.003492779313791328e-01 5.490547442140294998e-02 -5.281157528709919460e-03
2.586928768346893198e-02 -7.430257855565912395e-03 -3.248658161727058236e-02 -7.460770820884862209e-01 4.041653525993422341e-02 -6.436900272272784787e-03
4.199338009540438954e-02 -1.780102145552006979e-02 -3.511615977013225753e-02 -7.721550356675463966e-01 3.446730906119804816e-02 3.498690587251618040e-03
2.090946654216772199e-02 -1.570310292641184614e-03 -3.499239205378129602e-02 -7.626179048373301628e-01 4.790403835855996939e-02 -7.228212134389686364e-03
3.651971217942029391e-02 7.344198006797154551e-03 -3.391713051250619393e-02 -7.445144448404310555e-01 5.897836270637530492e-02 1.186798463769834930e-04
6.353788903679691812e-03 -2.768531914055603893e-02 -2.118357172055854165e-02 -4.077845077304098620e-01 -2.047740909274531340e-02 1.160345020090058736e-02
3.821505413764096225e-04 -2.470883747784172885e-02 -2.286186301043302560e-02 -4.124049681684056612e-01 -1.185597328309591879e-02 -6.185093657854548628e-03
1.622528963526738421e-02 -1.555425079821538131e-02 -2.377274023286753135e-02 -4.132443283641651366e-01 3.024741648674351274e-02 -1.914445387536357207e-02
2.117102063362543557e-02 -6.878587895834931652e-03 -2.474697948403675740e-02 -4.250527955560458038e-01 1.074368580070800133e-01 -2.347351844930407015e-03
-1.294942389378072743e-04 1.493688258909702839e-02 -2.135077287449303751e-02 -4.196233501298527457e-01 1.221847819608515018e-01 -1.488285123937677090e-02
3.242407255301525681e-03 1.708292417627800194e-02 -2.165934458150708952e-02 -4.315424340848609264e-01 5.236764599345453131e-02 -9.777433475428641638e-04
1.533936106226714211e-02 7.026630923012861310e-03 -2.399440248042070123e-02 -4.270490808561270279e-01 -2.346861166124353595e-02 1.142689020289056751e-02
8.159392762989806439e-03 3.358862411615781175e-03 -2.583981239262334029e-02 -4.150413629263250970e-01 -3.020315313073433997e-02 3.837153428189748680e-03
1.512610546046197317e-02 3.582649905711263183e-02 -2.402195257712733123e-02 -4.153099639858641723e-01 6.286178826918241425e-02 1.260907710066992010e-02
8.227036053307778402e-03 1.953581380751825969e-02 -2.048548649729725613e-02 -1.112223321019882027e-01 4.472861705753680694e-02 2.348225545127542724e-02
-5.448350163996406106e-03 6.000935506512450682e-03 -1.898008476919935128e-02 -1.109291896564628538e-01 7.150267328141043932e-02 1.759085350144760224e-02
7.064828526873232969e-03 1.685624840703260977e-02 -2.078994836103210953e-02 -1.241834235580154266e-01 6.021974709903624851e-02 2.324767562817647501e-02
-1.093305266341349467e-02 9.361228895588125445e-03 -2.046430253910311303e-02 -1.470206558168290767e-01 5.611665563809064422e-02 1.867530450456551805e-02
-1.104194581916216091e-02 -1.720768068004874946e-02 -2.295252756025643881e-02 -1.530363720003245220e-01 5.815926962051263388e-02 2.450915840923681768e-02
7.166265896398541120e-03 -1.643828088895057937e-02 -2.391941472676036018e-02 -1.609604582987310128e-01 6.363034446383589171e-02 -2.169048448298684876e-03
6.448883540868849580e-03 7.288673717708168791e-03 -2.191528147485860556e-02 -1.484746497378360008e-01 4.430715171294684340e-02 1.123608533772943799e-02
9.787346591755116849e-04 -1.069995565558788664e-02 -2.324487246563450293e-02 -1.323650089580380718e-01 3.537224899909625908e-02 1.494539647831441033e-02
7.158732031053854049e-03 -3.366577563305849646e-02 -2.441745221047277037e-02 -1.290115219245619171e-01 5.835381299058624988e-02 1.312764195213561753e-02
-9.893316889217225983e-04 2.849040248081833801e-02 -2.134811806576228377e-02 -4.146361689605805589e-02 3.842475378937196817e-01 1.638613752149034250e-02
3.925868830844053171e-03 2.746068355242280504e-02 -2.101186479138386631e-02 -4.041247274331676020e-02 3.827201232809601672e-01 4.132099302274103159e-02
-2.396109560688153024e-03 6.338622562350906819e-02 -2.189981074962274454e-02 -5.056968654409157993e-02 3.523847102145289956e-01 3.391160331223377900e-02
-2.507973511364191806e-04 3.550713463067517450e-02 -2.195790395949860641e-02 -4.235971145620084227e-02 3.284793357774162814e-01 1.747232652996554003e-02
7.647359812390707931e-03 3.671496216010228242e-02 -2.461520325867869174e-02 -3.610946117752228401e-03 3.314312407912139435e-01 -5.597991419401720029e-03
4.720598991097375505e-04 3.188584289593717619e-02 -2.434833637022532082e-02 2.727058413614888779e-02 3.215281611658510896e-01 5.077497126208165706e-02
2.003445330640660216e-02 4.342694367830966795e-02 -2.469848676987465574e-02 3.891146548645493808e-02 2.882869977745618484e-01 3.722204649392495818e-02
1.519673236565380163e-02 6.136575757582339585e-02 -2.468071581172456841e-02 1.976551239641603439e-02 2.665183764986870374e-01 4.423381854997691931e-02
2.067452429671846545e-02 6.606143604430816940e-02 -2.749968763808163796e-02 -2.096337314075063032e-02 2.666472469467295325e-01 -3.896304887692029432e-03
1.015276373599271380e-03 3.537936452578890195e-02 -3.016420085564011644e-02 -5.735378314695899205e-02 2.825064447949872104e-01 1.437313629563180019e-02
2.651980649581134070e-03 3.421331384458044939e-02 -2.840743144226076655e-02 -7.953549108682310409e-02 3.077968546233397773e-01 5.012043543234743527e-03
8.792977083540556849e-03 4.133550024071718648e-02 -2.802790575456551303e-02 -7.840426838889398564e-02 3.164450421707142302e-01 1.273842818846703407e-03
-1.133701714697814451e-02 1.595415579410291648e-02 -2.475260047920610496e-02 8.804648887133334489e-02 4.126176641177333737e-01 3.743782671626812945e-03
-1.821234942607058774e-02 1.046768610684474694e-02 -2.543829764944444127e-02 7.894773649694455941e-02 4.114702218101902176e-01 4.287521408775642542e-03
-1.976281718877057145e-04 1.271607573188284109e-02 -2.553821300867818722e-02 7.219705120750867511e-02 4.307257357066178738e-01 -1.066581198753118430e-02
-1.267503209029454889e-02 1.176677189049062100e-02 -2.770019605254304962e-02 7.985228739364955142e-02 4.406398237616716007e-01 2.062524177243402895e-02
-5.949184725095210159e-03 1.844186543969958403e-02 -2.658610419436507888e-02 6.529141279394772013e-02 4.395369787099073222e-01 8.002478772615088595e-03
-2.386862073954772873e-02 2.356107888269334903e-03 -2.770585559112770380e-02 6.709794410856081970e-02 4.270168655279721892e-01 1.685910676138277151e-02
-9.101410508627540141e-03 -4.769138204473027942e-03 -2.973944936170205833e-02 7.172872247266694201e-02 4.335039533118906774e-01 1.596184926441042429e-02
-6.004603514364229878e-03 1.171092797952770839e-02 -2.602932367200685992e-02 5.399917421627027647e-02 4.426187039448707394e-01 7.115059254232980121e-03
-2.122533721814709451e-02 1.532249490086782726e-02 -2.681084414228797341e-02 1.692702840562527664e-02 4.485671168393698949e-01 4.996674445860887701e-03
-2.651333518599643252e-02 -3.041786775219463591e-03 -3.016973759351823658e-02 -7.367134517524724646e-02 4.489511369683526487e-01 2.049094627700018961e-02
-1.390196876206518939e-02 -1.853923745080374077e-03 -2.709187936343149250e-02 -1.456289125388935957e-01 4.641170533352455552e-01 -9.591999857483846439e-03
-7.482036068902598105e-03 1.689695130204776907e-02 -2.611324705412298997e-02 -1.521769765552815623e-01 4.676444693553338805e-01 -9.906153680800710085e-03
-2.308623406135716996e-02 -1.132018632209432982e-02 -2.734089742473021223e-02 -1.424154123825447649e-01 4.692078830537505518e-01 7.359606363995995978e-03
-2.940497362477438939e-02 -1.739629125962042014e-02 -2.542826288134876489e-02 -1.372299515221007682e-01 4.677953149976236125e-01 1.772579412150569397e-02
-7.963365595585540982e-03 3.885126079786691694e-02 -2.603550716285615851e-02 -1.357245451766193045e-01 4.587899411195167643e-01 1.457908529734286938e-02
-2.440277321403110794e-02 -1.818157489517859340e-03 -2.657178629766469846e-02 -1.468506957012858938e-01 4.468165939591001723e-01 9.832576232687810849e-03
-2.454394721360091472e-02 -1.378167651504600896e-02 -2.866648662144308246e-02 -2.335258288942618499e-01 4.322093915505286765e-01 4.972117586248154045e-03
-1.319340458210241200e-02 -9.241954978657805977e-03 -3.207015987588497652e-02 -4.292634589745336071e-01 4.275725921470397983e-01 -1.001018208240279754e-02
-2.338361457015111691e-03 -3.023221690914007411e-03 -3.721532332533865339e-02 -6.629715392570783017e-01 4.109385890770200223e-01 -8.121678829913554776e-03
-2.167762050592938854e-04 2.308938266415623206e-02 -4.080870686453927365e-02 -7.781859208814883022e-01 3.900577226666963049e-01 -2.459240325083177775e-02
-1.551498759439524054e-02 1.018484742866116767e-02 -4.110803551691066815e-02 -7.148785395313811408e-01 3.579264425388789528e-01 -2.072400979613554187e-03
-2.185803986468281071e-02 3.586459048866563748e-03 -3.902517256737096651e-02 -6.050545188136192687e-01 3.557399344319532308e-01 1.714611370789774492e-02
-1.105263915158901343e-02 -9.520830157849090661e-03 -3.744525810925528053e-02 -5.493757842270461378e-01 3.562188872069282919e-01 -2.775875896002522308e-03
-1.880247619673161563e-02 -3.581374334318843805e-02 -4.181199029807472489e-02 -5.662011901548852366e-01 3.435427172499450066e-01 2.278886750939591258e-03
1.520760928716672136e-02 -1.940789352240526039e-02 -2.559563936460208800e-02 -1.650276995710786287e-01 3.650212563664117504e-01 -2.959988961263932544e-02
2.682617054409699824e-03 -1.728105486299316316e-03 -2.845359029384347815e-02 -1.691919364963825057e-01 3.007523320286532020e-01 -1.599737669895876305e-02
1.298838456521234433e-02 1.690762489347528985e-02 -2.641207827847583123e-02 -1.847809622228198112e-01 2.087544568704112480e-01 -1.551104038550388427e-02
-1.444162352681541660e-03 -1.615845734541696693e-02 -2.869337503995536554e-02 -2.131490607183122998e-01 1.341051952017845439e-01 -1.407360858796877050e-02
-7.748765407163829035e-03 2.011637304048529123e-03 -3.413089352695107548e-02 -2.731237639463061639e-01 1.194583704289400583e-01 -2.018727945776145616e-02
2.677177460002876271e-03 2.021378318023045115e-02 -1.683114376497772680e-02 -5.127818967551300150e-02 1.707454145157738246e-01 -4.073781414459040628e-02
-1.085993421150326793e-03 6.460269373753472003e-03 -2.283097159331839987e-02 -7.291783652572371432e-02 1.756336891334038530e-01 -4.147389410690550948e-02
7.100669154088448155e-03 1.015712500415626857e-02 -2.411331024024385150e-02 -9.277157718063513969e-02 1.417944585213642694e-01 -2.936949670479603244e-02
-4.210493737292338341e-03 -2.446987756088622561e-03 -2.967258987545459692e-02 -1.150618309033795555e-01 1.138771489197535902e-01 -3.444340710659232752e-02
-1.084570031332578004e-02 1.293336258983586798e-02 -1.282897907264503312e-02 -1.336388067323628359e-01 5.502910490802710025e-02 -4.698982555308355014e-02
-1.985344918556316510e-03 -1.476771828860127915e-02 -1.742430330705183050e-02 -9.921647436500904971e-02 1.353071208651929203e-01 -8.866990457205233683e-03
6.958911774603587785e-03 5.859110509204508259e-03 -2.401743894096582121e-02 -7.912946245679680635e-02 2.809613140541422638e-01 -2.353575249617667967e-02
-1.987267053347402477e-03 6.203568672747861341e-03 -2.793802680897031210e-02 -7.478620238522672159e-02 4.133954482758790960e-01 1.691479698665428319e-03
9.684896799201234835e-03 -1.951747778933059924e-02 -1.351127284726269528e-02 -2.387794473894747156e-05 -2.093266944040516817e-02 -2.238326288278462070e-02
3.989071428431833479e-04 -2.343252266774552978e-02 -2.026462660989383768e-02 9.479116701721304605e-02 1.099903054191976419e-02 -3.673545952133201124e-03
-1.184363432894525690e-02 -8.762798580481163599e-03 -2.387112696173213089e-02 1.422683650877136496e-01 6.552534662135478527e-02 6.325308566897680680e-03
-1.708602845216526667e-02 3.083960059697236043e-03 -1.412581416028747816e-02 9.796502802757449391e-02 5.259157534477745116e-02 2.020063067846235988e-02
-1.373979412392365047e-02 1.067325747594930450e-03 -1.914393629916326389e-02 1.378028261452691750e-01 2.751820104282852175e-01 3.187454755949246238e-02
-1.858749257030073085e-02 5.146582877140409157e-03 -9.583921506132381252e-03 2.847022885906016348e-02 3.895522748678828528e-01 1.119017790847075602e-02
-4.275023838123300987e-03 3.024662893596585800e-02 -1.870863013787961437e-02 1.695756075326217416e-01 4.292426316098746364e-01 8.888679243959071719e-03
-2.347368200641617971e-04 2.678966448765759609e-02 -2.069674810962213174e-02 3.190134580015470123e-01 3.011451092902101556e-01 -3.542996103560323157e-03
1.100620166936509998e-02 2.994068474529617760e-02 -2.207566186951522014e-02 1.833931080403085612e-01 1.326709104680848794e-01 -2.636475054414431571e-02
6.826986888437995213e-03 2.152970355723934567e-02 -2.527427085336030055e-02 2.529777745052778082e-01 2.930710371557785354e-01 -2.195528630191992403e-02
-2.804647558114865824e-02 4.133813325566806918e-02 -2.716881342225312135e-02 2.902257559831950551e-01 6.275766187740441371e-01 -1.996506977004351008e-02
-1.336866510878975851e-02 -1.804933169246049351e-02 -2.134876182229430985e-02 2.042766316031830176e-01 5.218976047757031278e-01 2.529459027088597906e-02
-3.066501235449897722e-02 -2.119562180068266730e-02 -2.749745236059039644e-02 4.311725422709069555e-01 2.152190416951459961e-01 2.030700787750169128e-02
-2.302301041174660556e-02 3.575302818931077285e-03 -2.580410604722151169e-02 4.049727265215983391e-02 2.214154475962452628e-01 -1.019269902483989874e-02
-2.199293089612859575e-02 7.398990988614795317e-03 -3.033543087782657188e-02 2.985100699631159510e-02 2.686144607507828241e-01 8.154130856583816783e-03
-1.590750910895546424e-03 1.067429554632367758e-02 -4.008870954875320969e-02 1.523484321561256391e-02 5.178418702320471967e-01 7.956155684200869049e-03
6.609465272720552002e-03 4.060885706564223985e-02 -3.151357505410606885e-02 -1.872288016483912021e-01 3.953014593141431776e-01 2.543625383826457823e-02
-3.338207681816288477e-03 3.476853833737737764e-02 -4.227924906189242660e-02 -1.565117449138171413e-01 2.725942401003737525e-01 5.960037433889220186e-03
5.544524645093558760e-03 2.368099783334553024e-02 -2.793096435309577741e-02 -2.013134423253304661e-01 2.235192574049444658e-01 4.025170731711645057e-03
1.655944688263562628e-02 1.247645817903376454e-02 -2.338439140821160778e-02 8.001263252665426207e-02 3.005513921477395364e-02 -3.128703486993592627e-03
-1.708292475929942301e-04 1.640060869595652907e-02 -1.604489052746919941e-02 -7.418208991785378570e-02 1.286510199623195905e-01 -1.345559850012206533e-03
-1.031365917618196765e-02 -3.093965061507411313e-03 -2.073166843684845495e-02 -9.772759211418995118e-02 3.424425031907091799e-01 -1.762009394306775960e-03
-2.394490110362613132e-03 1.389984798945846688e-03 -2.679484186391696554e-02 -2.330966979200801703e-01 4.940424437069542152e-01 1.397629481007794591e-02
-1.719173549240988683e-02 -7.280662310559455133e-04 -2.633431311206958780e-02 -6.455143892221909541e-02 5.906527704624874309e-01 1.171957146307768365e-02
-1.134285279375004882e-02 9.386991038861456499e-03 -3.247388802945086472e-02 -1.586935142087126105e-01 4.647584686140927568e-01 1.316892276417468838e-02
1.679205270579933696e-03 1.193532182915751222e-02 -2.624348783520578932e-02 -4.151412376561058881e-02 4.738361365088543109e-01 4.590800092592446646e-02
1.022744259031397804e-02 5.785578441457928794e-03 -2.632614796772307642e-02 -3.890806234497059396e-02 3.607917619484252159e-01 6.039002454062207016e-03
-3.822592881024196396e-03 -2.466406949339227002e-03 -3.214356852053734670e-02 -9.955908242617588638e-03 4.132217841263082225e-01 5.727311305956945403e-02
1.859739519627288951e-02 2.527611171678562779e-02 -2.422956097696918332e-02 -1.349568103274602637e-01 5.737730203595816647e-01 2.126360447284637509e-02
-1.949047547114130452e-03 -3.265996209372503019e-04 -2.797719453523753175e-02 -2.392458368713586969e-01 5.506792563360676240e-01 1.453123110433485882e-02
-5.020639644402321786e-03 -4.504601500642574276e-04 -2.784399435861879823e-02 -2.640586655286623063e-01 7.220227107701188141e-01 1.519444704546070099e-02
-8.897407997266163285e-03 -1.344058536182508000e-02 -3.325687610762585733e-02 -3.306077599791166222e-01 6.798251296510366970e-01 -1.079309828483618165e-02
1.218603225944206447e-02 -8.400258157402844955e-03 -4.345642855270637206e-02 -4.773272821653553044e-01 3.615922790374917484e-01 -9.639500008731025082e-03
2.701629993964899112e-02 2.803090009342532659e-03 -4.582810395911038337e-02 -2.920700232185677869e-01 4.473461085410000981e-01 -1.350362041506831569e-02
9.303342772936741556e-03 -1.194209957693877396e-02 -2.029494362577423383e-02 -5.286700572283621336e-01 4.151841176060157013e-01 -1.704742659546816530e-02
7.851179284594791974e-03 5.536128891499661822e-03 -3.326903951998783082e-02 -3.933545982113177408e-01 1.776049053670961664e-01 -1.938412143945972971e-02
-2.025505425224921607e-02 -7.502989299993247096e-03 -3.085656593293724381e-02 -3.004186938680880603e-01 6.513340035130568695e-02 6.310354972105602922e-02
6.431113458654925258e-03 5.120325318011580834e-03 -2.892771010804998100e-02 -1.861106500790177531e-01 2.268099021170621454e-01 4.392054372698384751e-02
1.186020941311303339e-02 -4.578662162364056931e-03 -2.064788736231903954e-02 -7.086181994223469949e-02 1.048566913659942507e-01 -3.351459858351345938e-02
9.513463939987759285e-03 -1.433511161873139532e-02 -2.836815084714303103e-02 -5.127613821413710971e-02 2.454341886630018177e-02 -1.677531807804568537e-02
1.474730186280334178e-02 4.368311544288453439e-03 -2.410864586666486287e-02 2.623496968664571979e-02 -1.547085106693720791e-01 -2.882147892506989328e-02
1.820412104076107873e-02 -5.455629346002541930e-02 -2.896895123995518739e-02 2.057754827181614010e-02 -2.055342398634484868e-01 -4.822532091932987125e-02
1.604161436410453043e-02 -5.703167315155657086e-02 -1.854753897059339962e-02 1.870607609534399030e-01 -2.611476922630477371e-01 5.282089118508054293e-03
2.108639144196180690e-02 -4.981996612838762023e-02 -2.256835284801461672e-02 6.753906568932216414e-02 -2.343310799418972246e-01 1.042180605201427704e-02
8.159022579814722426e-03 -3.580675561228108955e-02 -2.106214939231199068e-02 2.322770320674460709e-01 -1.890560933248722486e-01 -2.109713024326876837e-02
1.177121524180708458e-02 -3.066516732302200510e-02 -2.117287346005999882e-02 1.749240345501060778e-01 -1.299334770265918593e-01 -3.737480702616391426e-02
1.527865895913608184e-02 -2.507974215784805616e-02 -1.740986585442760859e-02 3.501888273862462375e-01 -1.654951394231401751e-01 2.986830501486193584e-02
1.056045380719230174e-02 -3.815823899159346416e-02 -1.988617867144978901e-02 3.612439257417907612e-01 -2.076247292844335957e-01 2.526756420490198878e-03
-2.514472370291027936e-02 -4.059700367656957076e-02 -2.613270387278140983e-02 4.984614619116369827e-01 5.660034669354504534e-03 9.127563946484385654e-03
-1.001161267692724129e-02 -4.651480803221561683e-02 -2.549388761747509169e-02 4.326869084354021955e-01 -9.252194656633259962e-02 2.471808621345351550e-02
-2.270737671875874483e-02 -6.058512484079962845e-02 -3.004725535868171815e-02 2.262564757162145168e-01 -1.962089635163023482e-01 3.617635148750245055e-02
-2.462865999074637449e-02 -7.813442223297917266e-02 -2.649325157629242589e-02 3.294450324655702200e-01 1.165087892201625321e-02 4.449516109349235110e-02
-5.687474192960791097e-03 -8.441616860130085609e-02 -3.359316104978898876e-02 1.319234481678163151e-01 -1.909722387026502599e-01 6.582819666637579337e-02
-1.442112106188427230e-02 -5.938666620984120459e-02 -2.569475421629661971e-02 1.950196486999953849e-01 -1.131675103150118003e-02 4.717159272705291617e-02
1.217836271631975512e-02 -6.031641297919576594e-02 -3.113812114309250090e-02 1.784006960968577971e-01 -1.380189081388421279e-01 5.213565924165652898e-02
2.631806849439718293e-02 -6.668258302456481212e-02 -2.895472124926672108e-02 3.086835456306727954e-01 -1.849697963141656853e-02 1.604217141816305023e-02
-9.735190713719666170e-03 -6.162454762810271741e-02 -3.568885702369806179e-02 2.091490365900115223e-01 -9.205184498482507638e-02 1.711357964113050315e-02
-9.645947560833799742e-03 -2.712238665147694017e-02 -2.110349085872238739e-02 1.514340158727914831e-01 -2.404181425959572155e-02 3.473334803656018700e-03
-2.358544549738899807e-02 -2.498403761817256583e-02 -2.481073445904583008e-02 2.268495617891904681e-01 -6.056070940591833096e-02 9.374108556815384519e-03
-1.934207463466652149e-02 -2.071714639655361165e-02 -2.446547713674646074e-02 6.526401767966617529e-01 -1.302562993695429716e-01 -1.144893461732393938e-02
-6.999742483289877505e-03 -1.966477241946379753e-02 -2.897640354330721646e-02 7.791805937339336963e-02 -6.821207231520637349e-02 -8.296896555482897312e-03
-1.524570217808449667e-02 -2.022483379430428663e-02 -5.123039791479852556e-02 -5.885924976788450280e-01 7.730140094242561599e-02 9.874088738638143320e-03
1.255284066641603868e-03 -1.721881356711775155e-02 -2.826467099450456766e-02 1.570653914515499350e-01 -7.296245478559700015e-02 2.453222390896377461e-03
-8.023749830470031878e-04 -2.095102904389025203e-02 -3.095576028193043616e-02 1.513135071005566046e-01 3.532701784225254771e-02 1.813426644509658764e-02
9.580450384951794086e-04 -2.913007255450248897e-02 -2.514709179238742986e-02 2.491944286201683012e-01 -7.891411425344463382e-02 -4.372865165940877444e-03
-1.089433849939467139e-02 -3.743172147695294355e-02 -3.440144342986523052e-02 1.316649614906405530e-01 1.735826710425347405e-02 3.589256518353686060e-02
-3.701746200571272814e-03 -1.067600759278810284e-02 -2.709285623588414404e-02 3.814220980465100608e-01 8.363476406818858011e-02 3.522628224634387351e-02
-2.199550741265172277e-02 -1.382342556432480593e-02 -3.402393834874892220e-02 7.335194652632787138e-02 5.686172255539873044e-02 -1.540861667967148053e-02
-2.007474026147156726e-02 -5.018558006748762360e-03 -4.796372317689687192e-02 -2.236616737484037609e-01 4.346125440564268388e-02 2.909296318913309060e-02
-6.227391442805152444e-03 2.319100804445500819e-03 -1.824779948293729637e-02 2.438408076506977107e-01 4.827434185007502265e-02 5.099755529141408728e-03
8.863934123174993388e-04 -1.840364257479282228e-02 -2.208404133459543339e-02 2.058365184890126043e-01 1.517571597268907724e-01 1.667760321101034032e-02
2.697601186508014022e-05 -4.580391968782319620e-03 -1.950380175576971187e-02 4.450322810121989936e-01 3.312929450634615608e-02 6.897062440787991855e-03
-1.565810848469339003e-03 2.273561585731016452e-02 -2.905673123399621360e-02 3.481176574268700086e-01 6.700206633606244078e-02 6.884556309322019396e-03
-5.393588601233446217e-03 1.782490782126799900e-02 -4.440263838212618608e-02 1.140862732514696526e-01 7.335123952762521993e-02 -9.706919804430727376e-04
-5.776881523234228717e-03 -5.834286438619174994e-03 -3.816011040993597114e-02 6.567298055485361330e-02 1.256296624245836213e-01 6.656622033851680199e-03
-8.477850147380332213e-03 -8.499464991644268413e-03 -2.642475633661091339e-02 1.414829454181041613e-01 -5.948239294105345243e-02 3.784631712101899775e-02
-7.970568501417836862e-03 3.158969093283462565e-02 -2.277242817789197626e-02 2.451029027872654031e-01 -6.861151715961701092e-02 2.498798539504901248e-03
6.095872211115930953e-04 2.372787816316768508e-02 -2.943952912976624536e-02 2.297865481891895323e-01 8.839977559013609265e-02 3.854251359273594413e-02
-4.965524535712894857e-03 -6.355031906451674489e-04 -2.628522693916059139e-02 2.525010024454866220e-01 -1.657686997921356195e-02 2.094454312041605162e-02
3.804380483901237224e-03 3.022640852011923736e-03 -3.237926962960818722e-02 2.453420083135951224e-01 1.830927768221997029e-02 3.691559555497573447e-02
6.041801583312878324e-03 1.692018036744439083e-02 -3.220965592242469588e-02 2.258059682222016695e-01 -1.186762914336672858e-01 1.885978581715977431e-02
3.301119180830381413e-03 9.659057428193867922e-03 -3.551754305258494893e-02 2.499403751969882237e-01 -8.457757140715747857e-02 2.734261216716385445e-02
-4.901773738090173076e-03 8.991142859846201763e-03 -3.898393857625143122e-02 2.450829932269643907e-01 -1.852468407530204475e-01 -8.501527464979403981e-03
-1.896173318070336691e-02 -3.145100298806912872e-03 -3.848948328394331819e-02 1.705336468445883547e-01 -1.764659181980999525e-01 3.879206718329369918e-02
-1.647183926757501971e-02 1.081627815407040089e-02 -3.992701026279979470e-02 1.769918692530673965e-01 -1.002025021738513211e-01 4.162104800919536746e-02
-1.276648200227530408e-02 7.295093152837131729e-03 -3.473326909292956399e-02 2.277577896522692547e-01 -8.273638110718876948e-02 -1.728734495017701656e-02
-4.127983538298280949e-03 1.789138476510235970e-02 -2.857155485173033804e-02 2.648684226400354058e-01 -9.218296084509556426e-03 -3.452963789145893463e-03
-7.028493345362679667e-03 3.761445307771991986e-02 -3.499506690242729090e-02 2.500500513939213909e-01 4.794184401695770342e-02 -8.567037423976166244e-03
-3.026904948044616475e-02 2.044207802461319237e-02 -3.499687219588568099e-02 2.627930928677442157e-01 -3.245147838074703001e-02 1.400221862261487142e-03
-1.382463874930794055e-02 7.811289813676974662e-03 -3.298567658964443594e-02 3.065409809652349660e-01 -9.609784120159065024e-02 2.219174573588531679e-02
-3.135261399560211604e-02 6.043883674182743814e-04 -2.361106623328908249e-02 4.479103041653811346e-01 -1.968470598505794866e-01 2.734145870432210662e-02
-1.102022306303656468e-02 -3.353552403035826596e-03 -2.171629065790138535e-02 5.255984076826222262e-01 -2.162283217567183002e-01 5.347974093907165855e-02
-2.793071704233089647e-02 -3.240746280730707335e-02 -3.197796148872092403e-02 4.909761222468496666e-01 -2.250469411024496047e-01 2.878263507309649413e-03
-2.361500764297409100e-03 -1.507542638490464576e-02 -3.206819818932576949e-02 4.145577535074876363e-01 -1.070514281610814716e-01 4.268461030909476844e-02
-7.702170891647281336e-04 -4.377593283165251599e-03 -3.913502461955906120e-02 2.960476553812713130e-01 -8.881235010552694653e-02 5.595121816189975450e-02
-1.710010138338951408e-02 1.795780863620914224e-04 -3.958937978985055395e-02 5.121092947454937150e-01 -9.146946788794368954e-02 2.115463059570481946e-03
-1.300224394537564943e-02 1.699073340152215672e-02 -3.543856229074232589e-02 2.615839205097983955e-01 -4.381506798500003214e-02 2.273649768811322747e-02
-8.829196155118823261e-03 1.076156784523657831e-03 -4.496292331589263336e-02 1.739204476783860753e-01 -6.790831590667718853e-02 2.485465456358984179e-02
-5.312425556980314260e-03 -1.315268867450055355e-02 -2.296977861683864586e-02 2.061503262378053258e-01 -4.421683288690516495e-02 1.340420730173481033e-02
-1.432643613286217407e-02 2.223288905164715664e-03 -3.103908825225934476e-02 -1.340695586077987889e-01 3.129208750174176240e-02 1.914286424567646777e-02
-1.077188866998418822e-02 8.407515338130309296e-03 -3.202278198314667534e-02 4.850844744408574355e-02 3.272437789223356375e-02 3.621351070626614016e-02
-6.780508800606511836e-03 -9.384510336133919731e-03 -2.026258430561062029e-02 1.448375310144381922e-01 6.858105959589573357e-03 3.470901330674526497e-02
-1.882174963555153374e-02 -1.301218318534628528e-02 -2.294968156471961784e-02 2.283999203897232322e-01 -8.388033960025034763e-02 2.716825898736300454e-02
-1.882134077525124405e-02 5.862082881139969379e-03 -2.043674326033924349e-02 2.706917101061683262e-01 -8.437137865369601086e-02 1.217088449502826998e-02
-1.141007667007023878e-02 -1.416771594276785250e-02 -3.422406406220507291e-02 1.432478386752444321e-01 -1.685112992891095729e-01 3.261173592961007228e-02
-1.703843562268808273e-02 -4.206383451860471953e-03 -3.967028665685183586e-02 1.658308222985061808e-01 -2.142734303721723632e-01 4.040627451620835281e-02
-2.080391008275913819e-02 -1.287966504096033429e-02 -4.874228442428574226e-02 -1.014860903388322966e-01 -1.160421943528605893e-01 4.754386651655635732e-02
-2.222876522280151437e-02 -1.552342681578018115e-02 -3.214673260728845294e-02 -1.822635095942368721e-01 -1.529675993341370333e-01 3.388391915668400450e-02
-2.479016433641242564e-02 -1.099871785342342468e-04 -2.994134908852770505e-02 -1.268611297925514858e-01 -8.960313536168916515e-02 1.640538926929709790e-02
5.976892258741551764e-03 -3.928242150401088477e-03 -3.950943729539083127e-02 -5.772949974165625386e-02 -1.252131279672899500e-01 -2.438681463161615829e-04
-9.815207134360485683e-03 -5.847046653324325903e-03 -3.531493725753501178e-02 3.130230182372126940e-02 -2.117456614605058851e-01 1.153957627108237677e-03
-4.634501078969356300e-03 -4.667995794537727582e-03 -3.508769899839246642e-02 -2.888749422570506889e-02 -2.643388827592709212e-01 1.237813840792684975e-03
-1.476636448762026071e-02 -5.212446325340219962e-03 -3.203036167512013366e-02 -9.720240408732037929e-02 -2.945907435256193141e-01 9.204442771262678902e-03
-7.475755621243636122e-03 -5.376021246017998433e-03 -3.925344880975815964e-02 -1.521235634911030365e-01 -2.888323574346803868e-01 2.533457758635427118e-02
6.290104626482056691e-03 -1.467642652631379920e-02 -3.275583723545370807e-02 -1.333989713820310508e-01 -3.400115412212825761e-01 2.236233686198015741e-02
8.126219690719888034e-03 -1.320265560323743807e-02 -2.083050065682856555e-02 -1.230388975515069455e-01 -1.477534966971128516e-01 1.733071170869510125e-02
-8.510341756095798210e-03 -2.163161776413154505e-02 -4.044092803469352682e-02 -3.737287256031798788e-02 -1.520613795686865943e-01 -1.749355594863947691e-02
-1.022226442141747210e-02 4.481355157367621772e-03 -3.892194598575585140e-02 -1.768048550741650182e-01 -2.234168022649813679e-01 -2.364835515608049166e-02
1.238029875521072173e-03 -2.057316411439890497e-02 -4.010230021059599248e-02 -2.845350357612244641e-01 -1.770500801016040848e-01 -3.882430451755227926e-03
9.006434647173867242e-03 -1.745158446834921403e-03 -4.145725663505325786e-02 -3.242795585398609570e-01 -1.849745914490724397e-01 -4.171029405269675860e-02
1.315843849399668140e-03 1.125636986341166899e-02 -3.827486857903686368e-02 -2.553472327974627420e-01 -1.954528975374348332e-01 -3.678562367629732016e-02
-4.169258967692456887e-03 -7.968153472718756888e-03 -4.354080998037726524e-02 -1.834941446412456378e-01 -2.105849202568334522e-01 2.177821282518498103e-02
-3.096475725314071291e-04 -1.029692124256413946e-02 -4.021533620497064199e-02 -1.889318263047641000e-01 -1.597110644110706634e-01 1.287116755754046452e-02
-1.487482523327551820e-02 -1.544832573363890890e-02 -3.989446651994997539e-02 -2.169829264668542146e-01 -1.628513800664970479e-01 1.063717052674584100e-02
-7.073262153955426831e-03 -2.805277978818381500e-03 -3.824052223348758939e-02 -2.393234225828742290e-01 -9.110993042018913912e-02 3.678556539350887229e-03
-1.915770446439593253e-02 -1.889444507365297191e-02 -4.526103277663966196e-02 -3.744143916262551164e-01 -8.185722206793991096e-02 7.067173374475326127e-03
-3.441886866460575501e-03 -2.544354862667132927e-02 -4.581924189130634484e-02 -3.286584702003425562e-01 1.613015208848466234e-02 -2.756967943076721675e-02
2.588346936914877761e-03 -1.808597447196859040e-02 -3.782088697147147072e-02 -2.310622672912983899e-01 -6.996175822237554742e-02 -5.202235012461894730e-03
7.043228176083133653e-03 -1.626185091499393262e-02 -2.832001626669886085e-02 -1.822414491980967055e-01 -1.858086447694821258e-02 -2.493912731138462138e-02
-4.992193016635162670e-03 -1.750031618981384707e-02 -3.542958467413190315e-02 -2.933641926533320232e-01 -1.071668235532173691e-01 9.731640741311642015e-03
6.187397168361311300e-04 -2.096624168827469423e-02 -3.235426285970002813e-02 -2.845733436388014903e-01 -1.718757054255309613e-01 2.212476001726271027e-05
-9.283122269963628263e-04 -1.713140111474992233e-02 -3.507134761931912648e-02 -3.498127781418971516e-01 -2.871865895563938120e-01 1.344065842011408184e-02
5.811074921592244633e-03 -1.591894509596970819e-02 -4.171964322617652265e-02 -3.501065630455908462e-01 -3.990341280435835691e-01 -2.701064263749311436e-03
-2.998585169400352045e-03 -4.659877194701927960e-02 -3.791502003118213393e-02 -3.305025266197842426e-01 -3.822751022871384019e-01 1.045583052034226509e-02
-6.149046136135309648e-03 -2.886846864593664228e-02 -3.512189965676582037e-02 -2.882101088737572536e-01 -3.642282220503814116e-01 -2.293326698036883896e-02
-2.968159814009085906e-02 -4.575065752809796826e-02 -3.727760129776629128e-02 -2.241064410394454087e-01 -3.824279577183846146e-01 7.298037732253448689e-04
-1.251045774061658108e-02 -2.552090783442977073e-02 -3.769212545069723641e-02 -1.866684216939129559e-01 -3.531463944775400932e-01 -1.119652686421446913e-02
-8.621214697202436716e-03 -2.079325619379548268e-02 -3.701516465863551042e-02 -1.790855530940028695e-01 -3.489140428216465639e-01 -6.386315039531760725e-03
-2.279283577096076832e-02 -2.003446765100112478e-02 -3.896917039938882499e-02 -2.320519133926229605e-01 -3.866189068698554498e-01 -8.233786254111254924e-04
-1.556134557930081812e-02 -3.166006209020573448e-02 -4.678364191987585685e-02 -2.261156235948084681e-01 -5.354147261977127981e-01 -1.970746368966051418e-02
3.219524786598864903e-04 -1.970552363915419741e-02 -5.007068675809940583e-02 -3.210457219231750425e-01 -3.865748633161558701e-01 -2.941723351674829443e-02
-1.623787880217163887e-02 -9.534220609401582516e-03 -4.078887077608651934e-02 -3.763679661501330709e-01 -5.016508800312132754e-01 -5.649132848122991393e-03
-7.695268346155017744e-03 -3.584826986719337472e-02 -3.866250348596569908e-02 -2.994038511425718974e-01 -5.467590467266499887e-01 6.396747262595395452e-03
1.031221685987626126e-02 -1.504139104769012299e-03 -2.745294267168273128e-02 -1.735341701700392203e-01 -6.157715757725066297e-01 -2.361020656226998167e-04
1.507339578647822701e-03 -1.678117191287624779e-02 -3.120981506302869524e-02 -5.895088237717385077e-02 -6.836223498832039169e-01 2.861838787437500850e-03
5.205258905945796613e-03 -3.115586031173709497e-02 -3.451814189471620609e-02 -6.862027532633596660e-02 -6.726686860545345592e-01 2.786577829959548114e-02
-6.669116953376787345e-03 -2.446078531625087843e-02 -2.928692702831282857e-02 -8.225013040669597320e-02 -6.804508902159200900e-01 1.277380218824550502e-02
-1.033467918798161187e-03 -2.744636223182871787e-02 -3.235537320951384355e-02 -4.990566236000588962e-02 -6.747292431620252051e-01 4.445316268633860320e-03
-2.509842058646285286e-03 -1.844516273149591698e-02 -3.342865600740502208e-02 5.572101442893845347e-02 -6.816367240996981103e-01 -2.355957201488450767e-02
-2.592097799415138057e-02 -2.313804017635110594e-02 -3.182572800920918654e-02 3.693851826377546332e-02 -8.541866567373543884e-01 -4.084480826558796462e-02
-1.661424909219290369e-02 -3.089401473469834472e-02 -3.595386534060712735e-02 1.288261903384928797e-01 -5.010421224346173208e-01 -1.518352155509364136e-02
-4.354778929253386166e-03 -2.164656384673064454e-02 -3.353238800314972679e-02 7.645952098917595252e-02 -5.883962545894487750e-01 -3.204809797402610738e-02
-8.576640799807383475e-03 -2.332595101348303862e-02 -4.320949748488184250e-02 -1.333799280123471043e-01 -4.497044982553644044e-01 -2.390724282026148242e-02
-1.040046398821824723e-02 -2.536607683817816011e-02 -3.801033980397783285e-02 -6.790108305766355545e-02 -5.470921049772251576e-01 -2.470186463165296650e-02
-2.146777342418235146e-02 -1.671100298795821781e-02 -3.645352150601771646e-02 -1.112584531707166424e-01 -7.669848542911258393e-01 1.503762082236272547e-03
-1.631350962504005825e-02 -2.294244993026248874e-02 -3.339867198159518491e-02 -5.742253866302313853e-02 -9.763589197016058208e-01 1.385014468413419200e-02
-7.739917388695083736e-03 -2.088083316288365243e-02 -2.954305489322830991e-02 1.720528707114826056e-02 -1.082826156440197307e+00 1.257840564653232678e-03
