-1.563596269785124532e-02 2.298340082896626474e-02 -5.919406456780240688e-04 -1.108415293975718585e-01 1.048024178311358356e-01 1.251102959011718939e-02
-3.042520157881443976e-02 2.913517004699585702e-02 -1.759970546750228015e-03 -1.054248356752675170e-01 1.003710077463115108e-01 3.869459499753534482e-02
-2.202160639137546588e-02 3.309209550464396743e-02 -1.361605932782838924e-03 -1.082997564126595008e-01 1.087571647711865624e-01 2.584494977013273090e-02
-1.460479118364814595e-02 1.411676542343382086e-02 -4.834262648950371499e-03 -1.001666228208369508e-01 1.058423221432628486e-01 2.546837577255157969e-02
-3.075065110147807285e-02 3.165146362497250204e-02 -3.892007333833352734e-03 -1.048053631491041582e-01 1.012676174154093084e-01 4.135437505649338513e-02
-2.922864018360028793e-02 9.661554607541682910e-03 -2.520634857476222734e-03 -1.014540977796724586e-01 9.901095853778769940e-02 7.142748454410633233e-03
-2.878291561508601257e-02 1.329354373881568539e-02 -2.008150581702283777e-03 -1.020440513484190126e-01 1.034843043549643210e-01 2.859946575450033127e-02
-3.846391959365490915e-02 1.804056370905121956e-02 -2.134546729800679277e-03 -1.002255321314098890e-01 1.020211686107742183e-01 1.436336737420213644e-02
-2.632995594502246517e-02 3.330978470780086853e-02 -1.503687789631419358e-03 -1.027188105471849161e-01 9.855110041465853232e-02 4.022630054212104900e-02
-3.729851119638010609e-02 3.412333569557784996e-02 -1.798784159210420341e-03 -1.066343289098312941e-01 1.000952655065256575e-01 3.701433469724973307e-02
-3.072179992942279322e-02 4.653025144693536536e-03 -5.058135926827175832e-03 -1.289216242691108294e-01 1.050099742394728364e-01 2.168980325405842416e-02
-1.825779754514230552e-02 1.615781833769916118e-02 -5.137758680644255449e-03 -1.613220423549724947e-01 1.042570182968559911e-01 2.415920055710224154e-02
-2.776907777746922754e-02 2.386806259458173693e-02 -6.736551020791861633e-03 -1.765705449136223959e-01 1.106929221878307085e-01 3.633734650050396420e-02
-4.541560599472055371e-02 1.441064882311293358e-02 -7.445766020482996739e-03 -1.763922428373382589e-01 1.050919246987916111e-01 1.781661876504075925e-02
-1.297145192925894253e-02 3.191047977495329452e-02 -4.873026239935934756e-03 -1.899213354051700053e-01 1.138276224622222499e-01 5.406171869585912892e-02
-2.267128232091680101e-02 1.953048384922984743e-02 -5.721451560305304551e-03 -2.011873855095987762e-01 1.179119679328223119e-01 4.239464030367238317e-02
-2.655077040192685423e-02 -1.088438521622645851e-02 -6.479647809134889136e-03 -2.299373872723731449e-01 1.356075979561615907e-01 7.752088339915931200e-03
-3.272221080223686185e-02 6.861609122045291692e-03 -7.059848365635584821e-03 -2.976427635920581571e-01 1.366862563885503923e-01 3.977927278186792898e-02
-2.516317611440350641e-02 1.387530446225929311e-02 -7.343685117128267992e-03 -3.971183389312972767e-01 1.643043633822324767e-01 5.047381148884177299e-02
-3.272584177617434559e-02 -1.545963232108201087e-02 -1.277532500388954551e-02 -4.393028299156252481e-01 1.897978036265923485e-01 2.883719710920910201e-02
-3.373696969635026077e-02 -2.935373094871321538e-03 -1.510349221782927853e-02 -6.036797197196142051e-01 2.240495836621818060e-01 3.347608246120041542e-02
-4.562227978809350881e-02 2.341045718686152882e-02 -3.212858707239280021e-03 -1.002181603003321708e+00 9.948997633322194389e-02 2.186016524973996566e-02
-5.339741418576623988e-02 1.264093732465481137e-02 -7.502460251058815088e-03 -1.104671022441266581e+00 1.500906531843569092e-01 3.442399961942277375e-02
-4.666060323757329625e-02 1.055140778923978340e-02 -8.382295452260449253e-03 -1.103319852713723348e+00 1.630911998374053595e-01 4.795795656848369365e-03
-4.783780570092022177e-02 1.948285612091392232e-03 -1.353903497432396019e-02 -1.001229455226921194e+00 1.540365198111185441e-01 2.947792680221967155e-03
-4.352365893765634819e-02 3.754999257658804546e-02 -1.644707133239475816e-02 -8.191485576628689813e-01 1.607724802947295417e-01 3.377899269303124424e-02
-3.068813285436395449e-02 2.830796337706164775e-02 -1.921949463495491173e-02 -8.197126140429107366e-01 1.859462819596608696e-01 2.683314927237347505e-02
-5.071612208078346562e-02 2.831550603070494276e-02 -1.912376966867695982e-02 -1.078021805219669282e+00 2.303061285628587862e-01 1.703805957644248179e-02
-3.767369463594777423e-02 2.128993292731702278e-02 -2.792148562792967637e-02 -1.295326490252765916e+00 2.377650962397572787e-01 1.234565585137949000e-02
-5.085343179143076570e-02 4.555421863931759935e-03 1.052096684668879512e-03 -1.108242785168622069e+00 8.387953814532075544e-03 2.552627802824145725e-02
-5.273982684455122416e-02 -1.866258632922562430e-02 -1.055686565897175078e-02 -1.047067368593716186e+00 -5.717071561899927240e-02 -4.379066869288849272e-03
-6.961231889377636484e-02 -2.255959745911405648e-02 -1.444914793860588298e-02 -1.011854650278388057e+00 7.580633777305870527e-03 -5.590452031193407501e-02
-6.056350999371274552e-02 5.302713806678419073e-03 -1.531826881126652218e-02 -1.044434802067709889e+00 1.111971584023448978e-01 -1.636579432264991321e-02
-4.689887988424099041e-02 1.295934836839792575e-02 6.932333462212086905e-03 -6.906844084726662114e-01 2.834742188623183279e-01 4.550146005277500016e-02
-3.245936204374551964e-02 3.153995433402878405e-03 -4.942138812906560208e-03 -9.681575950687825172e-01 1.476048128731513587e-01 3.415510057525713433e-02
-3.318053326530094604e-02 1.834705420140658044e-02 -1.062227511798803647e-02 -1.078601232303745716e+00 -1.162172774133131588e-02 2.539784903470932234e-02
-2.179354768192267103e-02 9.490417306157940269e-03 -1.358570616906427941e-02 -9.966235780734884475e-01 -7.428302051693634611e-02 3.998833635586410834e-02
-4.714502883459389948e-02 -1.162787836756657431e-03 -1.500936592270740721e-03 -7.464225297098515677e-01 1.732686679446536759e-01 7.068578335133804229e-03
-4.851294382699925661e-02 -6.734152111713460724e-03 -1.673728013090232392e-02 -8.097477882524676263e-01 2.951947213517004953e-01 6.464542302263549464e-03
-5.090392800429435066e-02 -2.160761324633354505e-02 -2.259086206282560905e-02 -8.206074435001941003e-01 3.070041412306415141e-01 -2.087503524223719657e-03
-4.449027247998307150e-02 -4.716548395157734754e-03 -9.282098627994200823e-03 -7.031805148655384530e-01 1.460245567946505119e-01 3.607837597890633293e-03
-4.445924298028270522e-02 -2.613987476370896457e-02 -1.404891136851027511e-02 -6.159252067540689213e-01 2.972990138172210833e-02 -1.962747957612065441e-02
-2.829500728115086697e-02 -2.302543304589679818e-02 4.146868844893875083e-03 -8.213904755460642582e-01 2.067180064307984066e-01 -1.021320013457079415e-02
-4.307804204712193524e-02 -1.094916180260000101e-02 -2.039104045089779049e-03 -8.445291920988252654e-01 2.189299211339879314e-01 -1.565047890966102598e-02
-4.894719706221728472e-02 -2.913684280562893469e-02 -4.004107727355710189e-03 -5.162266322856149392e-01 3.151010220560392927e-01 -1.930831470092403065e-02
-4.421799702085798395e-02 -2.272107587589355590e-02 -4.692771828543718104e-03 -8.611406117640799662e-01 2.790839483433458224e-01 -1.050576548080849222e-02
-4.173163601593444377e-02 -3.814183547770960171e-03 2.852328562980593896e-03 -6.470005994589669296e-01 1.264531662062444162e-01 3.172934575069851632e-02
-5.636508349815903124e-02 -6.149033791042711299e-03 -1.542587892023861151e-02 -7.804768988546342268e-01 -1.362775166763380806e-02 3.237926716258926474e-02
-2.468110580959334902e-02 3.540495908552897947e-02 -1.673521300902998388e-02 -9.342243955004349010e-01 2.163682412267441957e-01 2.533092544920055589e-02
-4.937689268011866833e-02 2.892442957311339505e-02 -1.715817882638788483e-02 -7.297758775498400796e-01 1.204617202077182259e-01 2.603710549337811750e-02
-5.681972979195426543e-02 1.989405369384583677e-02 -1.671240977380480941e-02 -9.358098432997549176e-01 2.663540564629142127e-01 2.021775526401764500e-02
-4.775834889028524044e-02 1.567228201251229941e-02 -1.823521434395133922e-02 -9.672757908655623682e-01 1.418280419684234406e-01 -1.212137316557689026e-02
-3.416283636614542152e-02 1.500263198921557468e-02 -1.270303207404981094e-02 -7.781956761579612580e-01 1.271659996339108700e-01 -5.310993299067898882e-02
-4.042002461964030319e-02 1.086060470799772755e-02 -1.110799505261343689e-02 -1.017763252585311751e+00 2.234265058591340669e-01 -6.214435553349478836e-02
-3.492666599019041140e-02 1.987976792832037848e-02 -9.095598334521212691e-03 -5.442252497624094909e-01 2.449115206096432740e-01 -5.651189878061906209e-03
-4.671495199888976713e-02 5.678293101715456426e-03 -2.981323469521374170e-03 -5.877288925830317368e-01 2.001740535022185630e-01 -1.920026504203179926e-02
-4.155445775835110711e-02 8.687677532871529440e-03 -2.216662163900955107e-02 -8.133415459511650347e-01 3.595989751024286085e-01 -5.649509474171019591e-02
-4.184354654423025344e-02 8.622658645051422058e-03 -1.512992654864701858e-02 -7.983503473964339570e-01 5.033044897462833900e-01 -6.661946612292422853e-02
-3.472670842773263600e-02 8.567305010065863827e-03 6.021018125481447658e-03 -3.752406989976170837e-01 3.692188508983353934e-01 -5.204079210533645722e-02
-3.546861105984123325e-02 9.899893525350457468e-03 6.588579768176255902e-03 -2.783214963831774913e-01 6.423075880654025571e-01 -4.236680597820859095e-02
-6.144283994596812237e-02 -1.015043677174754834e-02 5.904574117288508006e-03 -2.312930546751695935e-03 8.634851039201612011e-01 -7.146915201219704306e-02
-5.861881939823215815e-02 1.186625111132562013e-02 9.023357020518041338e-03 5.185571863889906208e-01 8.142464058426198692e-01 -5.353228121219491542e-02
-7.686026844609621100e-02 3.813356223459387663e-03 2.475640450325000685e-03 5.177704273385470568e-01 9.145432152547415816e-01 -9.160577673625681927e-02
-1.049788704875976586e-01 4.336043761815634159e-04 2.848905873171547753e-03 2.906181208417563666e-01 8.508466137359463888e-01 -8.226923341313939486e-02
-8.677563906901117341e-02 8.913139556393204557e-03 -1.411920340072786439e-03 1.091378441360152255e-03 9.073245411466394073e-01 -5.462085457855859333e-02
-9.182864141071235553e-02 -7.895646345840619251e-03 -2.743881826601735074e-03 2.296059039992703610e-01 9.615205180939097040e-01 -7.498957294319556766e-02
-8.067934731027941175e-02 -2.675668539257914161e-02 -3.566930014391345161e-03 4.910123479470576147e-01 8.774283516228117419e-01 -4.395222762823508544e-02
-8.216028749323416036e-02 -3.245187231024965202e-02 -3.707053210746991123e-03 8.263197077495452181e-01 1.073380742385418252e+00 -8.773153989376747397e-02
-7.225827016351267507e-02 -5.597886594498616836e-03 -5.063754281451338102e-04 7.114692320825306560e-01 9.643971803942683607e-01 -4.200279001740729601e-02
-7.396842824351923529e-02 -1.896307014774609515e-02 1.846954510740017597e-03 6.044564805560441734e-01 5.972846872295994869e-01 -1.948410875919169560e-02
-9.088461224601986077e-02 -2.342767475609433200e-02 4.272023974380728673e-03 5.320509542819853444e-01 6.511445305974896680e-01 -3.840183089639807867e-02
-9.632506675542561181e-02 -1.598931534491265100e-02 -5.431605304701603298e-03 5.715683345534755544e-01 8.790855172223805969e-01 -4.635380376356920684e-02
-1.083344173353208706e-01 -1.287545986930993709e-02 -9.096140604356761639e-03 6.920788540685864909e-01 7.883286899538932690e-01 -5.277239581458582907e-02
-9.523085421537612338e-02 -1.772886569466625498e-02 -1.274840899491493096e-02 5.818153926837764667e-01 9.456044450784580890e-01 -2.426045567349112766e-02
-8.677767540896585974e-02 -2.969720815952281781e-02 -7.068160075126353470e-03 4.226161828841182300e-01 6.903542699667879479e-01 -6.100661187120774015e-02
-1.046676129316647663e-01 -5.633279059340290384e-02 -1.960429846806699405e-02 3.086178878980035400e-01 7.620275614646049300e-01 -4.652020514397159356e-02
-4.170483569392281764e-02 -3.969043964377721306e-02 -1.920705794321463100e-02 3.104470527140197611e-02 5.252334018112450043e-01 -5.689672862976961898e-02
-6.047990580452859005e-02 -6.326575423153543709e-02 -8.511961282547886309e-03 -1.002992255433888674e-01 5.580281999768555989e-01 -9.102081399759240354e-02
-4.293149338039105312e-02 -4.484270503968747212e-02 -1.187954667538730635e-02 2.319611964733337972e-01 7.901222418067722630e-01 -3.648779571000579369e-02
-5.197262592084381932e-02 -2.507043523207673485e-02 -9.652850263799916952e-03 2.614814308507021345e-01 8.126405822990684369e-01 -4.230500044426609152e-02
-4.202559601203748052e-02 -7.010217588733053118e-02 -7.888883959034809212e-03 2.264228702405096660e-01 8.284564662080667885e-01 -4.057063305504692713e-02
-3.024797507418272927e-02 -7.536746442165954962e-02 -1.542921471056904470e-02 2.761099181650563672e-01 8.325359257842346317e-01 -6.302632489108356273e-02
-2.685695378489766361e-02 -3.418520669947006790e-02 -1.472264705297317289e-02 3.351691183068934987e-01 8.983077219682377157e-01 1.241549595338676572e-02
-7.427988337202666436e-02 -6.100081357924148212e-02 -3.654508113732635177e-04 3.830748473813821997e-01 7.271187387815690739e-01 -5.195421027080326243e-03
-4.411847201014258008e-02 -8.342628009250703525e-02 -7.374180091499427103e-03 2.349554550796753016e-01 5.269580013268015950e-01 -1.542412986667121913e-02
-4.781400675032340675e-02 -5.525263197281895383e-02 -1.035541461061742496e-02 2.336326676564925986e-01 4.190960104054675117e-01 -5.705371668910907967e-02
-5.421631174458097641e-02 -4.593489223715745834e-02 -7.483079761334276991e-04 1.334594898436343435e-01 2.545354168093843517e-01 -3.179668679008151172e-02
-4.097500680562968234e-02 -3.084814952599009702e-02 -1.109111556145395139e-02 3.519523759093002302e-01 3.250866781816934004e-01 -2.660960349298196678e-02
-3.817688412773891093e-02 -2.930432299011516070e-02 -2.968316902061063356e-03 4.194716128747242312e-01 3.100152601132568075e-01 -2.379192757566670965e-02
-2.377238251723979082e-02 -3.785820212675240076e-02 -1.538301721692547641e-02 3.693897308997826645e-01 2.919252809050328357e-01 -1.110728963391887335e-02
-1.844608015496346232e-02 -3.997549056939304207e-02 -1.018271089479409752e-02 1.811251151519063796e-01 2.532101387614079102e-01 -2.623345872223917241e-03
-1.065223672713474026e-02 -5.887864678261846979e-02 -3.007165323388544254e-03 -5.319118653001292212e-03 3.362555533396704432e-01 -5.637094045926355646e-04
-5.734320675236602091e-03 -3.779989268157984972e-02 -2.332957378540140292e-03 -5.410799605695423842e-02 5.928306821959498235e-02 -4.821958655103743274e-03
8.056697845827985593e-03 -4.239054797486443288e-02 -2.101079088455748423e-03 -1.197805201930906005e-01 7.287763956757792316e-02 1.786773850590498910e-02
1.542882205545034052e-02 -3.802874498805270537e-02 -1.671824894101472947e-02 1.021651613861432745e-01 6.552187603863011967e-02 1.946792048141052570e-02
-3.990108250836977080e-03 -4.088471705115170191e-02 2.354287068018212636e-05 3.529307358308397119e-02 1.663576922862945451e-01 4.029399260091349848e-03
-3.733136801690748255e-03 -3.278477814103711308e-02 -8.154633399442431929e-03 -7.844040870883406402e-02 1.578230447290938643e-01 -5.137632123782450919e-03
-7.087993132034653074e-03 -3.903214209294676718e-02 3.798466254168575418e-03 -8.312061509620473354e-02 4.345291253982167673e-02 -5.728463583272284249e-02
1.289764877554419207e-03 -4.455223048087864762e-02 -1.342599550243789297e-02 -1.352007487043114520e-01 6.762554746856400123e-02 -5.671772277893351311e-02
-1.226417908236260464e-02 -3.105673719156914342e-02 -3.752067427871708105e-03 -1.550374588188666025e-01 -4.458659725214876579e-02 -1.587868212753700339e-02
-1.344240213094784371e-02 -3.782656307878332763e-02 4.939203579550771606e-03 -7.248719838602395160e-02 -7.615475195245372192e-04 -4.808843105289869850e-03
-2.780398479201162676e-02 -1.677647916764095706e-02 -1.015779041271575034e-02 -5.842547904505356743e-02 -3.634316886011479744e-03 1.953648405583814640e-02
-6.959222254041165642e-04 -3.130902817987280679e-02 -1.350413660447161157e-02 -9.257938705715501593e-02 1.379570789814245184e-02 -2.385834348175443903e-02
-6.414459305958140727e-03 -3.371420479270114019e-03 -6.172402339869126342e-03 -1.085790800541791418e-01 -6.536296233613091144e-02 1.010203361575679609e-02
-1.427234001596328766e-02 -3.914103172040212658e-02 -2.075973992498553189e-02 -1.038391806168866699e-01 -3.754209978028351380e-02 2.262679490615373754e-02
-5.930713937668660382e-03 -1.859956513660240840e-02 -1.081031227234592607e-02 -8.120300939131010198e-02 -5.626439862971868017e-02 2.434649389848148049e-02
-9.706523693274465500e-03 1.237347337143178926e-02 -7.153012780485981659e-03 -5.365312829968055947e-02 -7.217521468847400146e-02 2.582981167704446676e-02
-1.396881500623407130e-02 -3.144112573359850865e-02 -5.311687162376316218e-03 -5.970508424121687835e-02 -4.091438503760851109e-02 2.811217666112856770e-02
-1.342456488856166820e-03 -7.532257047228364116e-03 -5.312118207448146556e-03 -9.084507559754040340e-02 -6.582314925581109200e-02 2.270069118653605597e-02
1.308841715219333582e-02 -1.618925058256030086e-02 -6.488840591943073610e-03 -1.169287972505186762e-01 -9.335737819099224066e-02 -1.819519797417170487e-02
-9.928469584365873929e-03 -1.696315975052295477e-02 -3.024734575567927797e-03 -8.544135319307893939e-02 -9.962781150957865373e-02 -4.143962502231205575e-02
-2.703290402925997375e-03 -1.214777221501945476e-02 -2.432388712145211462e-03 -3.085806266420805175e-02 -7.201545265119264905e-02 -1.114688966784608409e-02
-1.236663406832444294e-02 -1.369970635072434093e-02 -4.104427786642633746e-03 1.071761946423687925e-02 -3.669321597232649140e-02 -1.620844685070539984e-02
-2.491850370396887955e-03 -2.127789381610323619e-02 -5.885661585999568679e-03 9.133527601893761186e-03 3.221266754629026341e-02 1.913988083517222452e-02
-2.600861097585462772e-02 -2.618737281950148446e-02 -1.266159541928309207e-02 4.105571286408740174e-03 2.786842775188558968e-02 1.381986674981466531e-02
-1.364582490921855025e-02 -2.707268451677974710e-02 -1.281172855170503722e-02 2.582655557863928683e-02 -1.172397898106352851e-02 -8.447796690965533525e-03
-9.332643235111593230e-03 -4.007012690236286950e-02 -2.017771691949499235e-04 3.654667464109691115e-03 -7.415717387460774024e-02 2.842808245745569867e-02
-5.820481571784379138e-03 -3.920192739576326690e-02 -4.107887261263543088e-03 4.234574853494031677e-02 -6.432056027170023060e-02 1.280482858836907989e-02
-7.436839819563622472e-03 -6.769481698644337631e-02 9.054001472441064458e-04 3.484655424655621475e-02 -6.710026166832311345e-02 5.036193237410455104e-02
1.021457679177072793e-03 -4.087920398556567358e-02 8.341269881731450120e-05 4.657843904169037957e-02 -3.228956415553767972e-02 1.744390494972838240e-02
8.843384374782577509e-03 -6.132520321702330385e-02 -3.382787831056333072e-04 2.400933289719697772e-02 1.922033944256862012e-02 1.907062721801501548e-02
-2.448788798833937612e-04 -7.220812297306875016e-02 -5.704430881759411931e-03 6.587861803693181861e-03 4.916228173843766730e-02 -2.679435370387514559e-02
-7.035105830095975295e-03 -4.488955183883523020e-02 -3.485218656892496991e-03 1.580287374808943528e-03 7.181013414145417939e-02 7.502257719378041534e-03
-2.367375908599833600e-02 -1.502504935876906346e-02 -5.897322625396259066e-03 1.138623147143387818e-02 5.921343732303037399e-02 1.062024468296363620e-02
-2.639529908255814489e-02 -5.734990332408737568e-02 -1.037378613882522504e-02 -1.066717979200517211e-02 7.392080515977787758e-02 -7.772992519644759350e-04
-2.883034605405617248e-02 -3.509220652840953220e-02 -1.166650357265228144e-02 -2.820705199221571619e-02 1.263430751828681919e-01 -2.699175888690103289e-02
-2.020682008946536948e-02 -6.764624641847036268e-02 -1.430916415107140460e-02 -2.481156752204692964e-02 2.420471195113714225e-01 -7.171987615023447948e-02
-2.897612453714017156e-02 -8.634065355310488465e-02 -2.040855352582572613e-02 -2.303418651873026177e-02 2.953546239159047793e-01 -3.394663563020585556e-02
-1.183645770980312414e-02 -3.907058658993421696e-02 -1.998263305236766540e-02 8.314539307625289088e-03 2.835518414184030611e-01 -4.660633533924297967e-03
-3.886369651220903526e-02 -6.573335119311671249e-02 -9.119997754603620388e-03 -3.911816273308994785e-02 2.986624969626934245e-01 -5.671313975517183054e-02
-2.763095481501671655e-02 -6.491950046543196184e-02 -1.507147381392268115e-02 -2.431500168764271635e-02 2.946874777705136284e-01 -9.336819488381369048e-02
-1.227427381556414274e-02 -5.046986716337081152e-02 -6.464852927396846916e-03 -4.248395742658125224e-02 2.776952841495148316e-01 -5.099377009862139654e-02
-2.184231553844060217e-02 -4.426213514337199589e-02 -6.233426097270386435e-03 -6.979427981858908614e-02 3.775267005126033970e-01 -6.964862676507699302e-02
-3.286033976141030516e-02 -4.695434767277131133e-02 -1.256293059839568016e-02 -9.968062233582661302e-02 4.288291479179691668e-01 -1.139541119200205080e-02
9.072106718817203597e-03 -4.298171864041587520e-02 -1.162246045411652329e-02 -9.568459826145442326e-02 5.032844305891310821e-01 -2.642741659130046217e-02
-2.375170947627358239e-02 -2.525299152854885640e-02 -1.482083313185221518e-02 -1.353369628703613714e-01 5.354283016751050228e-01 -4.587054191193733199e-02
-1.119172488801619368e-02 -4.561511052641217118e-02 -1.675563659034497166e-02 -2.066549271831985835e-01 4.401337404300377787e-01 -2.696955864496442326e-02
-3.120389208728525585e-02 -6.618465711681473240e-02 -8.688073752283989593e-03 -3.026818973173394101e-01 2.608750256283239310e-01 -5.420402609232237955e-03
-2.641980148046963947e-02 -6.368001741425506623e-02 -1.199068338647062137e-02 -2.337068882662327318e-01 3.456041051861429847e-01 2.783278735953244667e-02
-2.164492741048311755e-02 -5.562009999212218919e-02 -1.359360575907524182e-02 -1.825321160450037727e-01 5.219096800067607456e-01 4.458994651607813692e-03
-8.392368090732694672e-03 -7.236608964203712635e-02 -2.505690644404849621e-02 -1.665275210929181571e-01 7.027604318090859836e-01 3.888347024395492901e-02
-3.845602000514671687e-02 -5.448775783267729989e-02 -3.258746216403868301e-02 -2.001419711647169364e-01 7.259024140540435432e-01 5.177764820769095028e-02
-3.397195583462606777e-02 -4.512631476469706332e-02 -1.678481575868519260e-02 -2.291566578227915429e-01 4.675224986598022214e-01 6.216565639962914891e-02
-2.252840516908380386e-02 -1.088671141698603073e-01 -1.112502139241056121e-02 -2.051428858904545405e-01 1.377464421565356145e-01 7.813790566730872966e-02
-1.493928744462093370e-03 -1.472685615779572577e-01 -2.708130971796396391e-03 -1.557035436235712500e-01 -9.401539160933786166e-02 7.556734052754084108e-02
2.872292570436292200e-03 -1.348599570201580167e-01 -4.792869504262498026e-03 -1.514355656754619583e-01 -4.549163243757320396e-02 7.662069041187576091e-02
8.064711964619183590e-03 -1.181944115039110371e-01 -1.651033456691233803e-02 -1.142290573144115751e-01 2.615438844296283372e-01 3.188697230144776212e-02
-1.512712646397338170e-02 -1.045652061620417350e-01 -7.576499924205531977e-03 -4.905456229800529006e-02 6.032790321824100799e-01 1.000256284481913643e-01
2.284454728190676853e-02 -7.838223842901859140e-02 -3.390782850379001068e-02 -1.223828048985372979e-01 6.477000576791074327e-01 2.093782521207562808e-02
3.616539997435200965e-02 -1.075722662968186388e-01 -4.483909172444205948e-02 -3.749822967706918364e-01 5.996773168011474420e-01 7.636159434684941516e-02
2.368182573923696688e-02 -9.785028328422148980e-02 -1.004244269659713973e-02 -1.916279822147285983e-01 1.944053106513851381e-01 6.716692925197396968e-02
1.916194619751916337e-02 -5.870382410226919478e-02 -9.237150533505447680e-03 -2.273292856768871495e-02 1.488908659128331813e-01 6.260576972840824206e-02
-2.214562944758342086e-03 -7.746517297263495749e-02 -1.624648156964159096e-02 1.340412418155540464e-01 1.206748062587015974e-01 5.309988479731173050e-02
-8.624146057070434385e-03 -5.126514927942181499e-02 -1.762420822502794304e-02 1.366870956221205857e-01 3.052262015193776823e-02 -4.550161403428719387e-02
-2.165501236459363432e-02 -7.684363811726335758e-02 -2.290920175576430240e-02 -1.354546320466518648e-02 -9.985666049861538496e-02 -6.221839262783938895e-02
-3.219684461522951541e-02 -8.259614779628114689e-02 -2.263288368055120514e-02 -1.489046162444973009e-01 -1.984922565980655196e-01 -5.528761731798221418e-02
-1.414601410524550171e-02 -7.580200446155660465e-02 -2.554204366641839308e-02 -1.230631460567326030e-01 -3.241587145790517099e-01 -6.487621120355218686e-03
2.556405079531099030e-03 -8.958090559841969114e-02 -2.370607953449174743e-02 8.854745905394251562e-03 -4.255944196306584715e-01 -1.299930310996453772e-02
2.442000676240270798e-02 -9.352438349461243694e-02 -5.074623740699404917e-03 -9.114170098300870826e-02 -6.339078023205914070e-01 -6.586467279169602729e-02
1.725646766868408136e-02 -9.180168125347834551e-02 -1.037841851148030292e-02 -2.360055090388556431e-01 -8.417618077529558374e-01 -4.834631860779223245e-02
9.967770757566864204e-04 -9.951518711744611334e-02 -6.623390155958641667e-03 -3.060749171778827660e-01 -9.886037492950160432e-01 -8.162682146186200915e-02
6.296842380543250101e-03 -9.039492811046913323e-02 -9.170555511248013048e-03 -3.164102685079188682e-01 -1.089106876866766216e+00 -9.289933279896443741e-02
2.122097679808597134e-02 -5.955149294555533296e-02 -8.269720543937070234e-03 -3.363332100177350292e-01 -1.146866082644655060e+00 -7.522277668170465614e-02
-1.082389474408902534e-02 -5.295135211324691199e-02 -3.480704495795461373e-03 -3.679075520472897542e-01 -1.282354618318462647e+00 -8.016452008680177710e-02
6.122514301671937338e-03 -4.910955296195257391e-02 -3.203890349924853886e-03 -3.795856035470863699e-01 -1.431212589323655582e+00 -9.845299266565915586e-02
9.035600151481726003e-03 -7.165773206996797762e-02 8.078297468163631034e-03 -4.231563513837737212e-01 -1.594268087044675042e+00 -6.114757185051505894e-02
2.669462141817947193e-02 -5.137870026725407935e-02 2.409739583889672354e-02 -3.636849580553223604e-01 -1.887328710636760221e+00 -7.429797577566565024e-03
1.919709324216315946e-02 -6.967076801117820517e-02 2.074663888670333356e-02 -3.699414838958636764e-01 -1.914869723830568971e+00 5.487858438544991092e-03
3.043702813007778674e-02 -8.982562483141272314e-02 2.445075226160337012e-02 -3.687892945341768591e-01 -1.840610649044339686e+00 -2.763365026161279138e-03
1.816302948667303241e-02 -8.933510516877107843e-02 7.792156346091233532e-03 -3.476085725443400221e-01 -1.743573353373832457e+00 6.085120611341492125e-02
3.031926498750404583e-02 -1.194896214018582176e-01 3.334765154496821538e-03 -3.730137206097782765e-01 -1.593188906193407473e+00 1.212641723488312728e-02
9.490783895280182486e-03 -1.075765411720805420e-01 4.211719630024313155e-03 -4.112878860791382429e-01 -1.442461503886778962e+00 4.959515750604296530e-02
6.084150997749268597e-03 -1.056942864075432753e-01 -2.069971964230143957e-03 -2.783321576543212883e-01 -1.334593686780024102e+00 1.183167548523098370e-02
-2.223595168780358872e-02 -1.342337427619283430e-01 -1.570063990604307624e-02 -2.494184811265615920e-01 -1.107577057278673616e+00 4.745831275645352038e-02
-8.799894658847829537e-03 -1.010615782046388744e-01 -2.573581573825056701e-02 -1.281297362456373101e-01 -8.936568193707038477e-01 2.950326672136681892e-03
-2.122545161474072295e-02 -1.183479065003854025e-01 -2.557403607805970591e-02 -9.859254978052860163e-02 -6.953069939956065815e-01 4.211368086104751857e-02
-2.131251073027610674e-02 -1.283204314617259478e-01 -3.385732474176163243e-02 -1.652067197125877407e-01 -5.011102961907787368e-01 3.163498908865226833e-02
-3.002473682333874419e-02 -1.213907084403180459e-01 -2.850882441360111375e-02 -2.057109730293645578e-01 -2.625804049158274034e-01 8.352715719293211938e-03
-2.374688905829963961e-02 -1.605404811678063925e-01 -4.880669267066009565e-02 -1.696651532489595327e-01 -8.386510226421281522e-02 -4.339038067641831295e-03
-6.617731118235991271e-03 -1.365395020128271630e-01 -5.959035428331355133e-02 -3.481331462354623763e-01 -1.054040432424551837e-01 -5.542692431403437037e-02
3.333500273853504635e-03 -9.563603528725803105e-02 -5.328588367720454855e-02 -4.727025634965426049e-01 -1.674713586754975614e-01 -9.719659563699055427e-02
1.049625546755900835e-02 -7.013688962423224316e-02 -5.231003538550824117e-02 -4.722315688540487666e-01 -1.903830029867861762e-01 -1.206901509547283757e-01
1.592318658597169714e-02 -2.823048266247575253e-02 -4.276529583969926329e-02 -3.228767475376276841e-01 -1.434239943007405427e-01 -1.626724055169004590e-01
-4.036595390405632762e-05 -1.482530114317713197e-04 -4.619513215930456940e-02 -2.748323657231329098e-01 -9.604471030911609919e-02 -1.924627005949916259e-01
-4.301882530137922205e-03 -2.766605697299443639e-02 -5.209088983926903060e-02 -3.801965313008667247e-01 -1.027637691543477755e-01 -1.660439062685048484e-01
-8.114153542621883874e-03 -3.071296717182325515e-03 -4.536515657139930657e-02 -4.475781304115089565e-01 -1.503425129175048613e-01 -1.435583476916933166e-01
-1.798469596388288516e-02 -8.625088680575957942e-03 -2.313304228303034171e-02 -3.501408982907865952e-01 -3.690772085160191063e-01 -9.006426548188641024e-02
-2.153785886466350746e-02 4.311825747828876287e-02 -3.530407178807967727e-02 -4.718071746785119647e-01 -6.064192402257690961e-01 -7.991029477836505968e-02
-1.300783375124707313e-02 6.990926542208600325e-02 -2.532655419410778652e-03 -4.321499774073667699e-01 -7.242820953748279056e-01 -6.782582872556429388e-02
-8.752216219488349099e-04 1.571202848343182870e-02 1.315740488535582786e-03 -2.131744684486807651e-01 -8.659254799239912703e-01 -4.532973751039832272e-02
-1.147147030934688589e-02 -5.371873958014997293e-03 2.951978021793338902e-03 -1.808886008583677485e-01 -1.056186324931498444e+00 -2.510827746179796274e-02
-2.289197085207717031e-02 4.506257728321515568e-03 -5.587772518143296896e-03 -2.764213463804759408e-01 -1.106765966987623528e+00 -5.015311683234184581e-02
-1.966293179118086543e-02 -6.561921115552293848e-02 -1.128269774937147585e-02 -2.559854699249037857e-01 -1.066229738650152470e+00 -1.344968284081739414e-02
-1.480133600790846382e-02 -6.299014322900860219e-02 -3.300748217820753672e-03 -3.518914159420380994e-01 -1.043313799021117427e+00 -2.083926350888577403e-02
-2.436351545812366626e-02 -6.188168463078053128e-02 -5.318827977889351022e-03 -2.552610903298048739e-01 -1.002702501215589681e+00 -6.333168990827536468e-04
-3.078009929329095576e-02 -5.485932444603660446e-02 -4.535475176975750644e-03 -1.691863103373582866e-01 -9.244764487409788956e-01 1.892641094233899965e-02
-3.421960323156552491e-02 -1.656186938320810403e-02 -1.187460835221149091e-02 -1.317657029201143581e-01 -8.418072944767819310e-01 -2.263515208429148565e-02
-1.381024269053278408e-02 -3.846996940822731276e-02 -1.371561745946245359e-02 -1.482131895200984040e-01 -8.554876675460180158e-01 1.868274695552006939e-02
-1.674605392227064907e-02 -3.969858872518158138e-02 -1.698488755805192818e-02 4.853935080169002707e-03 -6.952083099906806174e-01 -1.295703215160367086e-02
-1.958979863006878736e-02 -3.876173629573343576e-02 -2.477262828348897328e-03 4.251500281673313564e-02 -3.745226477436883750e-01 -2.391767740906071416e-02
4.125194174750658818e-03 -5.611730907148518299e-02 -3.422091245442004936e-02 -6.323528243892125866e-01 -2.049953215159969477e-01 -5.983210628119855698e-03
-1.309587606028746187e-02 -3.930561922434697847e-02 -4.794271060879852497e-02 -1.026154507158941964e+00 -1.601476298554348754e-01 -6.755960822997152115e-02
-1.371570067375049717e-02 -8.887975035620164499e-02 -5.782496812231557870e-03 -1.873934666572857344e-01 -1.488580043191160274e-01 -4.495571245796674276e-02
-2.331929044944957771e-02 -6.072093977853097735e-02 -1.242768868129380533e-02 1.121453753955928417e-01 -1.687884093396500584e-01 -7.134903525954640335e-02
-1.942236286439625106e-02 -9.681165203406315312e-02 -2.721409380046435622e-02 -7.595996597884425994e-02 -2.745828687231627874e-01 -7.759048219894788823e-02
-3.044440317175163210e-02 -6.303501747479846318e-02 -3.088244613705523611e-02 -1.263747368991957609e-01 -3.728620747814940239e-01 -7.565422757605969051e-02
-4.018456351688501349e-02 -3.635133452823524625e-02 -2.762915888404147979e-02 -5.488651210225827665e-02 -4.419885540214065212e-01 -4.188872231617832981e-02
-4.115442112817399578e-02 -5.667120058156752821e-02 -2.926622523788442731e-02 3.526232273837675863e-03 -3.626129977526320602e-01 -2.253782870125081716e-02
-4.249403275347830161e-02 -4.876327693065935637e-02 -3.395451165259502635e-02 -1.918442579236570300e-01 -1.478769090577191359e-01 -4.560798674551509724e-02
-2.054232283293331435e-02 -4.439578093434726203e-02 -3.078198444397850508e-02 -4.954370224311551579e-02 -1.531129566308843115e-01 -2.362647755116823248e-02
9.614023811330683379e-05 -6.707405115227080272e-02 -2.284159454810955059e-02 9.129124698597865240e-02 -1.881489030810987728e-01 -5.661154105305256368e-02
-2.583385293602300133e-03 -4.798968384715396329e-02 -2.770226271661217765e-02 8.184536373866600767e-02 -2.909420251684592396e-01 -3.917076817501722458e-02
-5.236361777519868942e-03 -4.704228311658768119e-02 -3.578660495580739120e-02 -1.306196926467436681e-01 -3.977624871008011431e-01 -3.903165763340221694e-02
-8.811343096823817320e-03 -5.696633694667475184e-02 -4.703935282376714433e-02 -1.820434258497559687e-01 -2.688843666666677623e-01 -4.711839644940698374e-02
-1.639470297042774222e-02 -2.629982189622148692e-02 -4.830809242006134374e-02 -1.050582943484953090e-02 -1.036212905675269469e-01 -6.650801613982516847e-02
-2.611832386398933378e-02 -9.908521309838252966e-02 -4.977864150445172886e-02 9.820650272529619917e-02 1.304271169517584039e-01 -4.623773680601578340e-02
-3.973646039814504594e-02 -9.564986945228316773e-02 -5.264738776869878900e-02 5.906202839502979612e-02 2.155981607084780094e-01 -7.012616048466652208e-02
-4.155685631306632599e-02 -1.075521111697407134e-01 -5.061677713590834182e-02 -1.307329031223416482e-01 3.271329264249809854e-01 -7.276242950908147489e-02
-5.307137781006944499e-02 -1.091261028935691657e-01 -5.451499608173106248e-02 3.261178450397746870e-02 3.276110527144486806e-01 -1.387138721593469612e-02
-3.006296495372601935e-02 -8.298349540958166459e-02 -5.089332406010127485e-02 5.724223035317320407e-02 4.604516545823354456e-01 -4.739334486379561534e-02
-2.807191720137457852e-02 -8.972987402653495592e-02 -5.745083774855766490e-02 -9.805955783800508752e-02 4.329902347367239890e-01 -9.713244182938790203e-03
-3.541028464346152732e-02 -1.133343946901895494e-01 -5.590163295589559156e-02 -4.043625303107399767e-03 3.444348632560570445e-01 -2.773946750129199085e-02
-3.272694690644826349e-02 -7.525077367443887277e-02 -3.740915981902799559e-02 1.987624138644894789e-01 3.532479172812312274e-01 -4.353420541768262403e-02
-5.464635702002708373e-02 -8.641027816306090514e-02 -4.086497864547218584e-02 1.649562750903450087e-02 1.005105666741457210e-01 -4.749171632652159081e-02
-4.673997155225415728e-02 -9.487756030038498045e-02 -1.227415326664463291e-02 -1.176258378501505719e-01 -2.145243735450917955e-01 7.507419579573932668e-03
-3.676420555991943145e-02 -7.744659943114499956e-02 -2.440919912685313165e-02 2.322556429452268117e-02 -2.462923151556379309e-01 -4.266201074349844358e-02
-4.089909747132017270e-02 -8.105475048917040737e-02 -1.919456317353218644e-02 1.245312920612141536e-02 -2.265884651405571104e-01 -5.311805518480439831e-02
-3.344520407306099397e-02 -6.392808908672319157e-02 -1.239536197813310980e-02 -1.697576916371906219e-01 -2.403138173598394212e-01 -3.726154252898026403e-02
-4.242019841907541250e-02 1.402531549541093450e-03 -1.946148509599626708e-02 -3.017334659537022623e-01 -4.348059869274846223e-01 -2.920654904536432520e-02
-4.866924145589207606e-02 -3.543940483821153564e-02 -8.042530482432752592e-05 -3.163746028074980177e-01 -6.945027029050364620e-01 -4.301580619649500448e-02
-4.134668929275779614e-02 -2.681225039210070535e-02 1.379750729468443016e-03 -2.114683433862675765e-01 -7.324109221215338028e-01 -4.426708596135572882e-02
-7.560308271226147403e-02 -5.614122960635055393e-02 6.480584186874638331e-03 -1.713885176778421060e-01 -7.162595060451322215e-01 -5.095304747204792289e-02
-3.817374641280744940e-02 -8.899007612107344423e-02 2.299201328066630134e-03 -3.742814793127587913e-01 -6.094246738490195492e-01 -2.380315294860410602e-02
-1.871678761686751749e-02 -5.646684961147408616e-02 -4.002235516822494343e-03 -2.705779190030831449e-01 -4.974704559074230592e-01 -3.514999745187329366e-03
-4.499061870077967346e-02 -5.932905052928835743e-02 -5.394328670146220084e-03 -2.076562374069085559e-01 -4.041758671993276320e-01 -2.415406049536159006e-02
-4.817135769643780818e-02 -8.236977225172700812e-02 -1.348399494711742530e-02 -3.548618253182325155e-01 -4.014475747685269935e-01 -4.257916189388113309e-02
-5.736323992258859222e-02 -1.860708504461396767e-02 -8.142896132809496201e-05 -3.046951368303138508e-01 -6.228825928072735385e-01 -7.998182491649516446e-02
-5.641287376986442448e-02 -3.320304053028565097e-03 6.038666392289365747e-03 -1.944335513038349672e-01 -6.051049067047816754e-01 -7.480378063963051549e-02
-4.571127104501164495e-02 -1.491291229953600576e-02 -7.345253340414192866e-04 -1.098980046099200109e-01 -2.876882845387982446e-01 -5.681043369465112874e-02
-4.551311724937609493e-02 -8.262603585554102736e-02 -3.803861064146984994e-03 -9.184452721319527613e-03 -1.028172647520345512e-01 -6.666031018333408442e-02
-3.831072360199939270e-02 -9.162728089287081046e-02 -1.673279199309850307e-02 -5.925746774158328553e-03 5.942499320254005651e-02 -7.280356947916451216e-02
-1.827266275354070407e-02 -8.455628765225432775e-02 -1.592884556050078171e-02 8.565309818850044832e-02 1.289833703514575713e-01 -5.522986847561831003e-02
-4.233311340292302688e-02 -7.746449146758585536e-02 -2.768572542610420184e-02 1.237394093679835133e-01 2.533014739230300960e-01 -6.608003175651354366e-02
-3.469170554857305827e-02 -7.854280055529645754e-02 -3.917240586493168919e-02 1.499630811023394961e-01 2.627624814872475123e-01 -6.529954007529983895e-02
-1.386034166422024302e-02 -7.901946924859573618e-02 -2.319375851381638709e-02 1.291675190125320949e-01 3.002306332069390460e-01 -4.182078034437489850e-02
-2.909621148496179324e-02 -5.796030774097895438e-02 -2.569316432686376273e-02 2.565413923808481100e-01 4.401181326404347560e-01 -3.771931587662188251e-02
-1.887943046441704562e-02 -5.041062719738573228e-02 -4.046356376237381092e-02 3.312040599620845460e-02 6.871302805347544451e-01 -1.865901625686254561e-02
-1.079226915029999831e-02 -3.530757578347595155e-02 -3.718629743428578105e-02 -2.527351529079739367e-01 7.559163789788813093e-01 -2.666965195149029882e-02
-3.366393918268781836e-03 -7.196764633871327588e-02 -4.242427181133956449e-02 -8.947915071816536087e-03 7.233922991868090291e-01 5.676559508847597857e-02
2.855403512426689036e-03 -8.789368461713749359e-02 -3.509685763337394571e-02 5.256024026556258694e-02 7.277801982461407082e-01 6.525924671407845774e-03
7.418545424639430737e-03 -8.575761767033308891e-02 -3.948303773502226388e-02 -6.951009504324509591e-02 6.609768345776947385e-01 -5.366925879396771857e-05
-3.110471820093402978e-03 -6.854898731375486109e-02 -3.595038915149284531e-02 4.803443205289064516e-02 4.987777264288741907e-01 1.532366606530101948e-02
-6.356400430789208023e-03 -7.824212427321237950e-02 -3.271352190508097779e-02 3.687243190069606352e-02 4.975973568475376974e-01 7.174321462704314097e-03
-8.104654364741514100e-03 -7.132902091820719770e-02 -3.416641597569120004e-02 -5.359694999204597105e-02 6.403887702153613359e-01 6.170550539035355754e-03
-5.961667498879821489e-03 -7.250618219699569988e-02 -4.056706811266141965e-02 -1.550807590675243319e-01 7.734071377178243223e-01 7.218019414066409629e-03
-4.063862141593180266e-02 -1.024729377684592546e-01 -4.270537469680393827e-02 -2.515027528108428334e-01 6.402285467633922478e-01 -3.235239822589689590e-02
-4.813263297155583736e-02 -6.225041397046190972e-02 -3.037832710783280876e-02 -2.507842820975929587e-01 5.634785696059930737e-01 -2.263706623813480090e-02
-6.796765685251737743e-02 -3.947252453484041690e-02 -3.768814250808955046e-02 -1.763341393252381151e-01 5.577596614478457226e-01 -7.289644842410052811e-03
-5.090108066135572845e-02 -7.034248709951304579e-02 -2.850865182865661152e-02 -2.666932332983658060e-01 4.231813083558152444e-01 1.097374059042186857e-02
-2.872358976306275957e-02 -5.194876299473271536e-02 -2.226936096180165414e-02 -4.203990515829158503e-01 3.230178432690025692e-01 -1.644213882809476834e-02
-3.321179149202424519e-02 -1.135364276679271395e-01 -3.150106347785064376e-02 -3.906655136494854297e-01 3.579088700337355600e-01 -2.860638910440966784e-02
-2.786481410917816814e-02 -2.093983868963869566e-02 -2.364083768130517682e-02 -2.569901688158071629e-01 5.160936399158033705e-01 2.414661981406693303e-02
-2.219558158862333999e-02 -1.276334128238446400e-02 -2.971517770000517422e-02 -2.106682844364748119e-01 5.952549870857100078e-01 -1.957196985114383753e-02
-3.168311079670331487e-02 -7.839155535743067005e-02 -4.656118652319875262e-02 -2.077808093774708709e-01 5.897758862576228944e-01 -2.704916272540276723e-02
-3.583499763352346323e-02 -7.082216394756839228e-02 -5.059968429563610481e-02 -1.138757121906320696e-01 8.428921628537856536e-01 -1.972627249830929616e-02
-2.270740224737087878e-02 -2.433020138291971252e-02 -4.644749437881037779e-02 -4.737455820834817616e-02 7.858295038840436009e-01 -3.747913063717053794e-02
-1.692612666670121474e-02 -4.557327279958452160e-02 -2.850389346779963473e-02 -1.438425229167643316e-01 4.596756142402301792e-01 -4.591643946119136621e-02
-8.470644458483890873e-03 -7.637025125211555077e-02 -4.154451291444878624e-02 -5.810369055631554591e-01 1.181911498912656538e-01 -3.258185484745382970e-02
-2.508611276856081984e-02 -1.161416233584756513e-01 -8.591298077708656167e-03 -1.698679730826455070e-01 -5.831371428131947032e-02 -8.155761821332270511e-02
-1.748487415256707103e-02 -9.953488385649292280e-02 -9.701065913056763912e-03 1.111219366079752857e-01 5.129540434037153235e-02 -4.682603747144573753e-02
-1.675706736210627601e-02 -1.076345268367163155e-01 -3.120807876428752237e-02 -2.061737615418120784e-01 1.026973403272278540e-01 -6.226053157524693432e-02
2.820269770442422781e-03 -9.616051250071425138e-02 -3.066916236356384551e-02 -2.230764683425787431e-01 5.853010854644417199e-02 1.444493250986007837e-02
-1.564889332840038814e-03 -7.417331223682059604e-02 -2.855733715501260206e-02 -1.430408370435129750e-01 -1.035945954484006337e-01 2.324423091222081392e-02
1.995461149593045005e-03 -8.021545757808704047e-02 -1.332283745213554138e-02 -1.947665401697542542e-01 -2.179214679864231174e-01 1.319452884923619056e-02
-2.082303636552696249e-02 -7.653724359453410730e-02 -2.109110260681570925e-02 -2.356817049768505645e-01 -3.748868155337974906e-01 -5.681629671974956775e-02
-1.825972140825498150e-02 -6.751942709202488069e-02 -9.562610900835058492e-03 -1.370531010490683155e-01 -4.175561112904473404e-01 2.697544105456038330e-02
-1.982733626434569994e-03 -8.454734706795506705e-02 -1.493970357835808227e-02 -1.611469591406246293e-01 -2.751577963149658412e-01 5.817340388044747040e-02
-1.593971508866223047e-02 -1.025293874538723421e-01 -3.194908719408301456e-02 -1.765496071016400270e-01 -1.425772177056215673e-01 4.124319392499728454e-02
-5.192744862245672437e-03 -1.291907122432810195e-01 -2.159400578015446825e-02 -3.341416170250809947e-01 -2.357346946640650198e-01 3.881341765747616662e-02
-1.360093835038846295e-02 -1.372230553413893717e-01 -8.179841064809290074e-03 -2.258366392537834028e-02 -3.820977033154911440e-01 4.568131111871296529e-02
-3.376290080750945100e-04 -1.123346644414002088e-01 -4.691376072990194324e-03 3.037606133701697964e-01 -5.652463542964168974e-01 7.413046301769975199e-02
-1.124435680228464546e-02 -7.518228541204390047e-02 1.250244766039779187e-02 9.956467832659068318e-01 -7.587743766691169567e-01 1.081667934961685479e-01
9.659896215940239061e-03 -1.010717757771387310e-01 1.340554385804032522e-02 7.759159746702515292e-01 -8.305846707303905507e-01 4.853515534514600549e-02
1.234165109198520800e-02 -1.044339368648300598e-01 1.082140214955840118e-03 7.764389521640927549e-01 -7.556816553809491133e-01 2.655354318863619931e-02
4.141870618929930498e-02 -1.059761525969385859e-01 -1.225244839714295653e-02 5.625093420049978032e-01 -3.071923835134146574e-01 6.361311396330295020e-02
6.380095680511416005e-03 -8.538809789002803352e-02 6.086598293410516725e-04 8.034858123761338122e-01 3.501702741702746036e-02 2.491949938299812400e-02
-5.762893793339459066e-03 -2.210040747536907643e-02 -1.877291358470399574e-02 7.181347468953884761e-01 2.513116542714003976e-01 6.519486333760877994e-02
-2.144883338127745800e-02 3.232158638309654691e-02 -1.385714996717418712e-02 7.802111917082505954e-01 3.549086463236613143e-01 1.296927014860066174e-01
-3.583273201466853283e-03 -1.045396200145818320e-02 -1.900142584872513418e-02 8.765230655831817153e-01 5.240391348044517450e-01 4.585260017678192968e-02
3.917325749002684848e-02 -3.013813763782254712e-02 -2.032038113888920416e-02 9.410660590868662467e-01 5.012720099686819308e-01 2.501251581801845758e-02
1.885964790464602497e-02 -2.658550052923639405e-03 -2.338227288155514394e-02 9.522665758435970851e-01 3.942944107596136338e-01 3.605236564272463334e-02
4.005998088219895475e-02 -8.648122326834475904e-02 -2.849847965286805840e-02 7.494597564011986623e-01 2.065452663542746148e-01 3.065813714451832636e-02
1.634678740456842888e-02 -1.001901120903163495e-01 -9.983124896180875507e-03 7.126358730998028079e-01 -1.490885328828922274e-01 -4.625178393280728051e-02
1.972536555003100156e-02 -7.811703452594220831e-02 2.286208974195402810e-04 4.785301751958850880e-01 -4.341473916378384423e-01 -1.205976995520373352e-02
9.279473035343849263e-03 -9.881317173463988190e-02 -3.105555572310625401e-03 3.342720822103423250e-01 -5.040227760260171941e-01 -1.539715386207263399e-02
-1.676044569873920073e-02 -7.105198012252667006e-02 7.799016354738064205e-03 3.757601828867568883e-01 -5.377159100434804051e-01 1.620499944152500394e-03
-3.770835048706198955e-02 -6.395774199061389498e-02 6.275423356039477873e-03 4.610340376819435648e-01 -6.043270891848068205e-01 -5.731643579871041616e-02
-4.674476749060722108e-02 -6.670723145145507349e-02 1.611362528133847283e-03 5.623299603013222070e-01 -6.868015051359662726e-01 -9.477019594282965875e-05
-4.310936884414097447e-02 -6.371941311827954146e-02 1.291595782466301023e-02 7.361252308936856448e-01 -8.996378900787120880e-01 2.697166477929617209e-02
-4.369894779303593740e-02 -7.237867451360888160e-02 1.746913058619711800e-02 5.753539254939344927e-01 -1.252610620624659887e+00 1.455174528210972651e-01
1.613644579003567503e-02 -6.671511068222263363e-02 1.111777588102746961e-02 4.178770052007973468e-01 -1.498882629409948875e+00 1.275082889733929192e-01
-2.110948797696071688e-02 -7.462338343334964930e-02 4.501346339507084071e-02 4.953604373029636410e-01 -1.309714656759199958e+00 1.100415779251246035e-01
-1.488639298962423849e-02 -1.267266039826574486e-01 4.658054066521341574e-02 7.245980467976772532e-01 -9.960583354339003215e-01 1.230734932944387294e-01
-5.077651626567959925e-04 -9.539484355028864104e-02 3.230137972026442261e-02 1.043460500750388764e+00 -4.262631781655638608e-01 1.084977771327202412e-01
-1.138018365038042084e-03 -1.012835811574697431e-01 -4.306131773163773824e-03 7.168897846650020833e-01 -1.247019666333740451e-01 1.056841917166626704e-01
5.007741021420128273e-03 -1.351818454020960181e-01 -3.389038484556766706e-03 2.449339504123582700e-01 -2.957991533828782660e-01 4.645068308277110203e-02
-9.383068267400814649e-03 -1.062507659672475846e-01 1.274455054941125987e-02 3.581860661373261756e-01 -5.397516942029245701e-01 -3.590880336294365732e-02
-2.003864876108253645e-02 -4.791269788105102095e-02 1.237669287863032985e-02 2.064429675589624646e-01 -5.761207053350849705e-01 3.391390178567980224e-02
-3.061439239625416558e-02 -7.432802824459791569e-02 3.172640999929032812e-03 3.922539740052921609e-01 -4.091274009558864555e-01 2.843252833792050613e-02
-2.268546253753417341e-02 -7.694421137757848084e-02 2.587215924447161530e-03 6.792236455029199149e-01 -2.763840050529772219e-01 3.797080061638909154e-02
-4.474685521496295920e-02 -7.837740710222725060e-02 1.124332667278082898e-02 6.364200179245225186e-01 -2.357174974865073325e-01 2.401696616973083773e-02
