-7.181014018807049988e-03 3.752902420513234971e-02 -1.293864874648298358e-02 8.876171896857876220e-02 5.140287668091404749e-02 -3.051264237644918213e-03
-1.855965558469762147e-02 2.814543416395846528e-02 -1.451201573656760169e-02 8.439065688482502714e-02 5.089361920959063063e-02 -2.952080727040757614e-03
-2.438804533891461915e-02 3.776932035064625715e-02 -1.341829437549012238e-02 8.923615258710425324e-02 3.545429281919372511e-02 -1.004675158858624184e-02
-2.340972026011158350e-02 4.605697990912813178e-02 -1.481854352443946754e-02 9.530353080008963085e-02 3.400169093378319074e-02 2.372057678674171013e-03
-2.442845006074499323e-02 3.565557154338622192e-02 -1.713564967347129542e-02 9.203679362335161207e-02 4.405276041928310460e-02 -1.849600469124415818e-03
-2.524076958619658403e-02 2.042425580826192841e-02 -1.529514074360271980e-02 8.896748861587132351e-02 4.748935074756304581e-02 3.708035459997303419e-03
-1.551980470686244000e-02 2.064451983460057621e-02 -1.674522859576466072e-02 9.145986144741713453e-02 3.627718443085214961e-02 1.265656769504732923e-02
-1.805584439045133938e-02 2.418991313042251692e-02 -1.542697756230022865e-02 9.235778427555872694e-02 2.125809636140879588e-02 -1.700092203784498920e-02
-4.539130711520906157e-03 1.901202401412423540e-02 -8.767235216632335293e-03 1.686450535473249523e-01 3.270009230213533069e-02 1.388131480086062484e-02
-2.008089350450228527e-03 1.189572132546528639e-02 -1.206953785265743595e-02 1.709210631815892556e-01 4.129182970089003563e-02 6.102566880339320779e-03
-6.606363715986117262e-03 1.672848162329948962e-03 -1.082264549383984975e-02 1.661917065879433275e-01 6.285316936739973603e-02 -2.338750702824205635e-02
-4.498952009502135696e-03 1.659042776171349917e-02 -7.339104245507724333e-03 1.565882271779823198e-01 6.227779973731364938e-02 -8.756044361349980473e-03
-7.255538253101417173e-03 2.469712410769207833e-02 -1.080558953745301698e-02 1.519994284939920060e-01 4.485866318692372651e-02 -2.251810039708459013e-02
-9.492825863221877533e-03 2.008470550472364266e-02 -9.434505743024915181e-03 1.477148602970732028e-01 4.324846739911205468e-02 -2.639730075317349087e-02
-6.576486078958905697e-03 2.459096867462183880e-02 -8.742026211403200464e-03 1.309517819776068737e-01 5.936303826532064731e-02 -2.762883309940699153e-02
-4.938758614301800957e-03 2.215700633358881969e-02 -9.042989583591995451e-03 1.264621727653297278e-01 7.322111695925517805e-02 -2.211156702506793248e-02
-9.243081531835568854e-03 3.467424267656816356e-02 -9.161004677551515263e-03 1.261587647172018323e-01 6.593976053700550954e-02 -2.898523566150064748e-02
-1.228588785831903618e-02 2.687125032807811606e-02 -9.787546382450690308e-03 1.408579793272966285e-01 5.007701085974698013e-02 -1.354213547793767757e-02
-1.190565178291275519e-02 1.783813965433408977e-02 -9.529026010798011259e-03 1.470600741492598951e-01 4.459564665573845926e-02 -2.484077922602643748e-02
-1.268764934898772116e-02 2.423127032180004761e-02 -1.131815496151486466e-02 1.337719415133311884e-01 5.931103275853177870e-02 -1.026821005500853576e-02
2.677587364671428841e-03 9.702930371711744953e-03 -1.297817001679858750e-02 1.287037845861469521e-01 9.256972145227393423e-02 -1.932826600179299824e-03
-9.836167049875070914e-03 1.960100325104564833e-02 -1.238406061934212155e-02 1.269272295255060023e-01 1.061529049162717037e-01 -8.049918304142414036e-03
-5.428495649646436667e-03 2.885890356753023633e-02 -1.390930364511462625e-02 1.294954349801954729e-01 9.863030304872624776e-02 -4.800019738560466244e-03
-1.591512358260833114e-03 3.065119331195020544e-02 -1.288255670987328849e-02 1.160340653024204832e-01 9.009438030903942074e-02 -9.536692291246942621e-03
-6.578411492551295911e-03 4.825555301616273052e-02 -1.187152511828910850e-02 1.120024249545820555e-01 8.001702099413256219e-02 4.203516821824885945e-03
-1.276648056909223533e-02 2.040159846522987194e-02 -1.201195325715941065e-02 1.120035217801620825e-01 7.683512277285074743e-02 3.890095163321399471e-03
-5.342803746798031536e-03 3.025103092064704985e-02 -1.300197937573868701e-02 1.146610018150312077e-01 7.052518141193231394e-02 2.074488796147503592e-03
-1.881490411030817614e-02 7.129641106022236059e-03 -1.242511267037289813e-02 1.091371935980667562e-01 6.896258289243321904e-02 -3.845563134728156342e-03
-1.795607867406388142e-02 2.806862140383178938e-02 -1.264689316259043350e-02 1.041955807381304139e-01 7.383673906003083987e-02 5.454175922439793295e-03
-1.107528082948381828e-02 1.578714843300894552e-02 -1.335619345831254301e-02 1.036090614231792717e-01 7.788802456279739217e-02 2.351190602964738779e-02
-1.106083521745576973e-03 2.014137317934812377e-02 -1.474344391423725031e-02 1.017993781323590641e-01 8.287840674428488541e-02 1.846279225198424814e-02
4.388903639888745711e-03 1.559284369696557586e-02 -1.455701700099473750e-02 9.140821745996535741e-02 8.294138969352637947e-02 1.235208139056722526e-02
-3.796892877664751267e-03 2.051427960410378420e-02 -1.453769226442103157e-02 8.101199132251599155e-02 8.719321429958654113e-02 5.100295233300740187e-03
4.258938363862623498e-03 7.057431133426031802e-03 -1.452390334687021778e-02 8.037641422779291667e-02 8.563402995648444760e-02 -5.075604039671891259e-04
1.390013515741850541e-03 5.256323535448344762e-03 -1.416257696087273865e-02 7.851267920589187488e-02 8.714543379864581052e-02 -2.169249559208461919e-03
2.828497437567929502e-03 4.728648148954676944e-03 -1.464987144598241253e-02 7.153416781481036768e-02 9.311234478699702277e-02 3.084763799494042932e-03
-1.108467884770993409e-02 -5.383718015441632358e-03 -1.550457478659654498e-02 6.022595341972470512e-02 8.761933921900814937e-02 -4.498982915621546792e-03
-8.286525254544043276e-03 -3.273111747722586094e-03 -1.674211557454946542e-02 6.512413784093346036e-02 8.654581184208691436e-02 -8.898553217430670709e-03
-1.636042889944377965e-02 1.695230887398358616e-02 -1.404174402901041396e-02 6.154901919647612352e-02 8.300001778326275559e-02 -2.629748946100726389e-02
-1.946639680188057622e-02 8.900077572974274959e-03 -1.308384766266267041e-02 5.478203434000231131e-02 7.991460015422326146e-02 -2.101077227032000297e-02
-1.633954978074812076e-02 1.964916824589870228e-02 -1.345362697938015661e-02 5.458534579419567490e-02 8.175028870660284996e-02 -1.392035491550793098e-02
-1.661485036957947858e-02 1.176713396041148899e-02 -1.404780743805496279e-02 5.828678734390910915e-02 7.470928280779788599e-02 1.070753029901746036e-03
-1.297321939174645930e-02 1.887797980883443652e-02 -1.415563067642947037e-02 5.332488018822374720e-02 7.522626019144845744e-02 3.657459093961132335e-03
-1.528532119559742296e-02 2.926964113717249114e-02 -1.583750958677312970e-02 4.894981667980542739e-02 7.427153210895509616e-02 -4.073617049022592272e-03
-1.467011714569446852e-02 2.615844446032291812e-02 -1.622428862842334452e-02 4.344319453657025792e-02 7.240369195233764543e-02 -5.820217093411173687e-03
-1.636636870047570094e-02 3.832545480242946501e-02 -1.727659569302800180e-02 3.898142179526203899e-02 7.354283052623299122e-02 -2.856684135667198268e-02
-1.773035919613211858e-02 2.549913525777075876e-02 -1.540724280632450871e-02 3.810091411465306444e-02 7.449478560848593611e-02 -3.182091616889060059e-02
-1.193405736240529813e-02 2.503026068432014778e-02 -1.615410816936727056e-02 4.145239774247744952e-02 7.611181975487517348e-02 -1.660946769339072954e-02
-1.403282186926994683e-02 2.812043479301250606e-02 -1.585603621020820198e-02 4.016096898377093799e-02 7.114913990525516263e-02 -1.687925602691420918e-02
-1.483156773753255796e-02 2.329040321186678919e-02 -1.414368699447983435e-02 4.119076662590296506e-02 7.786094717267702525e-02 -2.027550507650619643e-02
-1.429287227061919359e-02 3.170262224049372884e-02 -1.463445169928569156e-02 4.040472110302489872e-02 7.314353777999972606e-02 -2.042227018513209646e-02
-2.024847929490856957e-02 1.827078299686908311e-02 -1.522488883983083574e-02 4.447122012135468899e-02 6.509775021049922505e-02 4.264403233458642119e-03
-1.872066120296938738e-02 2.664943382857486165e-02 -1.576230691935585904e-02 4.607255850301315153e-02 6.798719832431598942e-02 -2.697380451006894247e-03
-2.089002970496901812e-02 2.553463685496118116e-02 -1.543733034162221573e-02 4.239725119698288525e-02 6.542420033321572070e-02 1.071989845561806959e-02
-2.021355896206441030e-02 2.782743165459996074e-02 -1.653294657948839452e-02 4.170451136342059190e-02 6.261205525006623140e-02 1.499641805517237456e-02
-1.748140119387218278e-02 2.601837538799650282e-02 -1.477158202513892404e-02 4.140229259067471773e-02 6.597249456921074062e-02 6.310306217869903443e-03
-1.586138479584240854e-02 3.886034035626902833e-02 -1.510561768239486458e-02 3.763901685622042526e-02 6.705479981029002778e-02 -9.379852991687384194e-06
-1.077499717195114400e-02 1.740750015869220110e-02 -1.527138137107815485e-02 4.238345619691934185e-02 7.085102042066032668e-02 6.457570098239599765e-03
-7.343078653523534179e-03 3.089131118691806899e-02 -1.623089055916962509e-02 4.090811154664420607e-02 6.749129218080225645e-02 5.117668949293155065e-03
-1.363760245704038337e-02 3.555706665425895086e-02 -1.627493523214329496e-02 4.585062761022074690e-02 6.400975886497517475e-02 1.002143122390184229e-02
-4.454898305478834607e-03 2.589869187938786260e-02 -1.659929348064650978e-02 4.332775586953896418e-02 6.437361189869070244e-02 -2.255130633860858054e-03
-1.813996978549065747e-02 3.497400851960647677e-02 -1.589425313273078177e-02 4.050921550714398078e-02 6.819920338378077096e-02 -7.322705813037104321e-03
-1.540597005593404532e-02 1.238953889536714703e-02 -1.604945212594485748e-02 4.230430963965965685e-02 6.665649099616334505e-02 7.673677128865221721e-03
-1.829729290909289791e-02 2.629410502718459997e-02 -1.636099902524454364e-02 3.913979745918452768e-02 7.152777004238718150e-02 -1.213859658357861054e-02
-1.312972222130010316e-02 1.314026316200194236e-02 -1.552573462841265461e-02 4.056634142710945773e-02 7.125712951563649422e-02 -1.961884272058985607e-02
-1.807975760964244255e-02 1.877396751596083560e-02 -1.540822173482177260e-02 4.209540835984174750e-02 7.060013495745447176e-02 -1.732548049394969786e-02
-1.545033660973679258e-02 1.883201298080231303e-02 -1.282205361190727477e-02 4.543536533958499046e-02 7.391841374569901868e-02 1.313793218798039964e-03
-1.370749614293252303e-02 2.861793704747200850e-02 -1.393233683816930135e-02 4.745238628246311458e-02 7.252670648289699651e-02 -4.507553868534436292e-03
-1.816701344322638537e-02 2.911151452737137380e-02 -1.398628846795139935e-02 4.936755913214330160e-02 6.973931508213286612e-02 -6.678957199313024541e-03
-9.432915749441109915e-03 2.413013235033442672e-02 -1.526271863620784486e-02 4.840935777647891597e-02 6.862349325779126819e-02 1.179505052272765593e-02
-1.515727974444495627e-02 2.429435534452085987e-02 -1.488790490889017881e-02 5.502398617523069496e-02 7.201675637911218730e-02 -6.593733262569779346e-03
-1.975750615717599204e-02 2.389587438669057984e-02 -1.659374223584418606e-02 5.380200903748758035e-02 7.275889223065480638e-02 -7.365766325383668080e-03
-1.146160964203735144e-02 2.682031964117476824e-02 -1.622214694992862860e-02 5.456869582940487157e-02 7.543328618689844334e-02 6.257554250764735607e-03
-1.113539609957632168e-02 2.700486706406108814e-02 -1.534264900466510151e-02 6.062520903438579217e-02 7.105541652671114317e-02 -1.342122606178992482e-03
-1.361264544827136061e-02 3.770063096495435140e-02 -1.557034665434009479e-02 5.597755334500002788e-02 7.750765414019468447e-02 -7.213391141454744172e-03
-6.982251205260789351e-03 3.001257535260370285e-02 -1.625948169088672901e-02 5.928082692092938311e-02 7.178128418923387932e-02 1.545489064656750157e-03
-9.933740686620564156e-03 2.057814156451869339e-02 -1.280095372219351713e-02 5.394524792818317094e-02 7.697908941116428372e-02 -1.013820464338643923e-02
-2.718510899596832120e-02 1.577019286606443776e-02 -1.440837307481361573e-02 6.043282030012488842e-02 6.846375234454192549e-02 4.261956638250415097e-03
-1.929717652020417409e-02 1.592780153692359077e-02 -1.359744927884133647e-02 6.040395514093212237e-02 7.344459403769040828e-02 1.973027385940497036e-02
-1.475125318446161848e-02 2.837963309291657160e-02 -1.410934310595578223e-02 6.067242846746400547e-02 6.807890337810709735e-02 1.397661843190961019e-02
-2.130122096093249248e-02 2.248490488386069297e-02 -1.343411372245949253e-02 5.863500540374455561e-02 7.082394279293931227e-02 8.691163691708041553e-03
-2.308928365363099172e-02 2.879149362921255492e-02 -1.343630555755281897e-02 6.581442484180485830e-02 7.112694901294361327e-02 8.827790958711109054e-03
-2.131056038653695098e-02 2.516180981912681178e-02 -1.380424601715631028e-02 6.462456572596143867e-02 7.054195423944206733e-02 8.046848500729997938e-03
-1.238208669174829454e-02 2.125418495601058208e-02 -1.254548291544169136e-02 6.548962569745479800e-02 7.251719189543215371e-02 1.380750847988406436e-02
-2.604366401515700868e-02 2.312587745615926962e-02 -1.318729091889221661e-02 6.460734718763702644e-02 6.695053216611482338e-02 2.149399084587899373e-03
-1.015962917612914761e-02 2.215633500137046200e-02 -1.444809164554909653e-02 6.034742431396405288e-02 6.965048792423032820e-02 2.036901836990629572e-02
-1.252003876980666876e-02 2.292675353333311142e-02 -1.530567324683934638e-02 5.972793390687618220e-02 6.725356357592190970e-02 2.847051376692906650e-03
-2.011043613300522379e-02 1.766099371220554437e-02 -1.494567459095640094e-02 6.382093271110572674e-02 6.134935244163820106e-02 2.790854875462187284e-03
-1.871844142934385793e-02 2.590063080343874696e-02 -1.442686289421005186e-02 5.940736477323164261e-02 6.639969087196390118e-02 -4.883116668192806487e-03
-2.045700856226020936e-02 1.871871209187963778e-02 -1.461514102569777540e-02 5.584043602328334077e-02 7.282004323011788405e-02 1.232659351786968144e-02
-2.357740500947932624e-02 1.321743983799579872e-02 -1.427907040552653384e-02 5.509038579456809748e-02 7.924112824178604353e-02 -3.856128374115862212e-04
-1.258889068476382565e-02 1.899889729268981406e-02 -1.431436551392027690e-02 6.400159995300536142e-02 7.659330631906226261e-02 -4.837268536436723637e-03
-1.006866414477510484e-02 2.648955915847571105e-02 -1.133975944727312613e-02 6.143332872756960411e-02 7.812213654796044959e-02 6.106196704591686578e-03
-1.202210196110627821e-02 2.572580178096895223e-02 -1.129729761720400794e-02 6.169755570517432286e-02 7.787648501690931646e-02 5.365444172845693950e-03
-6.825033280054257877e-03 2.195394014326696591e-02 -1.091426914825777139e-02 6.448738618151590718e-02 7.861867341597793268e-02 9.767959864338383522e-03
-1.291225033161299413e-02 1.663701170397504162e-02 -1.261131302068096982e-02 6.149235298024816748e-02 7.613299436836074019e-02 -1.127935398977829469e-02
-8.466137066342785747e-03 2.035299484945591805e-02 -1.342353655052926087e-02 6.416263530793847591e-02 7.753874805007736348e-02 1.131210546852629700e-02
-1.834983015657306107e-02 2.403338597052048081e-02 -1.435986333070983501e-02 6.256447366387143938e-02 7.321635442209577238e-02 8.481931621713109659e-03
-1.593609960370576117e-02 1.785964426883146494e-02 -1.562903731107839755e-02 6.224115829186233767e-02 7.427340465601904584e-02 -7.824801820013714201e-03
-1.610440417751695177e-02 2.426464874927046489e-02 -1.557340350583508171e-02 5.764672478522554766e-02 7.558641358445133962e-02 3.398278769582932339e-03
-1.289858281611685857e-02 2.408875063652321860e-02 -1.586113018645990413e-02 5.814247991239721719e-02 7.531765811239407582e-02 -8.019093943125945104e-03
-9.140296911695150808e-03 2.268990369515360567e-02 -1.541617749657754610e-02 5.916703204733728821e-02 7.572377538216015780e-02 -8.525910083664213837e-03
-1.948103700378561384e-02 2.885218096083767836e-02 -1.450750789960636444e-02 5.954641592819116813e-02 7.811457691419516902e-02 3.429745868128265883e-04
-1.723679268038623077e-02 2.019446688421186464e-02 -1.262176392921952883e-02 5.474329551898253488e-02 7.529973770752686202e-02 7.805255363614664078e-03
-2.251885028165163255e-02 2.581691391198119578e-02 -1.346621718575445603e-02 6.266702640969602778e-02 8.051409857145482019e-02 -8.804936210548064413e-03
-1.862902685976231335e-02 2.712918519414962010e-02 -1.275437565779911908e-02 6.341246993755653150e-02 8.014565002091320056e-02 1.170208133542112450e-02
-1.811141398111192763e-02 1.358098047523115769e-02 -1.145609798838848059e-02 6.541414505150316971e-02 7.987728863975131210e-02 1.160473416994371038e-02
-1.664309319410217300e-02 3.186667205259475361e-02 -1.312351217045243379e-02 6.308901500059797829e-02 7.421484160307201261e-02 1.372838118505215980e-03
-1.750457427563491611e-02 2.463621235662857845e-02 -1.454570749585902545e-02 6.793525981796806612e-02 6.934124179277946498e-02 1.604539923669244528e-02
-1.478257811404256987e-02 2.051859219419733399e-02 -1.442622733732508433e-02 6.697560884061365405e-02 7.097511484611772337e-02 2.369167428800303052e-02
-1.204052273016422737e-02 1.179725133266971634e-02 -1.398694494419999712e-02 6.643679051825399084e-02 7.053534260065227879e-02 1.836189904564984252e-02
-1.412304133194496394e-02 2.682521391026790672e-02 -1.311554755605492950e-02 6.775418744675960891e-02 6.971662199820673200e-02 1.881707935370928453e-02
-1.584935523503951463e-02 2.425611620087742351e-02 -1.471700634081241077e-02 6.697095333662900218e-02 6.657516885959996467e-02 8.805053296139840266e-03
-1.604737907609588704e-02 2.004924061842784655e-02 -1.568964786021299906e-02 6.195103471857696387e-02 6.256573317127978040e-02 1.307033180340601806e-02
-1.333643134129768038e-02 1.907112558197048002e-02 -1.603859479647798403e-02 6.186346107906402769e-02 6.140359722807735982e-02 1.908316642868007618e-02
-7.144576802380761364e-03 5.371344843114328471e-03 -1.535096918501949181e-02 5.609734703027321329e-02 7.159547524298835730e-02 1.229378894733723984e-02
-6.272516793755313763e-03 5.510119283060227122e-03 -1.641908129678172623e-02 6.003113556385654415e-02 7.514447528131366905e-02 2.816079599732327840e-02
-1.071691482042813094e-02 1.604007494964158204e-02 -1.506534295706438153e-02 5.840026839676383530e-02 7.530139798602822343e-02 3.807142928821969328e-03
-1.487596304067589394e-02 3.904026643576581895e-03 -1.522480655946403805e-02 4.907315059321850498e-02 7.498720231482121357e-02 -1.030063441175554755e-02
-2.271045326803706674e-02 1.606799270683883368e-02 -1.430164618890003569e-02 3.973331606712532382e-02 7.081627565233407362e-02 -1.997365932746595837e-02
-1.330892645573497277e-02 9.486531982357668171e-04 -1.249156192045439151e-02 3.342909314784684588e-02 7.129749681977329279e-02 -2.189464227141466740e-02
-2.141222185190466004e-02 2.271117048853185834e-03 -1.338441607092678842e-02 2.398830809822996915e-02 6.904790067955056398e-02 -8.448607456507051250e-03
-9.840707345640962653e-03 -1.395555383940756721e-03 -1.365045638353841462e-02 1.775543727351092116e-02 7.742090086405206684e-02 8.263629588804197873e-03
-7.618285092967079161e-03 8.852854156782585457e-03 -1.628403213231141566e-02 -4.921832231911039968e-03 7.419847613163856048e-02 1.177938938549743207e-02
-1.023781863667148906e-02 1.724141573397227137e-02 -1.746538214796738986e-02 -3.869495309920135268e-02 7.333105981584540911e-02 -2.929535126440073467e-02
-2.363867382621920223e-03 1.302454232310325602e-02 -2.101217249001678666e-02 -7.518661250060054702e-02 7.019614987762971825e-02 -9.274081381882241099e-03
-4.176010651440824860e-03 1.024910063390851479e-02 -2.329108773478485994e-02 -1.135485923274632825e-01 7.001952486676751852e-02 -3.945923133902659412e-03
2.309770582024112985e-03 3.060359792251124422e-02 -2.272808200653275712e-02 -9.047312589898366675e-02 8.228065468608414257e-02 -9.394279173524755500e-03
3.387714519284402807e-03 1.390048592333590488e-02 -8.398615153153585200e-03 4.173376659671960975e-02 3.429319347769164278e-02 1.549172190019666023e-02
-7.302433634672275339e-03 1.808581150822907366e-02 -9.671839443545021675e-03 1.411515202926926643e-02 4.329248652289659216e-02 1.303087587422423373e-02
-1.098752036128704604e-02 6.747612197523924354e-03 -8.023790894065990775e-03 2.179483524101507794e-02 5.060867711174464600e-02 3.504106795689244935e-02
2.314259298386851620e-03 -5.862645044862278484e-03 -6.989713616025794440e-03 1.330468376082133072e-02 4.533243091051784163e-02 5.362038794274690684e-02
1.333052001302474556e-03 -5.109405081556177633e-03 -6.387504040329033961e-03 -3.224625500424151830e-02 3.022241562927840963e-02 6.281381486095528877e-02
-7.488220145945787866e-03 1.253541035730076046e-02 -7.216640676474359029e-03 -1.069844729233160596e-01 3.249229786866312392e-02 3.472432738112928019e-02
1.945202924275752331e-03 7.447308847273408257e-03 -9.724764496614995979e-03 -2.923937870571462483e-01 3.173613026151833605e-02 5.436157692979607520e-02
-8.807804547480220687e-04 8.339126503619322117e-03 -1.153958779943918544e-02 -4.711099261366455959e-01 3.225505176444116995e-02 3.758274421420019357e-02
-7.378347398229666634e-03 1.254318508745908695e-02 -1.472368519298408729e-02 -5.462730771676373998e-01 3.683166753460807158e-02 3.200147898261144347e-02
6.754483404125204149e-03 9.792176129510806251e-03 -1.503517028593216731e-02 -5.086019926860734230e-01 1.866061521166663059e-02 2.263499010956915997e-02
5.325979556709152518e-03 1.879998527521843654e-02 -1.859007097860888857e-02 -4.325813253624318233e-01 -1.457129539534204552e-05 3.126096674424848343e-02
8.829266357283961641e-03 2.369472881775807824e-02 -1.997827099206461732e-02 -4.071516100914556180e-01 -2.947136228796743210e-02 3.054713678954251374e-02
8.580741871507405541e-03 2.664718025047385641e-02 -2.170858644850032215e-02 -4.377736655187641213e-01 -4.411881749141716158e-02 4.090203985108593204e-02
-3.914048198825653690e-03 -1.083497874729501265e-02 -1.033161396419614297e-02 -4.368385455156587049e-01 -4.929822842291155249e-02 1.849448534283457124e-02
-4.853159171262133934e-03 -3.489640811595988348e-03 -1.582702678661510043e-02 -3.916533111467334072e-01 -3.933110684144298930e-02 2.223045680256625217e-02
-1.905195921648093500e-03 -5.052522985747050221e-03 -1.872165087950175555e-02 -3.713714193057756630e-01 -2.651497513362848987e-02 1.473228840271929851e-02
2.488355347528587759e-03 -1.000135315599459413e-03 -2.146521742771718977e-02 -3.645568502451891346e-01 3.143967716896921977e-02 4.630656439144004502e-03
-1.323109985799574831e-03 8.363378550417577273e-03 -2.373814905772611561e-02 -3.850548302240789922e-01 4.861758335522599339e-02 2.242790177260910959e-03
-8.597200542353586675e-03 3.607115698044785750e-03 -2.544412544218449534e-02 -3.765404800376162542e-01 7.439884417048643617e-02 6.701537644898184799e-03
-6.655217089355586028e-03 -9.717365302587142786e-04 -1.327026377022202941e-02 -4.619792658411847608e-01 4.773539994994549507e-02 1.142611093112078959e-02
-4.953186183402813816e-03 7.755574522406668593e-03 -1.925471023634646450e-02 -5.252739411224179866e-01 6.610656973528586389e-02 1.965172912659665996e-02
1.961380333897469116e-03 1.591550936968973498e-02 -2.671599516735288782e-02 -5.341462000409256117e-01 4.625573200899386200e-02 9.961070722745326081e-03
1.089981947603395340e-03 1.034243572587864417e-02 -9.980835132578316782e-03 -4.510725552369300728e-01 1.569614099882924232e-02 1.036232020228559231e-02
-5.644577193673966852e-04 5.537355515761534057e-03 -2.315061194940934430e-02 -4.859989696009541227e-01 -1.580600282123610211e-03 3.944572233825218224e-03
8.382768531099461795e-03 -1.039295011892738506e-02 -2.440210853763527532e-02 -4.757339841513193446e-01 2.731881848750893765e-02 9.023858118828151365e-03
6.383393714262832266e-03 1.178373223791860484e-02 -1.218459767213909972e-02 -3.051382897326817556e-01 4.720104547038396492e-02 3.052935317794578524e-03
1.436152251708843440e-03 1.089967444806755684e-02 -1.744590349399278983e-02 -2.456049765152459874e-01 9.260093920517020738e-02 5.190596562797984877e-03
-4.362848114512299716e-03 -8.560079096510299487e-04 -6.032599582822983919e-03 -1.243817230528087431e-01 4.287071677794120073e-02 -6.517364852829895562e-03
5.207966688540162023e-03 1.281471814661177405e-02 -8.732900781586117045e-03 -7.813808822657877795e-02 5.646490300817550573e-02 2.251320667000413292e-02
-8.149780534261793358e-03 6.118703763733759037e-03 -2.052840615994588891e-03 -1.452358838183012979e-01 -3.788295743008074368e-02 2.559681198961025889e-02
-4.433249871881587978e-03 1.140294333185167680e-02 -7.918465925373541214e-03 -1.127271601269233398e-01 -1.434992909331556619e-02 -3.997202312299728659e-03
-1.163976366197097545e-02 1.512013907289506964e-02 -8.755019591114174271e-03 -1.917727974281923931e-01 -3.879197670037193985e-02 -1.067856345057623980e-02
-1.849704316457825848e-02 7.933968713998193478e-03 -1.733100524275477117e-02 -2.268374726377132278e-01 -4.039922712327467108e-02 1.080336761922973815e-02
-6.559447871359914278e-03 -5.312801803645227430e-03 -2.457472662949183873e-03 -2.121019998936344853e-01 -7.464991802055301329e-02 2.071737379962427725e-02
-3.616804391930477161e-03 9.505923789582749334e-03 -1.042763632124359130e-02 -2.517376398102585608e-02 -6.785508691891778410e-02 2.101121095391256244e-02
-8.903832348839964272e-03 1.707750731793006641e-02 -1.031020353413363011e-02 7.759116385797512616e-02 -5.621531231951841512e-02 5.056520234826987481e-02
2.309526066051666507e-02 6.868214420081317044e-03 -1.523684194301271055e-02 1.253376281482541654e-01 2.523658693138597711e-02 6.943224988647211937e-02
9.676266602547707249e-03 1.202629283785290430e-02 -1.544334553727941262e-02 1.047946908478396832e-01 8.076663509539354704e-03 5.226352643667366710e-02
1.187541902286005750e-02 -2.271850260244105083e-03 -1.863417493303132222e-02 7.860322460286577051e-02 -9.201029518633586490e-04 4.677713955956291914e-02
1.858268143049040437e-03 -1.623308997461011746e-02 -1.829410942363238202e-02 2.972136230838077695e-02 -1.278472817918849605e-02 6.301472401336596918e-02
-1.667083688650489691e-03 9.044945163971279678e-03 -1.490025556936198925e-02 4.514208502599447587e-02 -1.736601864941918552e-02 3.338643588246775068e-02
-1.988076360947884508e-02 1.001802115215882742e-02 -1.174439912663474694e-02 6.728471981240116695e-02 5.495142921399570612e-02 5.350482641658320382e-02
-3.397816700847397595e-03 -5.699549294962630644e-03 -6.505050086899680228e-03 1.239525931079616672e-01 9.122007865343345623e-02 3.321802276305348134e-02
1.842845445194917896e-03 -3.802977867106872769e-03 -1.046474548111014924e-02 1.338970358944031047e-01 9.840424829982051536e-02 3.503230533812817099e-02
6.626376128297814874e-03 1.931301514380728487e-02 -2.191021931133185774e-03 1.658268804424933851e-01 8.039066031791883282e-02 5.417172482089578633e-02
2.018091160966959083e-05 2.443022354874391927e-02 -3.621529872490730773e-03 2.347007502393334000e-01 1.792724188597410659e-02 4.785051750268618648e-02
-6.259229538909701421e-03 2.089420833334382915e-02 -1.342317246833235611e-02 2.340953783145391653e-01 7.439937709384325526e-02 3.243853442102482415e-02
5.467305698371420150e-03 2.272345789911848005e-02 -1.181513835439564064e-02 2.667354744189572302e-01 5.352804462295635696e-02 2.858430002310618015e-02
1.577978655304739734e-04 1.302479708017886817e-02 -5.698707636029476387e-03 1.689376004785842489e-01 6.041062226731788026e-02 -1.048176971512299917e-03
-1.316220197695714181e-04 1.604822857945216799e-02 -1.384285747687885593e-02 1.437975774483876978e-01 6.330970434763194543e-02 -4.236138758082580403e-04
-1.488985714320313581e-03 -1.844140356039428857e-02 -1.355305304473228278e-02 1.688092283527502235e-01 6.574754139790757457e-02 -2.112306194101071233e-02
5.245962841745517753e-03 1.572098517664051801e-02 -1.787076344460748756e-02 1.825397446902915499e-01 -4.314550955904268570e-02 3.016130748654206450e-03
-3.907842709490215623e-03 2.362510153157094603e-02 -5.303244811502461076e-03 1.882326922697875604e-01 -8.064176379300435835e-03 -1.674213751143476328e-02
-3.571073352660244886e-03 1.632813850794424815e-02 -2.983577807559090189e-03 1.855757638266808951e-01 2.431329443316971803e-02 -5.882195425017145395e-03
-1.086448547472725241e-02 -1.543839107032650079e-02 -6.955570401553659576e-03 2.022857799797143641e-01 9.006004769080033778e-02 -2.543234863455778871e-02
-1.024477229548806725e-02 -1.241761275079835032e-02 -1.421647171097946416e-02 1.447047321061053493e-01 1.190500701471604306e-01 -2.086302218813693155e-02
-1.771268878336785743e-02 -9.480980540778850482e-03 -1.090593696490287090e-02 1.560440846698520068e-01 8.722960455167741434e-02 -5.101871458323635131e-03
-1.710497662901493479e-02 -1.894823849067812926e-02 -1.161650978941836110e-02 1.547647915857442991e-01 9.208678544992258963e-02 9.316671132638147321e-03
-1.875425725679391586e-02 -6.061126340817130607e-03 -1.392762175443529316e-02 1.415758407840237709e-01 5.931966486471847849e-02 2.625015073304819840e-02
-2.441748382324330016e-02 2.671449536815307486e-04 -1.122865066799103029e-02 5.896233438518744263e-02 3.924787904543401013e-02 1.715915190163526741e-02
-1.922752227014291188e-02 1.402365898573797350e-02 -1.577517586915246073e-02 -9.222654595833333635e-02 4.799778835686942247e-02 2.391653264747110180e-02
-1.985422016640968346e-02 2.229282775236507072e-02 -2.797338736837856610e-02 -2.770060583697983025e-01 3.926203618793840111e-02 1.779916850594831859e-02
-1.789036250199882092e-02 6.790947266516037840e-03 -1.392834531042633217e-02 -2.803149171659270467e-01 4.705783209145009138e-02 -8.157137885401203811e-04
-2.163301515934494892e-02 1.726246412362521243e-02 -1.073314022620031061e-02 -2.845096684536735920e-01 6.670683416837835944e-02 1.392683904430757312e-02
-6.505863170827391045e-03 2.337628530344932481e-02 -1.821484929598546354e-02 -1.976237201366690122e-01 6.899329367411449754e-02 2.037178699058329878e-02
-9.997468294632820551e-03 2.484644276896991709e-03 -1.733567359095064542e-02 -2.143271465322662828e-01 1.763004817276800085e-01 1.128463660936845220e-02
-8.598611297125987804e-03 1.684963695774607806e-02 -1.946438029493205435e-02 -2.824882380663640280e-01 6.889378415836575065e-02 3.202170757931239748e-04
-6.588399623282362345e-03 1.934893406552066000e-02 -7.422031061250070061e-03 -3.100336419364206897e-01 1.361380161410107315e-01 2.149842868108572773e-03
-6.529368427804736752e-03 1.563324395215940146e-02 -1.286757571367347364e-02 -2.977060674232907544e-01 1.584693653589187567e-01 -1.298114053940802211e-02
-9.535050933841011239e-03 2.292147248811647955e-02 -2.007371288737194726e-02 -2.624379072182672634e-01 1.920099834570716812e-01 2.581093035688197205e-03
-4.654640018784117310e-03 2.949281066748754565e-02 -4.974750532958316374e-03 -2.657783697843683068e-01 1.961274324426999227e-01 2.384575092542281019e-03
-4.253479673028781258e-03 3.847339834100833161e-02 -1.196575727602937345e-02 -3.357733034953466200e-01 1.657093837937609615e-01 2.363970450589180164e-02
-2.551126026809586930e-02 2.102441051002625072e-02 -9.909055767570673634e-03 -3.759260936447901824e-01 1.201592539700563345e-01 4.255385516045163616e-03
-7.110296964931797983e-03 2.288259003985394779e-02 -5.920954008938758562e-03 -3.738533113046389467e-01 1.707693576437412653e-01 -2.937525760072579820e-03
-3.076924216950580743e-03 4.297340892586352240e-02 -1.441854768616906979e-02 -3.485937203556163655e-01 1.871251390335257891e-01 2.839980379867407256e-03
-1.858568893416239626e-02 3.955514776222755075e-02 -1.286625456726989136e-02 -3.185460187069756866e-01 2.507001987213005045e-01 -1.029897989275293559e-02
-2.964484665004286576e-02 2.628128175119192819e-02 -3.994352454131516739e-03 -2.998211735876638584e-01 2.901720093946134060e-01 -1.998944668290997609e-02
-2.204124834909656702e-02 3.913648847729594982e-02 -9.042603725438649875e-03 -3.131479913416773120e-01 2.997470958683259301e-01 1.472153211733584835e-02
-2.539978158182086901e-02 3.573632428670087124e-02 -1.206167891724040098e-02 -2.565227332222861922e-01 2.879345752717785145e-01 2.589965912312829077e-02
-2.244698351754648158e-02 3.325459803299529032e-02 -2.747432810933342351e-03 -1.776747400268943178e-01 2.099804714317831111e-01 2.964774984568492242e-02
-2.294437563862752189e-02 2.234507859492877030e-02 -1.121692189712603094e-02 -1.889147818247743082e-01 1.691695689032018113e-01 3.002874740102408693e-02
-5.647377602763483523e-03 4.126948665210520423e-02 -5.945338522193768793e-03 -1.640438404537146178e-01 1.835642462417643450e-01 1.803870283129997698e-02
-1.408525269321567533e-02 4.139010167917620692e-02 -3.643367823571524999e-03 -2.176603922060086904e-01 1.706466639862955215e-01 2.181049662083684240e-02
-1.456452061201710287e-02 3.698648603849159777e-02 7.895342904785662697e-04 -2.038036538040937651e-01 1.755826149865276353e-01 1.505967903145562573e-02
-2.141662138301257332e-02 4.176497947311860748e-02 -8.198547574759434964e-03 -7.434213855130759885e-02 2.044836848220334680e-01 1.864052426734636933e-02
-1.944247275810440795e-02 4.653401869755087461e-02 -1.253015360286836855e-02 -1.388888723457937235e-02 2.594654143703249982e-01 1.301777257019184030e-02
-2.300724600744580295e-02 3.837351745676392117e-02 -1.998482838254100891e-03 3.133280136564117052e-02 2.688716181461864863e-01 9.153251786247769417e-03
-1.882808897480289095e-02 2.250158827005823911e-02 2.516093747125275337e-03 1.590647525552523617e-02 1.790892755434826122e-01 5.844850435511540071e-02
-9.231235455301313540e-04 -3.619467588875270505e-03 -3.852453055513488378e-03 4.958124302598829886e-02 1.976854355115937323e-01 6.111827015758128367e-02
-1.483991590409204815e-02 1.499277372231859473e-02 -1.345536790195557553e-02 4.643867498436540092e-02 1.318681592707749983e-01 4.535743683579524649e-02
-2.765102704736082523e-02 1.056292389969156094e-02 -1.058532339592549443e-03 5.871353595276486426e-02 8.512597631142815313e-02 3.750588480216130588e-02
-3.046807347728198306e-02 4.463972528399278838e-04 -3.484424489844734074e-03 -3.585222185518560471e-03 1.217921627807977969e-01 1.021171303967955551e-02
-2.984346280362925458e-02 9.644944291590360277e-03 -9.444086426751874264e-03 2.196868001547961843e-02 4.586073255031142271e-02 6.786158523603706867e-03
-3.491363934265516444e-02 2.248971769770683263e-02 -8.598234555705352999e-04 1.474548070379572695e-01 9.372794567177784864e-02 -9.864708437577815806e-03
-3.740621127674616242e-02 2.580642581150690076e-02 -1.262406220334671980e-02 1.517373216239100986e-01 9.809568313660139982e-02 -6.952492604374618280e-03
-3.607683532693853334e-02 2.071194658989589793e-02 -1.206164599010857430e-02 2.147293275369947796e-01 9.768926448535525386e-02 -4.708904883727702863e-03
-2.191595078169832414e-02 3.499967400914286153e-02 -6.503900656724515006e-03 1.795759048007121161e-01 9.448808930884462776e-02 1.911186311619560152e-02
-3.080900997184245205e-02 3.554650967086790680e-02 -1.076838701426978406e-02 7.820426742210051518e-02 4.901308445110209161e-02 -1.366200641314351157e-03
-3.559044081342053328e-02 2.411636133171666738e-02 -2.465182740046395482e-03 5.645913811361433915e-02 3.234055802984509009e-02 -3.364860008452340984e-02
-3.158794227533556764e-02 4.117601627850323714e-02 -1.505443297452994933e-02 -6.838653379611618621e-02 -5.984019211544499943e-03 2.008526008804585247e-02
-1.975902865714528750e-02 4.330759115917195284e-02 -1.427620513430441496e-02 -4.845915907805278811e-02 -2.521901759424509393e-03 1.534601635523182538e-02
-2.609518549141200475e-02 4.512124167138865938e-02 -1.069917184901980622e-02 -5.865978527868993125e-02 7.545210676180449938e-02 1.810842973166693418e-02
-2.594920080886191013e-02 5.307531323698772702e-02 -1.013166232374197728e-02 -1.615854569102235794e-01 1.283547240177744242e-01 4.294140829912865970e-02
-6.884818409669365286e-03 3.293736566758938278e-02 -1.564051672120291003e-02 -9.317725731978687698e-02 1.016648723558646744e-01 -1.161420979770642382e-02
-1.877968843816290104e-03 5.399158167165933608e-02 -1.715130419967919595e-02 -1.528074901151515452e-01 1.344149594787273361e-01 5.032329909982615618e-03
-2.088726502776335620e-02 7.371646555618996399e-02 -1.109113789519207416e-02 -2.032049604174060164e-01 2.041510275955666642e-01 -2.117006039505632889e-02
-4.040071369716873029e-02 5.977752356767721681e-02 -1.656835203335572937e-02 -2.248490215557851779e-01 1.855388860715301846e-01 -4.080525834962037135e-02
-4.766231766958988619e-02 8.349427969501821423e-02 -2.584834493873437722e-02 -2.596403587595594309e-01 2.585092442921985700e-01 -4.374616104405516098e-02
-4.185927594554855746e-02 5.457324273596253494e-02 -2.302114605491201171e-02 -2.009515586421602995e-01 2.322109844156514669e-01 6.112494104291925356e-03
-5.518018593547108913e-02 6.132803849269002211e-02 -1.099554127246513135e-02 -1.956907086895622871e-01 2.548444277527431856e-01 -5.513062632567650168e-02
-5.262198973306712185e-02 5.105535119283191592e-02 -1.179274233522491222e-02 -2.543389664006369677e-01 3.226827679845398755e-01 7.800049018890046083e-04
-3.353839113321559900e-02 3.993014466515327349e-02 -3.080391721861641674e-04 -2.957228064797573497e-01 3.198367520515937867e-01 4.315254109616720180e-02
-2.046164440517250771e-02 3.397951797286059145e-02 -1.397320915537658692e-02 -3.440824080064743828e-01 2.887959684843468544e-01 5.049995765831583744e-02
-1.940947923504752343e-02 4.073211825392981239e-02 -1.476815420757637831e-02 -3.261725140665385214e-01 2.697815799722883545e-01 5.834101611721045737e-03
-3.954722063917006508e-02 4.278252059152376496e-02 -1.504826971300327054e-02 -2.995419078906361721e-01 2.119282661885678876e-01 -1.605853532053876098e-02
-3.747708527745955559e-02 1.948943192031463850e-02 -1.165942747546881708e-02 -2.868785979781363626e-01 1.327809530083532141e-01 3.360322492679779227e-02
-2.295554708504419367e-02 1.061475484989246078e-02 -1.780065142148642976e-02 -2.538571155374896304e-01 1.506881361244908901e-01 5.897287443528328316e-02
-3.886290674826638897e-02 7.459465704167369572e-03 -9.945971283346941028e-03 -2.946491559603651722e-01 1.446247109115895713e-01 9.032226515847478418e-03
-2.427020697354073317e-02 2.808880836497614289e-02 -2.113380245171014860e-02 -4.244013308536713214e-01 1.426461203545949519e-01 3.764984219332247195e-02
-2.300120583526829576e-02 2.931326799614764056e-02 -2.098107087155483275e-02 -4.678514549511795795e-01 1.307276948782998549e-01 3.857626718204552104e-03
-2.564061345476016315e-02 4.980161340868293623e-02 -1.569094142704041683e-02 -3.797619949816841700e-01 1.370917376605880755e-01 3.198067388139992639e-02
-1.212611565239379678e-02 2.656357619601158737e-02 -7.009527932710202247e-03 -2.881066968799222416e-01 1.083191908137620257e-01 2.497690516671707481e-02
-2.811919520001601031e-02 3.469744521829676298e-02 2.268974137751345044e-03 -2.466864718500027531e-01 1.094881655987119534e-01 2.966199170512694508e-02
-2.993579635202821623e-02 5.145878548688718329e-02 -8.255364032260598117e-03 -1.934477060470705112e-01 1.768082039266049774e-02 9.801019767673533473e-03
-6.875627907983682639e-03 4.376392362905836414e-02 -4.261554013097357263e-03 -1.777392747051436406e-01 5.925032784531806054e-03 2.968004097159981231e-02
-2.879267498037788725e-02 5.028273720452686169e-02 -2.405089606845700612e-02 -2.389182675913960330e-01 2.159689962173211297e-01 5.134214777547448788e-02
-3.231652959017409371e-02 4.653703962124677157e-02 -3.255286108035175541e-02 -1.039522493967240668e-01 8.904141182226564533e-02 3.682122100376499646e-02
-1.905706365290910087e-02 6.387266758041863779e-02 -4.842755530846343248e-03 -1.499214071194950315e-01 1.012639147253363431e-01 2.169624131532344943e-02
-1.864653698201859666e-02 4.419507881534127242e-02 -1.482450359367967763e-02 -1.745359351320505958e-01 1.076635887688371929e-01 -8.998923558348727314e-03
-1.537282518856118892e-02 5.775970874518600306e-02 -1.354157722981735867e-02 -2.189402842023675522e-01 -1.871402040705867978e-02 9.680231007475977381e-03
-1.905316188756105145e-02 4.503138383035589637e-02 -2.230993867956006238e-02 -2.413014541957127501e-01 3.784817691092477038e-02 7.802711246779286958e-02
-4.709891016854953101e-03 5.546476749554286184e-02 -1.249489896544861423e-02 -2.551693166481315278e-01 -1.181032262161322774e-02 4.529211229965386144e-03
1.590534477004542507e-02 7.823144029950721001e-02 -2.794084970050986216e-03 -2.586438722303262550e-01 3.363895575483481087e-02 3.699780899741733631e-02
-7.292357423120064339e-03 8.025278985738433513e-02 9.452194334063357406e-03 -1.943096791884290353e-01 5.887690242096597221e-02 2.445325018490972224e-02
-1.199359062637228579e-02 7.710996771975646424e-02 -4.449970899285671244e-04 -1.587541985885229379e-01 2.510167324339122874e-02 2.320515099123679828e-02
-1.889109697605141636e-02 7.275537547198591970e-02 -5.082360745109648636e-03 -1.729854328740743630e-01 7.334145738369485246e-02 5.150225002120185219e-02
-1.068040980701948604e-02 6.854112883589631722e-02 1.250893550196788273e-02 -1.936851543942957332e-01 3.198076961453977934e-02 4.720107781007087944e-02
2.208719506976286953e-02 6.331462894270049879e-02 -1.317347815361638586e-02 -1.913083735180006739e-01 3.257311414533508448e-02 5.542949895514183434e-02
2.133528178511127221e-02 6.465791670504210387e-02 -1.371526646917027581e-02 -1.857697464725250047e-01 -2.351932065806825248e-02 9.319508034800479124e-03
1.864161396075279808e-02 7.515127510117097787e-02 5.244323556925167829e-03 -2.262752933381923237e-01 7.883911985423638913e-02 4.688940380476893863e-03
3.603348436847467889e-02 7.903603736089569176e-02 -4.518553606410680157e-03 -1.248975653072350311e-01 1.969246158579765482e-02 3.310543389462876351e-02
3.730516761212802901e-02 8.362661605145484123e-02 -2.293289566189811446e-02 -4.577775890077626642e-01 -2.228826691390818279e-02 7.973462287903763934e-04
2.803221085307947003e-02 8.833000248863719095e-02 -9.641130641979578364e-03 -1.811287868876593210e-01 1.194644693403536517e-01 1.327972337544461486e-02
1.182919973183811299e-02 7.660762085916726638e-02 -2.019168614679212048e-03 -8.949628098424602940e-02 -1.984853147550833322e-02 3.016557133525670995e-02
2.505077986634588610e-02 4.918195996147845667e-02 -5.021878579696312239e-03 -1.869641482962129675e-01 9.833579581708530581e-02 -1.844963405741185600e-02
2.198721149345308004e-02 4.110718626144795051e-02 7.873289452586834658e-03 -2.029132563521512111e-01 1.396165061102547233e-01 -1.882002002534468796e-02
1.825812184463323704e-02 3.978088441987313872e-02 -3.020551891206921247e-02 -1.707266176598180585e-01 1.586870392565369048e-01 3.113817021427559440e-03
-7.929727918666924780e-03 3.907143837558984395e-02 -2.001228971013235824e-02 -1.425522989634478432e-01 -4.620152502529606235e-03 -4.650968086186806939e-03
-3.709628586855536619e-02 1.578711732543025548e-02 -1.980202047063422954e-03 -3.607224409219496608e-01 2.724559038037280834e-01 3.040001007713912309e-02
-3.347535309983890039e-02 1.350873408652533952e-03 4.239737138029719965e-03 -3.270639080474585514e-01 1.474358227097695428e-01 1.338048868659057720e-02
-1.440917989666422316e-02 4.363624301127285582e-02 -2.354974233384171667e-02 -4.025227336853967608e-01 1.024824111183249703e-01 -6.994047464254838330e-03
-2.311852461434260597e-02 6.337150818678639885e-02 7.241443532910923908e-03 -3.349312135591699102e-02 5.418649715369724951e-02 -8.126726721541048179e-03
-2.527795050107486605e-02 6.861248456618759817e-02 7.356168286077324758e-03 -2.168540717437533738e-01 3.857223643772884208e-02 -6.631805118777639799e-03
-2.427976768613284569e-02 7.668393531185771494e-02 -5.898198577510602170e-03 -6.172363326636947090e-01 2.082691718323248786e-01 -5.280483228315626526e-02
-6.369083100900012513e-03 8.027723937931499631e-02 -1.028742880260140324e-02 -5.457009537433329394e-01 -3.548772235189529001e-02 -4.435166097509646299e-02
-1.187870455606176295e-02 7.711175719747562218e-02 -3.389484757375164914e-02 -7.447674193046718294e-01 8.744728200381265623e-03 -6.283875379483931656e-02
-1.921248877775044717e-02 1.053671240454276820e-01 -1.532257370831655030e-02 -4.424830875071216196e-01 2.169892190900376064e-02 -4.889378968991670710e-02
-2.677318161904906294e-03 9.294510454515801656e-02 -2.061176764549296769e-02 -4.852877934841881569e-01 3.268607779243837275e-02 -6.274395378180994132e-02
-6.889640596105271741e-03 1.204327853687086058e-01 -2.076347798436553593e-02 -3.858579408798601951e-01 -5.469669300783308596e-02 -5.440388981679086799e-02
1.631589417639888948e-02 8.630435477734475780e-02 -7.189905353416958800e-03 -5.374903034826677972e-01 1.584569980392519159e-02 -5.987919644973691696e-02
1.797394631510056476e-02 9.134297571485494593e-02 1.289557004503866233e-03 -2.316836985516493030e-01 6.881591346079521387e-02 -4.578024498442827273e-02
1.038872595685842205e-02 7.423262829332213930e-02 -9.486244553426614878e-04 -1.456820155176860865e-01 1.377157421483037603e-01 -2.821161364105405356e-02
-7.576893133563419348e-04 6.442159440574658780e-02 -5.805840847388221704e-03 -1.514667514324777309e-01 5.063675908517246971e-02 8.324515836418662842e-03
-2.850229762071021435e-05 5.643084591000649408e-02 -8.524680801467149349e-03 -2.933726921496513929e-01 -1.202476250399552582e-01 2.451083457066455945e-02
-9.149745765068398318e-03 5.742491624254975752e-02 -8.237279364703087303e-03 -2.207980582099558498e-01 -1.076553665448801711e-01 2.901749297180701917e-02
-6.931637530919080659e-04 6.471714952160260992e-02 -1.686930470395950343e-02 -2.311140617028128452e-01 -9.899713309302796138e-02 1.689930586648936972e-02
9.240090383213045780e-03 4.911257473269269036e-02 -7.862921744844847405e-03 -1.627835855068319182e-01 -9.475854839453207168e-03 3.812358129020958046e-03
7.331863592850726072e-03 5.264616844331855561e-02 -8.405675561448944233e-03 -8.444968919828925447e-02 -5.741402673403503409e-02 1.247291718875303407e-02
-4.511535921022655389e-03 4.065231271537340235e-02 2.743504966613213858e-03 -2.056737410738090632e-01 -1.956446573622143414e-01 1.243124738903841724e-02
-1.030042032527857037e-03 5.556194198616345309e-02 -1.016982869294512370e-02 -1.737421338005363525e-01 -1.366143731916208692e-01 2.464669674841303559e-02
1.580807646979558514e-02 3.462436686929338397e-02 -9.890961562018393827e-03 -1.492845401747234790e-01 -5.011008616027180090e-02 3.173783460420424862e-02
8.083427921344291459e-03 4.556774681520314729e-02 -7.460429413687214018e-03 -2.497103129771306718e-02 -6.691447891598602780e-03 2.342253800176891110e-02
2.788285261228692913e-03 3.967242794676510004e-02 -6.978307934688149361e-03 1.627861137274493400e-02 -1.702168848735845785e-01 2.669790490167724475e-02
-5.334062620244569772e-03 5.764921458316383390e-02 -4.415126039822026005e-03 -1.582794289835752141e-02 -6.264252672343567641e-02 1.177516421868982262e-02
-6.401622907369597035e-03 5.033194375031208728e-02 -9.597271103624793742e-03 -1.063973124450941221e-01 5.952512272042746744e-02 1.455853056941275661e-02
1.318775238297327892e-04 5.177712595438040133e-02 -8.798832449818369539e-03 -1.054040708174723701e-01 -9.793992764003577045e-02 1.325238540733907587e-02
1.985671541145249061e-02 4.290712612506934059e-02 -8.813977253429514103e-03 -5.600408172267920537e-02 -7.961455842379030340e-03 1.722429978984820267e-02
4.703153079216357280e-03 3.846956174393349748e-02 -4.914407615779908811e-03 5.611732364768309139e-02 -2.303332767903282230e-02 -1.932091218632315394e-02
5.791085648372834441e-04 4.442793396172006054e-02 -7.819154985008139325e-03 7.245200011796049111e-02 -4.145959953536382248e-02 -1.258595752486793562e-02
-1.192744365638229468e-03 4.468560827815076797e-02 -5.653384314715528824e-03 8.239509791293329888e-02 -3.143686889721356709e-02 -1.535759286208683745e-02
1.813066776529926628e-03 4.857046924332756449e-02 -8.418047298668934753e-03 3.413643237944476855e-02 -6.086649332451615074e-02 4.358081732748680936e-03
-2.208722114200226301e-03 4.176633829174515589e-02 -1.114066826377338448e-02 1.374127498891503929e-01 5.055798112613714423e-02 4.778029757589861981e-03
1.656544316380230203e-03 4.092619804447308191e-02 -8.685830505749253527e-03 5.960589320624178067e-02 2.046953420562136819e-02 -6.611854276239605317e-03
8.266036052025119499e-03 5.143610149343471466e-02 -2.289373526412175064e-03 6.334853632438133819e-02 -1.083555784145208006e-01 -1.189700338706932425e-02
1.062590928633752076e-02 6.092728103055811140e-02 -6.137531436038776156e-03 1.585727507606848538e-02 5.501990038099292823e-02 -1.037783064834917057e-02
1.661688554652048649e-02 6.134135780179065384e-02 -8.210667882028288567e-03 1.165380042718899278e-01 -8.417938100348246189e-02 -2.866188382211766993e-03
