-9.468990932123397264e-02 1.889151267783703222e-02 1.459499128008689972e-02 2.608859611937899281e-01 -7.463926773537848947e-02 4.857363654685518950e-02
-7.228305160637917004e-02 1.997724568217629920e-02 1.779219874114856825e-02 1.444395159454813504e-01 -7.492143018503942542e-02 4.765393893459492214e-02
-4.688446975718613130e-02 1.049655557005313780e-02 6.020763582549049087e-03 1.416454860044323409e-02 -8.559107259144807522e-02 6.023891934019087735e-02
-2.146284449990342943e-02 1.598522747419353282e-02 2.447224415120075047e-03 -7.325827525637061688e-02 -1.074335717909881277e-01 6.354717160668316156e-02
-2.114740302024145646e-03 1.641656266043733936e-02 1.095982252688643133e-03 -8.998141963378226971e-02 -1.811010001060467667e-01 5.143587597599121736e-02
2.141624471888787032e-02 1.678818393935684050e-02 2.367195643931951921e-05 -1.107773262593752528e-01 -1.695069845178623358e-01 5.655386500733818739e-02
4.110001439715950389e-02 1.954059263426621840e-02 -2.359749917759723647e-02 -1.761361804732194669e-01 -8.458441452442547193e-02 5.673055052686568067e-02
6.152322004395002764e-02 2.111750762223496211e-02 -3.883143311774645001e-02 -2.247418056764151351e-01 1.860184148242333968e-01 6.153011651480784494e-02
9.004511767407383238e-02 2.304105800256407710e-02 -4.934661536421197647e-02 -2.472278231785762503e-01 3.925529147350153569e-01 6.543651816550380418e-02
1.104577850268866901e-01 2.261001044758626649e-02 -4.474019826472375172e-02 -8.594738526049720828e-02 6.539577494890476128e-01 5.913085056933885947e-02
1.284905039740971144e-01 1.980461168653846818e-02 1.232977568035573679e-01 4.543917763850328084e-01 3.375676025850690154e-01 7.634201623086366018e-02
-2.509969974553343253e-01 1.305072815772340654e-02 -8.993466285238796432e-02 7.738058998711185854e-01 -9.553631329511119707e-01 2.789538246759420623e-02
-2.281015337920981045e-01 5.637783626866092399e-03 -2.406552037287329471e-02 4.546633279168919017e-01 -1.594354777407711365e+00 5.065204368103812249e-02
-2.036276283400567655e-01 9.212937369594062856e-03 3.461386060246185448e-02 1.176521622016684643e-01 -1.349694813306151486e+00 4.269033921271696980e-02
-1.780864064490786935e-01 1.418222230202681455e-02 3.156376332191268563e-02 -3.988393742271195141e-01 -7.452965051655623396e-01 3.700826486068489046e-02
-1.596762794609876412e-01 1.599770988806717767e-02 3.990626624604892703e-02 -4.197083234334481050e-01 -3.904587525894622213e-01 4.573062409676537793e-02
-1.372755726352289929e-01 1.088429295265028011e-02 -1.083120612952820361e-02 1.363419538194617087e-01 -3.047566843840363027e-01 3.669122932111505003e-02
-1.218975560421224763e-01 7.566725060013252888e-03 -4.263709584071739833e-03 5.239632177675374036e-01 -5.448406027031411636e-01 3.146066882095775036e-02
-9.637678029606601415e-02 1.118599110336820045e-02 -1.759711280017411950e-02 3.826872265933980444e-01 -4.256011320234276973e-01 2.917043774963892430e-02
-7.753587185228200118e-02 9.416361564832088915e-03 -3.065465914348808329e-03 -1.244573361253264038e-01 -5.206381725489636070e-01 3.487735493006192955e-02
-5.913392265173310347e-02 1.274729967834878006e-02 1.833843061701256882e-02 -2.194638575521644375e-01 -4.966663037731399166e-01 4.714391637297594972e-02
-3.554124559890262103e-02 1.095802998530830304e-02 2.134390296016508426e-02 3.661753596465047722e-01 1.342752451449416053e-02 2.833669755712148533e-02
-2.133179521979411061e-02 3.168705588632872439e-03 -8.972749857084758029e-02 9.171961148406073683e-01 -5.158916901282107892e-01 1.541902631513129146e-02
1.335532461930782205e-03 7.769988580188682062e-03 -8.827354001386089610e-02 3.728101238076049206e-01 -5.216512839522839950e-01 2.099154938995874409e-02
3.040309222284041588e-02 8.413030214789190067e-03 -1.482339458307506963e-01 -4.999357856634497055e-01 -8.231936309024792120e-01 3.317771580771656376e-02
4.749719539941747726e-02 1.515776886446004029e-02 -1.362134847193404719e-01 -6.224869616282830975e-01 -1.091419078224159955e+00 2.877338784495387519e-02
7.712503304358267475e-02 1.675370971186038171e-02 -6.719504454056757226e-02 -1.593017256630041567e-01 -1.175480883764403073e+00 8.260128792259204683e-03
9.422545628011361196e-02 1.693903119140478114e-02 -6.527411733825594364e-03 2.894862586835908469e-01 -1.208178539930011786e+00 5.351943112630058556e-03
1.151239972538907474e-01 1.206498700269233171e-02 1.989854798663592828e-03 3.244136115184602098e-01 -1.034528971384659712e+00 2.883512188011054392e-04
-2.611067361352552019e-01 -1.707471834416685388e-03 5.811112605354196159e-02 1.013973677041400123e-01 -1.056449008102714471e-01 8.555447553330734409e-03
-2.335554356869237458e-01 1.013831678717137807e-03 6.875564634647751694e-02 -5.164649631886863990e-02 -2.287000106847019987e-01 -8.776330813905468134e-04
-2.124843074500551154e-01 1.746497017596389256e-05 6.342862685476113871e-02 -3.486146745126963986e-02 -2.485645639556104125e-01 1.175460273476522030e-02
-1.962007134347270865e-01 2.023686537138948138e-03 1.806361130135630821e-02 2.194816423926600757e-01 -1.742894867214191679e-01 7.740409072306679919e-03
-1.759249562821408874e-01 -3.088681170673002879e-03 9.817333376969716863e-03 4.150523666536550249e-01 -2.624165959488039546e-01 1.959372435715491662e-02
-1.548304733191647187e-01 1.683604371234563926e-03 1.180686759620325210e-02 3.993524705105352401e-01 -1.631255355916329253e-01 1.959144578819824872e-02
-1.330783554419673331e-01 4.773542819408244792e-03 2.431669356823096262e-02 1.395755545330311098e-01 -5.746474318561222150e-01 1.962970071447427481e-02
-1.126592190871932575e-01 7.798009379234493478e-03 3.114979526813943522e-02 -1.037158490372852571e-01 -3.497083942913996046e-01 3.055163378744231092e-02
-8.816032947972732292e-02 6.177586799472894671e-03 3.163004674318109499e-02 -1.071630826777879020e-01 -3.090590321955998809e-01 4.384483036226415748e-02
-6.232973328382876432e-02 1.465469731940352571e-02 6.353495570128192549e-02 9.360927085940537462e-02 -4.688629553626790791e-01 3.690848441387385021e-02
-4.513411859546846705e-02 9.564292609426493924e-03 -7.005003211697280463e-03 2.272638767845639451e-01 -6.264698920019691475e-02 6.297195425967805349e-02
-1.539046199818186814e-02 8.167003595405047250e-03 4.343674201184810624e-03 1.668866946684926245e-01 -6.283613500910738281e-02 4.802923780966605188e-02
7.697567275798299774e-03 3.550314287049469858e-03 -2.221349894497726130e-02 -5.041974740235008121e-03 -1.391923475824017042e-01 5.157896991704051526e-02
2.126809874860214819e-02 -6.839978333630369889e-04 -3.077186696586170500e-02 -5.388069390452351198e-02 -1.727371598089087190e-01 6.463621701942377784e-02
4.009662868876437414e-02 -4.225804336875060505e-03 3.435199616770412412e-03 6.003206587385347820e-02 -2.359405922230312924e-01 5.673248613434449944e-02
6.508505621393831375e-02 -1.145575612339429922e-02 -1.237001967725398499e-02 1.541774646867690168e-01 -2.978769651725693413e-01 5.597040260398522538e-02
9.075884998489969213e-02 1.564965337004153509e-03 -1.020221979137647672e-02 1.782649715390703660e-01 -2.298338615396575413e-01 4.362172819408361574e-02
1.088754534815632030e-01 5.527916197711805167e-03 -3.469049444922162051e-02 2.414339201347738828e-01 -1.819298208730757982e-01 5.241789720118984752e-02
-2.723852080788773944e-01 2.109290298394100871e-02 8.106727258246904100e-03 -7.013071069224843801e-02 2.258143631628051484e-01 7.514619775285427683e-02
-2.503611327783435980e-01 1.732210712337145520e-02 -9.169873309768095115e-03 -3.575710862171734006e-02 1.168072398122252109e-01 7.890242867348079558e-02
-2.300387490851797390e-01 1.499917771788704043e-02 -1.261054427584173965e-03 -2.901916461779522824e-02 -1.200115668361051713e-01 7.243081464047822216e-02
-2.023185942499305390e-01 2.279658614714292347e-02 1.657045868245493603e-02 -6.193053487947177554e-02 8.021376370926568133e-02 6.386690044390441745e-02
-1.836333451069596945e-01 2.449160058874455884e-02 -2.258261660503357859e-02 -6.300642430053475518e-02 -4.170395515001516090e-02 7.536377080618186786e-02
-1.623906301202747426e-01 2.985526816342327222e-02 -2.825941336364323764e-03 -2.250589406845380502e-01 1.195044519410035089e-01 5.130463576400789288e-02
-1.380746107041380955e-01 2.224250597681724784e-02 -1.011830983309397469e-02 -2.155463278989012132e-01 1.739297214479754716e-01 5.038546179956544108e-02
-1.150882819885954977e-01 2.705225763659482863e-02 6.831944168857462252e-03 -2.600816007098416885e-02 1.805193110268047407e-01 3.733724562805912361e-02
-9.451111846341288258e-02 2.006043289838146254e-02 -1.217593148905532496e-02 2.218964212335760022e-01 8.963119562268366536e-02 4.035603885420206705e-02
-7.185005282554884909e-02 1.903990306457983839e-02 1.395357568323879471e-02 1.079357185781565642e-01 4.099822260886287761e-02 2.678925851674455322e-02
-4.700242246828452430e-02 2.202143787392669971e-02 1.475193633225008183e-02 -1.711497988007689708e-01 1.581002200850237516e-01 3.592751833056257588e-02
-2.212454781765038278e-02 2.281761247683623123e-02 -3.325251897778364052e-02 -2.306635706667755914e-01 3.541919419136640990e-01 3.576558127450014252e-02
-1.020938655934045328e-02 2.595339814219032454e-02 -1.731542593799184626e-02 1.119957822908753814e-01 6.084269564153347298e-01 4.096942984401530374e-02
4.028864908150301544e-03 2.721079481877780593e-02 5.488420738345223260e-02 3.779416786658323923e-01 4.265873368836990420e-01 4.148018797698574400e-02
2.986307026957875366e-02 3.181155108831038025e-02 -3.093387542027981052e-02 -3.227122230528667313e-01 6.058012500019014368e-01 4.137659065455774610e-02
6.537764862835405977e-02 3.729070226989884829e-02 -1.675819190781505097e-01 -1.069260695788825544e+00 5.133272821830894284e-01 1.603947044889800569e-02
7.956474838822051587e-02 3.569458427451821514e-02 -1.488600609405825448e-01 -9.289178542017769713e-01 5.924170964440653719e-01 3.763598446983338480e-02
9.983987406366555406e-02 3.425039624776257674e-02 -5.584873906751863792e-02 -3.785507973574901985e-01 5.260136617859950681e-01 4.986506484096167591e-02
-2.517126533503438734e-01 2.486337946243874497e-02 1.443921504993866956e-02 4.366661253888506899e-01 8.517992470351303967e-04 4.916360193503744452e-02
-2.296277065561758701e-01 2.403373290524757344e-02 3.795253743878945762e-02 5.798249986123426014e-01 -3.238941309654794765e-01 5.111220001204142688e-02
-1.983896082743613620e-01 2.858847202146254027e-02 9.882238075631877283e-03 2.887165535363385716e-01 -9.813772695892878165e-03 5.091945939222355250e-02
-1.756400870019983185e-01 3.213602276274542258e-02 3.510869258424981210e-02 -6.505887703328929947e-03 -1.277287995174973545e-01 5.464285061972006668e-02
-1.635440324509400134e-01 3.130422127963821549e-02 2.215544695388127483e-02 5.631571324761003305e-02 1.995261023103787335e-01 5.474247894728875158e-02
-1.369854711971137950e-01 3.106511873274977326e-02 8.677854961997355510e-03 2.082873311129647687e-01 -1.140391874818474580e-02 5.293952614212156516e-02
-1.122475704792930684e-01 3.027775609926175449e-02 -8.954058103174955541e-04 9.101010891981752005e-02 1.774186785346661688e-01 5.613601116804092100e-02
-9.471961979743526161e-02 3.451990635056442075e-02 1.237471139236950846e-02 -2.258490180932617164e-01 6.387993081655128635e-02 5.426512361797430212e-02
-8.025268045155969920e-02 3.591063891593954116e-02 -7.417599720997036794e-03 -2.702590604901305982e-01 3.573466806499267512e-02 5.213875514490548535e-02
-5.679107899225940836e-02 3.753355347683821897e-02 -1.602276287269055466e-02 -9.485805820599901850e-02 5.042972845305099261e-02 4.629485936651222405e-02
-3.193222118358247930e-02 3.999517319379349012e-02 -3.096128903244449448e-02 1.099837739643578366e-01 1.222223850421827636e-02 5.061074463923449784e-02
-1.524369890149032333e-02 3.834499608967017331e-02 -2.704901140627008482e-02 9.683229390794720337e-02 1.618303212183229145e-01 4.441738558190380659e-02
1.572668183004231890e-02 3.782903689724082669e-02 -5.487798010315314556e-02 -8.572471930001598905e-02 1.228063819429153214e-01 3.066806687160635730e-02
4.185052815168593260e-02 4.169111340747235633e-02 -7.643728951555697759e-02 -1.579675074371836574e-01 1.684011220657991581e-01 3.076023602174982399e-02
6.584796628633567128e-02 4.135028576179639037e-02 -6.323668459323056323e-02 4.931448148576490775e-02 1.486916076434176837e-01 2.546769608333558643e-02
8.702193816817566097e-02 3.891955426164037113e-02 -3.759116972382120503e-02 3.105397330463277039e-01 8.171775978646170224e-02 3.518349375724839218e-02
1.078822252133039977e-01 4.073289231498191526e-02 -1.545660063133080797e-02 4.291297037322134300e-01 7.951974819678006567e-03 2.530543469383614991e-02
-2.635834427591056683e-01 2.246770341707176460e-02 -4.222065260635371464e-02 6.792456670314352962e-01 -7.989916952706711539e-01 2.098304231986672375e-02
-2.387381957623629924e-01 1.765549299376100584e-02 1.888432151494945366e-02 4.414933037656183501e-01 -1.234493712469865612e+00 1.960557406517781515e-02
-2.104925300057683413e-01 2.704533592566574218e-02 -9.490685934552711700e-03 2.347326703732345310e-01 -1.278890118212969496e+00 3.370700754358522955e-02
-1.851741290062162149e-01 3.218255006759822290e-02 4.394156316809300078e-02 7.719415956400012269e-02 -1.058438338903138876e+00 4.000243542951648773e-02
-1.673160039947893529e-01 2.641506856151019933e-02 5.095304753582768909e-02 -1.827651794055415724e-01 -1.021252904453071597e+00 4.121103763493561001e-02
-1.437806887085400220e-01 3.459248963174041402e-02 5.535855756506957714e-02 -5.265143334065931491e-01 -8.253058964816489818e-01 3.973755122208224438e-02
-1.161378468938956549e-01 3.684210864934395202e-02 5.686192525729188985e-02 -7.171249536309494133e-01 -5.491294993471408370e-01 4.442651877861975018e-02
-9.187390170181712612e-02 3.789995830912940011e-02 3.830596631210009262e-02 -6.780403600505040540e-01 -2.240939187190515991e-01 4.504989987102304277e-02
-7.251201396145380562e-02 3.967352958169255428e-02 3.939160565734206587e-02 -2.356915656992883135e-01 2.578328225861555856e-01 3.824185546648144890e-02
-5.308734787320597975e-02 4.111189489443868583e-02 7.930576812876144466e-02 5.670288342466684589e-02 3.078432654685894776e-01 3.843192759903298755e-02
-2.340976016242271585e-02 4.275324053817598779e-02 4.337223825442970693e-02 -4.909687399653790973e-01 3.783241400948746946e-01 4.335913927264339884e-02
-9.227583641882586285e-05 3.904707369423537910e-02 1.823216697524349117e-02 -1.083767702758802187e+00 -4.181249930931250636e-01 4.874582446252584411e-02
2.532865424926427494e-02 3.778099933473232086e-02 -2.086670470824403267e-02 -1.087106358306671350e+00 -8.463297060263581528e-01 4.134647073855240301e-02
4.399889063391692473e-02 2.882872065759252422e-02 4.511450531351390847e-02 -5.242434419067154572e-01 -1.251100906675075342e+00 3.584969850715163248e-02
6.777688073636982391e-02 3.118239484173418452e-02 5.330009959670545250e-02 -2.654193392374657456e-01 -1.212163985924440635e+00 4.605245260184485240e-02
9.156587029171073255e-02 2.930049988857299711e-02 1.548871124056983017e-02 -5.282772908040768156e-01 -8.983731057452936097e-01 3.596295263020807959e-02
1.103224477964929034e-01 3.260620473066169756e-02 -6.952803997939699387e-02 -9.384158056374511947e-01 -5.459818919396530745e-01 3.685142388092336324e-02
1.407075723538333545e-01 2.382485601076099122e-02 -1.365059812680409213e-01 -1.324107809311557471e+00 -3.755429745541220554e-01 4.231054715391820154e-02
-2.355413490054601711e-01 3.102851725120900350e-02 8.074287767382809511e-02 -7.744999908553112933e-02 9.427651713256028909e-01 5.622722496233804879e-02
-2.098329361954273664e-01 2.676676838837391270e-02 4.718595395793545588e-02 5.049944645556359718e-02 8.551388174667997610e-01 6.584500050066471877e-02
-1.950389452997495776e-01 3.044169133846437447e-02 3.915991486186254367e-02 1.238815437386654450e-01 8.391705282875857597e-01 6.722568077611044968e-02
-1.737550373277729765e-01 3.319825064698285477e-02 2.591241647446440588e-02 7.035474646848442759e-02 8.303142169155450780e-01 6.920034614653650107e-02
-1.522506494285182643e-01 3.066501508846881247e-02 5.444065460824898395e-02 -1.988781933445277553e-02 8.094779179078350762e-01 5.318800193973752949e-02
-1.184570418172682382e-01 3.706227623898949997e-02 2.094656861089905231e-02 1.014791151646257661e-02 7.240673626321886269e-01 5.606713017715894698e-02
-9.457453387816631973e-02 3.347156063737508069e-02 2.813475737355075612e-03 6.077727845648601274e-03 7.277365476542851930e-01 6.428030626560980731e-02
-6.787925724701764085e-02 3.446966966936265003e-02 -1.076031820700901198e-02 -1.204044654925053026e-01 5.808904885986150290e-01 5.484529365071263290e-02
-4.140367085401851222e-02 4.298822832253319792e-02 8.175353102938653915e-03 -1.558073970131882979e-01 1.752248833176816567e-01 6.322933296070469555e-02
-1.986493878646872560e-02 3.721432796967427681e-02 1.391159143661779840e-03 -3.565708675977991016e-02 -2.898895433965834045e-01 6.732267125526146534e-02
7.367728727301021963e-03 4.080735409395342544e-02 -2.188506644552262737e-02 -2.959689730208509562e-01 -1.542095244886693313e-02 5.084796450036605658e-02
2.840317669195170647e-02 4.561747957255753161e-02 -7.232929810944577209e-02 -8.975782425358597161e-01 4.065704969093968391e-01 4.977334586195620442e-02
5.178807209624340657e-02 5.162419710899508046e-02 -9.250133063914961484e-02 -9.205754088799299462e-01 5.842129348601544647e-01 4.713554138206071248e-02
7.265873539691106164e-02 4.800682074965328949e-02 -2.716755808739701461e-02 -4.566206358393557485e-01 9.469390811464178936e-01 4.832070390709227586e-02
8.958032854799846678e-02 5.516734221704528568e-02 6.744773056221498031e-02 -1.212044608369652471e-01 6.367259863736696168e-01 6.021359804857451259e-02
1.158639069309476688e-01 5.093430930354608810e-02 3.210929420580510563e-02 -1.483929748784455771e-01 6.708065844424991875e-01 6.252181509231995171e-02
1.384260394383698134e-01 5.457417993232541176e-02 -6.791422647650152689e-02 -6.652265226749644045e-01 6.749132902884572571e-01 7.731978631514714595e-02
-2.187604271323050631e-01 3.039149741054493134e-02 9.756960586063678775e-02 -1.032699253383551730e+00 4.652319826145953630e-01 6.213907238989722914e-02
-1.956944056694061851e-01 2.929703983929923122e-02 4.438409585993546846e-02 -8.839638160346103835e-01 7.140642402178261072e-01 6.828541183742380116e-02
-1.730586290225676893e-01 2.404438117548218096e-02 -4.238704188882669310e-03 -3.820548252929504840e-01 6.389276223868594062e-01 6.282206315780831940e-02
-1.526576891472663511e-01 2.956697074300874972e-02 -1.410911944331760814e-02 -2.512512768805964525e-01 7.123436452634839267e-01 6.043633680845122286e-02
-1.284859073664019746e-01 3.129763557812563490e-02 5.088179450605651022e-02 -7.611581719939253254e-01 6.832054307296249185e-01 5.307101375202728788e-02
-1.027125563352240256e-01 3.052126863643116889e-02 6.226244390099244796e-02 -1.403559907389221317e+00 8.326344481227768712e-01 4.707517954555467954e-02
-8.055466370043731783e-02 3.579690388397988726e-02 6.534518008909911968e-02 -1.275665095118239334e+00 8.042523748825750607e-01 4.184413752071788201e-02
-6.157242058100560050e-02 3.112339679201932968e-02 2.132964091697658882e-02 -7.302863770304739433e-01 8.206978035123615456e-01 5.432441299004259899e-02
-4.367601508266408944e-02 3.033590256672176466e-02 2.634939625493792903e-02 -3.301130219358723861e-01 6.587564048958999274e-01 6.700650995700170587e-02
-2.327122548524750145e-02 2.925261013361032253e-02 9.449582063040973257e-03 -3.591698193804631623e-01 5.721496451428160768e-01 5.606414722036329179e-02
3.773776089234816972e-03 2.902500875877779205e-02 -1.968650086868473092e-03 -6.167873526734228840e-01 4.098578813834152235e-01 4.876094669179315694e-02
2.707381751998954797e-02 2.828055670523678400e-02 -1.636560997417990659e-02 -7.421021206277748083e-01 3.832204711230136063e-01 4.429946360150602280e-02
4.608303242840983138e-02 3.819848565830025883e-02 -4.176581906808307654e-03 -4.736946328656584937e-01 6.992958911588024185e-01 5.565435076493751437e-02
6.770102532720365107e-02 3.111131727434870292e-02 1.419182170501570583e-02 5.037279424768428826e-02 1.392476126630695754e+00 6.019466220071983259e-02
9.563931025277597198e-02 3.177934431005566968e-02 -2.966420712451162123e-02 -5.866605775149086321e-02 1.619446561223115477e+00 5.644540804249421895e-02
1.284201565283499269e-01 3.776835811936088416e-02 -1.876571933929604974e-01 -1.153439677321812296e+00 1.371824815203831704e+00 3.876729388948815802e-02
1.497901619946742369e-01 4.452975287063254406e-02 -3.005575829328844262e-01 -1.976732797683249832e+00 1.079667913747897723e+00 2.076271846167820900e-02
-2.056816605960320732e-01 5.486981427801821895e-03 1.570477884104543587e-01 -2.041780277267225829e-01 1.275022005419020887e-01 5.245313222607993903e-02
-1.892176203273142898e-01 5.394790265132278981e-03 7.464688672408359427e-02 5.959218851068781575e-01 3.782570321332995311e-02 5.540652735539594587e-02
-1.668700228044273093e-01 8.309106660171310110e-03 1.675569409943489241e-02 1.016894590631906903e+00 1.638301940088685571e-01 6.504479161427734191e-02
-1.432829467533559831e-01 9.079739148519245379e-03 3.272826919845711613e-02 1.027537640545413744e+00 3.340409146728007816e-01 6.247714027892033173e-02
-1.222436960197162414e-01 7.048125763347254033e-03 2.422774022440637998e-02 8.606441488192606570e-01 3.852462828498833258e-01 6.749010055889466397e-02
-1.003259620572112126e-01 8.543006599652479272e-03 2.485997383752258649e-02 7.410737236855403642e-01 3.057327198878662666e-01 6.169057829038872287e-02
-7.978215817323229542e-02 5.792512605852487631e-03 3.196013919183188223e-02 8.392486106816533509e-01 -7.549160919022286642e-02 6.541477311538604344e-02
-6.001291371839600347e-02 1.189729242150168627e-02 3.055579909269795502e-02 8.837512456039623432e-01 9.705027645207159326e-02 6.280027821662192977e-02
-3.618755331543243442e-02 1.727203771227064921e-02 1.915278120867458522e-02 5.260302378573286086e-01 3.624472759479165918e-01 5.912186463451231389e-02
-1.144352726030579796e-02 1.378355435799889089e-02 -9.884927272151844413e-04 3.304813453872594287e-01 4.329320490854702275e-01 5.613083377213809455e-02
3.502763954700050669e-03 1.369105542136793766e-02 6.034385330007607795e-03 6.129443384320133470e-01 6.101921736421469511e-01 6.393561157642928261e-02
2.493059225509923829e-02 1.489335630080706324e-02 3.342558210294960253e-02 1.051900097158489755e+00 5.873169029934602881e-01 6.296105454522729628e-02
4.544268457078638745e-02 1.488845111798245413e-02 6.030710147589185555e-02 1.252614437686988325e+00 4.325189395169382611e-01 6.084855450615406225e-02
6.658708740631941181e-02 1.243986084498234154e-02 4.616557795754905325e-02 1.206865847382871948e+00 3.086215332974876491e-01 7.593702174653603476e-02
8.879032114180240853e-02 7.005761369145163328e-03 5.065316981601414303e-02 1.137170241671585869e+00 1.421927962971804571e-01 5.913394635965002477e-02
1.098081389855588286e-01 1.314721916202275277e-02 3.479349886397553604e-02 1.096308789308422016e+00 1.870485140034149063e-01 5.527797075186328263e-02
1.254180581268394823e-01 6.994691946561716958e-03 3.131406687306953485e-02 1.237617409766712973e+00 1.109075841526764999e-01 7.235546519217761485e-02
1.419214614129802599e-01 2.590895803076905500e-03 8.397536590406512458e-02 1.352267415605794998e+00 1.430666871082258707e-01 6.922356772280433002e-02
-2.077391509118147461e-01 -7.226282845607627861e-03 -2.150382207944434576e-02 8.293409485595022723e-02 5.215817273584955061e-01 5.159405362312975002e-02
-1.906194823536105643e-01 -1.019788031132249674e-02 7.085783024034675304e-03 -1.694398482465957478e-01 3.958817420436320234e-01 3.426307075574889366e-02
-1.696352225068447073e-01 -5.569056653420435127e-03 3.237602363951092022e-02 -2.338975863161447399e-01 3.096420346671081014e-01 3.807275871671422091e-02
-1.536528464846684539e-01 -1.042488283664369172e-02 1.262259524305542335e-02 -3.638256314449293122e-02 2.310053183600962179e-01 3.179905705770753876e-02
-1.445989700700913427e-01 -8.656117485980047502e-03 6.402182675470213802e-03 9.897221503953626542e-02 2.111986128357195569e-01 4.610773952969562939e-02
-1.260099080111400649e-01 -5.409864222333653563e-03 6.446491055958347705e-03 8.865840740291638933e-02 1.981968451312662305e-01 3.831559259842692161e-02
-1.107400606210664079e-01 -1.873619890397646218e-03 1.777062161917958294e-02 5.026252599600634051e-03 2.396790450011889451e-01 3.538271816878867798e-02
-9.224573477134438704e-02 -4.667142106847255861e-03 8.798653671593270609e-03 -5.097911111559309122e-02 2.089133742148770456e-01 3.355154985718079852e-02
-8.010051352921562784e-02 -6.483800955425155291e-03 -1.123484079533548785e-02 1.094099290961564747e-01 1.430185795149921946e-01 3.088607554570556302e-02
-6.952399347597526535e-02 -4.718621645332179287e-03 1.417118669101752326e-02 1.681088843513461883e-01 8.544881711645777034e-02 3.627364745487655223e-02
-5.583306930674884067e-02 -8.135805610494121695e-03 7.146724495236012054e-03 1.142219760002700091e-01 -5.881516611602093450e-03 3.214199775436203665e-02
-4.864331759152959456e-02 -1.005954624689026772e-02 2.448397500482935030e-02 -6.828571984172383813e-02 7.923016661509758862e-02 2.612215133636334660e-02
-3.148184745372824972e-02 -1.094847684886277213e-02 -1.424442008239656943e-03 -2.421045546439463958e-01 5.383007034718348405e-02 2.303115396668645523e-02
-2.204399408750336298e-02 -1.240858796193399297e-02 2.598824156352158576e-02 -2.080466896173360780e-01 1.104224112670797175e-02 1.636816656456233088e-02
-9.739315074421203700e-03 -1.340965726430923613e-02 3.089346181768271027e-02 -2.084020260970134014e-02 -4.693616821077347540e-02 2.560624476714275233e-02
-1.510731979370939781e-03 -1.655960155982600518e-02 5.017034497757894007e-02 1.535555316348377608e-01 -8.181940242998080037e-02 2.851671971999342539e-02
1.100288350812989729e-02 -1.205716646352292254e-02 5.085787872626756911e-02 1.979064894332955571e-01 -2.497897315217698089e-02 2.479006165140119899e-02
2.105935445161367589e-02 -1.343169784708398394e-02 4.241870031071665048e-02 1.667096124060140627e-01 -1.093589188229085289e-02 2.788646104158479244e-02
3.039350244165631154e-02 -6.819708479385962197e-03 2.822957187949204361e-02 1.540301189045054087e-01 5.463103184634336001e-02 1.999071737939320595e-02
3.739830906218169493e-02 -1.367977209319125309e-02 3.602368281949697160e-02 1.958460559403532586e-01 7.220991013992000829e-02 2.149396121730799344e-02
4.545822940392565265e-02 -1.244598144138734513e-02 4.810389412751742144e-02 2.509793793979578358e-01 9.285128903858583249e-02 3.455509810666261561e-02
5.348037907759860266e-02 -9.634777689962898198e-03 3.909442264721924021e-02 2.947513591149647505e-01 4.727443917282460328e-02 3.733975123068075663e-02
6.430521210907075291e-02 -1.366902538337598158e-02 4.881499885448259413e-02 3.262604874626732210e-01 8.731049693122282240e-02 4.166215513597536918e-02
7.396550277006390395e-02 -9.307808448313623084e-03 5.323792229903157036e-02 3.142761543734587937e-01 1.053766733835844321e-01 4.241165366943164955e-02
8.201111518990542026e-02 -1.604451063180106773e-02 5.668173142171861745e-02 3.332397236419914477e-01 1.598214380179155680e-01 4.317310584246126376e-02
8.712114220232554385e-02 -1.483628285441706413e-02 5.049978352299439033e-02 3.311130013715612441e-01 1.486756736984853611e-01 4.281738030699754755e-02
9.496019666818240890e-02 -2.023005497003185077e-02 6.330107183909355895e-02 3.489686128196040071e-01 1.531494720491361761e-01 4.895186433042823804e-02
9.956652680537414479e-02 -1.831024519146669249e-02 6.503788367720608754e-02 3.978639722744417018e-01 1.832747805482692338e-01 4.584021971833940334e-02
1.022777766958753443e-01 -1.985990801065175629e-02 6.579481265397940648e-02 4.025152808459523945e-01 2.159965862210931620e-01 4.333282464569322007e-02
1.070101593524667438e-01 -2.430991066300152922e-02 7.481223611141846197e-02 4.306114089489758157e-01 2.269307192002501250e-01 4.795700842748303050e-02
1.132966438883820648e-01 -2.545106525065746889e-02 7.224689077004831095e-02 4.445412709735639400e-01 2.554482378684905242e-01 4.044614049747512208e-02
1.137223426866024734e-01 -2.096160364325892408e-02 7.714006609773449430e-02 4.721160625443382997e-01 2.741428181070414971e-01 4.454855330204127162e-02
1.174877126921546888e-01 -2.260187183456329602e-02 7.634680643347063755e-02 4.898732433875154779e-01 2.858170829373207211e-01 4.529950111829567083e-02
1.213527481855451867e-01 -2.201791372292141724e-02 8.277867570493702143e-02 4.993166634089857281e-01 2.618103719520396000e-01 4.192156971140225535e-02
1.279818494617769586e-01 -2.848009313415811664e-02 8.102394081094621558e-02 5.219723030012324294e-01 2.306588405478108839e-01 4.416904633687657872e-02
1.315947820650547884e-01 -2.310818368199017009e-02 8.363212317367679782e-02 5.103094464138524522e-01 2.338340924739533699e-01 3.554603918481072378e-02
1.388430890579557264e-01 -2.602605503237152146e-02 6.941694673984272201e-02 4.596534867036425331e-01 2.619169018513925473e-01 4.005252014731949112e-02
1.413185272658926683e-01 -2.886915902254003075e-02 5.671359128962899510e-02 3.900143146093933977e-01 3.028064838636597700e-01 3.700895553000585481e-02
1.431856397064009412e-01 -3.171041095882028843e-02 6.189013022114447926e-02 3.541507474204243500e-01 3.384683761237904931e-01 3.533572213849306420e-02
1.448298514392187264e-01 -2.847727585669544009e-02 5.084735851154026376e-02 3.319249975157472776e-01 3.205986153283969520e-01 3.384548371004267309e-02
1.446053332565727101e-01 -2.930026442786587415e-02 5.196984328691467425e-02 2.974166184654113976e-01 3.206128865191297250e-01 4.101043020021771096e-02
1.472789316696026529e-01 -2.796370314849442804e-02 3.256832764171518901e-02 2.030810427025981357e-01 3.359207678739257741e-01 3.266774542344084292e-02
1.522416960755549609e-01 -3.353163903108234700e-02 3.715840764171252086e-03 9.152243006953314497e-02 3.149801863724930318e-01 3.634583363194018868e-02
1.507570990517039522e-01 -2.831143306676291160e-02 2.406791083045256574e-03 6.229195078354547027e-02 3.474949842742836026e-01 3.718182809728015625e-02
1.549192551287553177e-01 -2.808269678629670557e-02 6.000447783313100913e-04 7.639651416571813236e-02 3.652051517001531633e-01 3.500623473862612967e-02
1.516520305921828515e-01 -2.628630720219125860e-02 1.140518732559248072e-02 1.233123910812624485e-01 3.745008948108913271e-01 4.185833008784094894e-02
1.551167424626247737e-01 -2.839245739498452020e-02 1.788221324287908587e-02 1.521931841348751202e-01 3.744614724658728022e-01 3.860359190148272834e-02
1.561830236350401080e-01 -2.958807021566737042e-02 1.175604726842666148e-02 1.630210025808271901e-01 4.250138576458992179e-01 3.624273586537234831e-02
-2.109350963237781595e-01 -2.869914356275234807e-02 1.586981040683564936e-01 -2.282377658073393989e-01 -3.557195489339139427e-01 3.968231258285259688e-02
-2.086330811312889499e-01 -2.881753625739440910e-02 1.646388688249793564e-01 -2.699713532310287767e-01 -3.600750278147888395e-01 3.759816121937183120e-02
-2.064321338301680075e-01 -2.682569363923104425e-02 1.699146345249794576e-01 -2.965086690582972029e-01 -3.530000069022914966e-01 3.780959347075187049e-02
-1.987853670058106204e-01 -2.535423678058576144e-02 1.907888367437040600e-01 -4.303262647639824467e-01 -3.758970608827919557e-01 4.736216441104663250e-02
-1.969193718900015266e-01 -2.431881470409733362e-02 2.156403599913775393e-01 -6.133214884451065885e-01 -3.843487360795634911e-01 4.266057426695602645e-02
-1.991123155302797487e-01 -2.429281476362741415e-02 2.393019208104869566e-01 -7.584097317724900478e-01 -3.770487467543324200e-01 4.412102650567655687e-02
-1.952073281486366163e-01 -2.325339220726211492e-02 2.430214407734176962e-01 -8.109906266772162198e-01 -3.822027406838093833e-01 3.963228674259858947e-02
-1.886750428871178664e-01 -2.323930936089328714e-02 2.399841032190722090e-01 -8.398276979796280850e-01 -3.576683979589910800e-01 3.672400971792063457e-02
-1.867628562152023608e-01 -1.934319312058830134e-02 2.555859573589324141e-01 -8.861833243035801555e-01 -3.577888834381061089e-01 3.400715845550335292e-02
-1.816150488069465940e-01 -1.984419322246363734e-02 2.383566178448719430e-01 -8.313975842827806551e-01 -3.445318629099534680e-01 3.875443329702162043e-02
-1.786944124153267976e-01 -2.102987065174474757e-02 2.086599882427764285e-01 -7.259527701046106785e-01 -3.137086987098942070e-01 4.294964025407035924e-02
-1.717415451006047977e-01 -2.008562684105424934e-02 1.980876796644937543e-01 -6.973846587637559935e-01 -2.534596563125554036e-01 3.668919966124402354e-02
-1.649708946617225447e-01 -1.939511446555046772e-02 1.898215353494688284e-01 -6.717420492623120687e-01 -2.043051052808170787e-01 3.540199582254875688e-02
-1.600104941900210576e-01 -1.420867015161154934e-02 1.819857490498037467e-01 -6.117357287529127108e-01 -2.113619883994190263e-01 4.199341107265732592e-02
-1.522057495540046768e-01 -1.409904424760345665e-02 1.544474504639441470e-01 -5.344884227629402851e-01 -2.305328383741818699e-01 3.902326226312687052e-02
-1.455796399439977518e-01 -1.528220979519633038e-02 1.500228700822440198e-01 -4.405233582606008502e-01 -1.822374947242850762e-01 3.679458385312690816e-02
-1.366200305042170327e-01 -1.708359763828787639e-02 1.333984240673729005e-01 -3.243219764060419341e-01 -1.499231685390685631e-01 3.497572790195251080e-02
-1.320888902257855990e-01 -1.219515779772572910e-02 1.264777321314578540e-01 -2.104507605506228951e-01 -6.490120141920403818e-02 3.969284824623114244e-02
-1.241396558230436348e-01 -5.005744785822953055e-03 1.221443488722842030e-01 -2.178274105666084259e-01 -4.745581888935689052e-02 3.423248303957972943e-02
-1.180481421083222349e-01 -9.421130549015532471e-03 1.049764924325694015e-01 -2.082059395573662430e-01 -3.575224380218736814e-02 3.701070374827078457e-02
-1.129722838950433933e-01 -1.101825667272070611e-02 9.360946031164740777e-02 -1.290360474956717685e-01 -5.205664982214200376e-02 3.288877747954070674e-02
-1.007866317055832878e-01 -8.204293246064853912e-03 8.554312646971062861e-02 -9.284169055647464863e-02 -8.883034150448970712e-02 3.700414195309145726e-02
-8.866488486308618522e-02 -7.942183211886885003e-03 4.835268454170310592e-02 2.420695388437131210e-02 -1.744199459108632111e-01 4.377249543378283758e-02
-8.434244622036478345e-02 -9.049259122955705115e-03 3.924512667444929326e-02 2.795360415950246535e-01 -3.133155627800071064e-01 3.541932880829523622e-02
-7.102486154556533759e-02 -9.602840230426002571e-03 4.542780424045661514e-02 2.881267554119688601e-01 -1.687811750657842169e-01 3.907318285208638553e-02
-6.300924348601878722e-02 -7.593298652575658503e-03 5.355397633652264622e-02 2.262880392961814091e-01 7.187677969807688104e-03 4.062938374318014745e-02
-5.316791895443148674e-02 -7.644836547920268524e-03 3.595257876131935371e-02 2.563968193838893628e-01 1.908058991518014058e-01 3.999085516941688206e-02
-4.072213019585334964e-02 -6.856871871041940458e-03 3.177758997755208981e-02 2.386133137911605195e-01 1.163106579364349413e-01 4.463088428404544949e-02
-2.733847931102210624e-02 -6.631337190099876114e-03 2.566602826067532206e-02 2.535754112106685526e-02 2.130508707152217133e-03 4.051803176392202582e-02
-1.689536387744353108e-02 -3.160472475202449547e-03 1.749511615577592494e-02 -1.587566445927194106e-02 5.324684995410200981e-03 4.537347177182999430e-02
-1.022165664141648153e-02 -6.721123580671050160e-03 2.143003454483671799e-02 1.619779095241948297e-01 1.326475260600424033e-01 4.631846300305667019e-02
3.160196048673648977e-03 -7.127659959405318810e-03 7.207117704115362233e-03 3.118944933277651987e-01 2.836659037106154524e-01 4.740863771038513613e-02
8.478256494571876495e-03 -6.275262227430087117e-03 8.102307560973354139e-03 3.762985447561797980e-01 3.175155895224461844e-01 4.971918626262766816e-02
2.523460715759162989e-02 -3.672424653947807885e-03 3.460248967352697047e-03 3.851435929566330851e-01 3.054624698440249753e-01 4.257949377243475803e-02
3.460772434685113752e-02 -3.838781007827269526e-03 -1.182805516247836808e-02 4.527639121134838796e-01 2.609335682736393935e-01 4.543046876095377384e-02
4.643650876446818454e-02 -5.632311479188042633e-03 -3.246571555674931941e-02 4.851716091777119044e-01 3.114615687139109523e-01 4.544901202472732132e-02
5.829018261114325694e-02 2.617653634884718750e-03 -2.742028678333813252e-02 5.000585955276255490e-01 7.422760929239874406e-01 4.080262123843615696e-02
7.187562116428636294e-02 1.090876267986446747e-02 -4.806961415725397035e-02 2.937378305981627746e-01 9.246188721502802688e-01 3.448188060142386852e-02
8.616886738640688881e-02 8.940676486663443751e-03 -8.373775931150440055e-02 1.212859709386038543e-01 9.144145178686559072e-01 3.860546681306431527e-02
9.958969645533928550e-02 1.149427533921126669e-02 -8.734945530045429285e-02 1.388633841579327566e-01 8.942278050100885833e-01 4.089878649720670584e-02
1.154181412696396597e-01 8.452973149017875207e-03 -1.122905349058417324e-01 3.684149859290648532e-01 8.515668685019062156e-01 3.350270893882640461e-02
1.289497901610563158e-01 8.916894765700553172e-03 -8.214261801614333725e-02 4.930693931428065113e-01 1.029005328827536037e+00 3.896495294040660390e-02
1.431288933256870954e-01 9.403118680577369007e-03 -1.518021131645352906e-02 4.981865752072544562e-01 8.137430426857887866e-01 3.598392974985858972e-02
1.566323210187991477e-01 8.737135158114531924e-03 -1.178929471791492212e-01 9.755925531923939631e-02 2.754593479488435803e-01 2.681566224763599210e-02
-1.978479245624906457e-01 2.233514350653890979e-02 3.049717792891207813e-01 -2.109207067330112206e+00 1.781307884260401986e+00 -1.444334948479600832e-02
-1.955076513112463110e-01 2.352245771257280987e-02 2.944047109300588771e-01 -2.230357747124217305e+00 1.535834026648096540e+00 -2.979303330931088595e-02
-1.695057365390882642e-01 2.455718959780355676e-02 2.451962281800834642e-01 -1.918062457500768536e+00 1.520984421501166084e+00 -1.619313957046130542e-02
-1.590782387477661930e-01 2.706087403196736144e-02 1.610362433646372327e-01 -1.476020829384542932e+00 1.368063356270269981e+00 -1.786510091094900988e-03
-1.435098892336850451e-01 2.677265110467818773e-02 1.513315949361966339e-01 -1.257955786088096550e+00 1.354759419408905652e+00 1.150916202929247976e-02
-1.302833310501722852e-01 2.150053241112922370e-02 1.505406202940414717e-01 -1.231753346146274630e+00 1.039225862357264107e+00 1.781678332446976973e-02
-1.159290328791342806e-01 2.274880143352541254e-02 1.047671537319941337e-01 -1.181828293849776390e+00 8.702671120870381083e-01 1.405315963706551055e-02
-9.559259573584155678e-02 2.514803704669070494e-02 9.051839472383910179e-02 -1.079818921710610002e+00 1.119810233714701564e+00 1.939752379351835157e-02
-7.905686677489708047e-02 1.985651109215494370e-02 1.040577008477512333e-01 -9.486821347685644445e-01 1.060184367993610488e+00 3.736928952362138234e-02
-5.373078090235326731e-02 1.799612495202937423e-02 6.552360676094270975e-02 -8.304751358485312762e-01 1.004040951863857334e+00 3.576290274094006544e-02
-3.635084326349132672e-02 1.869025347771873652e-02 4.384449010112201339e-02 -4.566943273366182998e-01 7.110044042410977871e-01 5.327846744145797730e-02
-2.422906617886391722e-02 1.975246783604444126e-02 1.567359209916341367e-02 -9.987347206011099043e-02 5.583704759358345537e-01 5.076803828954893488e-02
-4.472675909265248773e-03 1.914619353160929016e-02 1.280881841715830749e-02 -1.084164283423144082e-01 6.123535798271085850e-01 5.551391993624872623e-02
1.060306396735977846e-02 1.344182448864648417e-02 1.378687142825185674e-03 -4.374822136963820718e-01 5.470371602880176320e-01 5.180050676228114409e-02
2.595360557988238281e-02 1.705594775157461343e-02 -3.262341397416046451e-03 -7.032418151588124555e-01 5.893475780963610688e-01 5.094287930964382788e-02
4.116730400204197254e-02 1.443332393953010093e-02 5.108245447762449487e-03 -5.801414206429650333e-01 5.808016088315240966e-01 5.053509905413291342e-02
5.477317584354712138e-02 2.019180005072621423e-02 7.930500229756387576e-03 -2.536754453219251526e-01 6.516876367442157036e-01 5.881249598263137840e-02
7.051093693627931425e-02 1.662973739654948629e-02 1.093399006192463663e-02 -4.667246744049979856e-02 6.972336394864826481e-01 6.851980787854310140e-02
8.507097279823258584e-02 1.650555763448693924e-02 8.324290914664633778e-03 -1.030697602197763220e-02 7.396879442092797463e-01 6.882500242037402349e-02
1.042590738251232274e-01 1.598909831987447433e-02 -5.754613133692187965e-04 -5.389434231945271214e-02 6.526258497429562322e-01 7.007414885390464421e-02
1.230978191488792256e-01 2.037998860062555789e-02 -1.914140004401493345e-02 -1.039835144386853649e-01 6.286358169111481153e-01 6.038466610216014496e-02
1.353727050837655876e-01 2.173872916702671021e-02 -1.443070566565685109e-02 -4.032002647973813303e-02 5.841508016016342397e-01 8.477929800709779751e-02
1.549635337581799777e-01 1.797523520404645594e-02 -4.643946941239596171e-04 1.475924625543629520e-01 5.054520704836139577e-01 9.605368197657702944e-02
-2.062818686689315562e-01 4.129569871338212989e-03 1.325375240202218974e-01 -8.068629592217145818e-01 -1.674993340010070275e-01 2.059114009899765466e-02
-1.867908282152525301e-01 -5.594750779558031739e-03 1.291199224217117192e-01 -9.074115406549013718e-01 -1.684563759435613317e-01 1.263588302382817607e-02
-1.662452684287241966e-01 1.486986731568058773e-03 1.498644875415385269e-01 -9.796957510608992337e-01 -1.145667725398799713e-01 2.468283178018753146e-02
-1.497837379333510632e-01 4.684318469103311566e-03 1.225528366205146380e-01 -8.369223949073635316e-01 -1.022371737662157859e-01 1.624548819977925107e-02
-1.290158191323149128e-01 -3.030516459428322235e-03 1.002569527910747715e-01 -6.501523475582825506e-01 -9.141782407940704860e-03 2.011306994241942453e-02
-1.129329912833149097e-01 -5.317884538319630344e-03 9.556132621207369393e-02 -6.211096228902242000e-01 -9.671614568272297527e-03 1.598757231294152190e-02
-9.502739279248778592e-02 -1.790490228440952403e-03 8.685844383202301344e-02 -5.976274709313433853e-01 -4.261063966633893418e-02 1.107997035370666093e-02
-7.684851096722368491e-02 -4.450864482235483005e-03 7.512901705011970632e-02 -5.423596616841763751e-01 -6.376302952566402504e-02 2.361729940376144921e-02
-5.584428855550854776e-02 -6.329751059057951018e-03 4.546420348916230258e-02 -4.307138409371614185e-01 -9.161018185772001887e-02 2.013416256031156509e-02
-4.011762122802893515e-02 -3.139846820791013238e-03 3.212891942153228708e-02 -2.967667022692785372e-01 -2.154043380979105693e-01 2.128828897462722858e-02
-1.929266299606133273e-02 -3.557871723149110682e-03 1.979023001604890419e-02 -1.440493722915488217e-01 -2.881075850391454640e-01 2.439265386922898418e-02
-3.805744764995639545e-03 5.343755469492655202e-04 1.256358552634123660e-02 -1.651923160683307634e-01 -2.163322971111406867e-01 2.894336571668197633e-02
1.754293409803166573e-02 -3.600504169447597477e-03 -1.336178345872640616e-02 -3.924293949171822060e-01 -2.173835988589102874e-01 3.009435967124818312e-02
3.669000602781297138e-02 1.191192810703061745e-02 -1.694436480102484710e-02 -4.110332587490256873e-01 -2.004926931790151357e-01 3.198153075124578193e-02
5.851536933978078447e-02 1.110050518930745696e-02 -1.089433179308979538e-02 -3.291215524769215417e-01 -1.361186968630482830e-01 2.135878907413737982e-02
7.357763167435908691e-02 8.152964271162370727e-03 -7.746726613788168514e-03 -2.034258351489888206e-01 -9.564317550859087469e-02 4.361978785534544739e-02
9.334692859810550525e-02 5.842973185836222716e-04 -1.205682545509623171e-02 -2.323542611118890600e-01 -7.041805214666020662e-02 4.662225904886132394e-02
1.131015584300930493e-01 3.672408209273539739e-03 -3.787783533976046835e-02 -3.158218874143453592e-01 -8.520546584673995005e-02 4.601043863272661488e-02
1.319882261366220055e-01 2.921629182929076640e-03 -3.554268441396762901e-02 -3.450064558942201320e-01 -4.952465535528505908e-02 5.346738706164967658e-02
1.491237567261554930e-01 1.005473849606339752e-02 -4.132188504368539128e-02 -2.475070767385706416e-01 6.858665808946415310e-02 5.089559094474945672e-02
1.647112300117754280e-01 1.407195819558545828e-02 -2.785344810657164327e-02 -1.342462745325752882e-01 2.055169170002149048e-01 4.745134334797531522e-02
-1.926669471126556676e-01 -1.014921125867930887e-02 1.070533423964932784e-01 -5.101801942933251732e-01 2.622905989593238840e-01 1.813011067094787848e-02
-1.720919536998686272e-01 -1.317890869320648140e-02 8.858112989695565709e-02 -4.648944174422723341e-01 3.282526276527706899e-01 2.525385937896822836e-02
-1.562529025152966933e-01 -1.145472940431255249e-03 8.854946302362193267e-02 -4.604602614509958336e-01 3.277302415249823686e-01 2.570579039525590012e-02
-1.284018665152769079e-01 -2.418105607408635796e-03 8.672228597472053657e-02 -2.809073802697026889e-01 2.901662592604415947e-01 4.056590517174610278e-02
-1.081344415704716955e-01 -1.033033661066082992e-03 2.223389189116642406e-02 -4.082027240963637116e-02 -3.437162587145079634e-02 5.712500924578949035e-02
-8.766663644108724229e-02 -1.026717869160830021e-03 4.068748245213682502e-02 -8.943759425939251662e-02 2.273507182169031970e-01 4.043264566933386234e-02
-6.519166166943170249e-02 4.990987637809958175e-03 3.865297633558983925e-02 -3.222486717100511711e-01 2.309346756731763817e-01 4.129135560618225897e-02
-4.815985305069221678e-02 4.494481433299678946e-03 2.642503308544236207e-02 -2.742877273377355984e-01 3.150218263761143112e-01 4.207690080222337842e-02
-2.531842491524129504e-02 3.742479875167795816e-03 3.020568572955772968e-02 -1.007326225534938835e-01 3.913647164292936020e-01 4.223607789723787115e-02
-8.887419451183521668e-03 1.378030934807348076e-02 1.796398735356491416e-02 4.098873894450270200e-02 4.021875791868659844e-01 4.324448707276817155e-02
1.171364375856221232e-02 9.151671898174321487e-03 1.245819666177278018e-02 8.606065287238851003e-02 3.796703824856366705e-01 3.228708587037447397e-02
3.486064136740886499e-02 1.105885660114972087e-02 -2.534234887003494752e-03 5.799580405596097693e-02 2.903282627617550515e-01 3.919411299787268349e-02
5.409517032400359277e-02 1.000925497262101713e-02 -1.296697245311040358e-02 2.637666268294470290e-02 2.657301875319371676e-01 3.824485439667504871e-02
7.260547979169804100e-02 7.952116219115113599e-03 -7.190402642206161765e-03 3.509653958678107810e-02 2.314465965519335311e-01 3.230735144444018409e-02
9.556874246014016028e-02 1.850412476392849712e-02 -1.896172924682038019e-02 3.266589751695297972e-02 1.919931218244371185e-01 3.889207902508227260e-02
1.116054550580869303e-01 1.821561036493193203e-02 -2.828278669727346539e-02 5.867007543306145684e-02 1.888025722465205836e-01 3.731689703788990814e-02
1.364905187241029494e-01 2.518102235469615174e-02 -4.440376911427618145e-02 3.695834045041254678e-02 -3.725428220737212609e-02 3.397266291474207445e-02
1.542529192875326527e-01 2.117869299191220758e-02 -4.359830647626178335e-02 1.175805080884755917e-02 -1.229799286488847121e-01 3.160606215038009453e-02
-1.980911709672839027e-01 1.553456518767732698e-02 1.469484524196429387e-03 -6.258485578605661459e-01 1.532424111716142179e-01 4.420011317037774584e-02
-1.719626135656765198e-01 1.369544944418759833e-02 1.109039821639273837e-02 -7.029648771421004305e-01 2.048578406123961471e-01 4.488519545780858544e-02
-1.546049192454234111e-01 1.468171025603934657e-02 4.561587869724437194e-03 -7.418460186003240642e-01 2.356656269628027989e-01 4.773408761387250288e-02
-1.354164499225629092e-01 1.731291814655257916e-02 -1.066370687725914923e-03 -6.950371613470396337e-01 2.910337872028996853e-01 4.570697875399305776e-02
-1.099805674625351365e-01 1.713684005632352958e-02 -1.010310505026196237e-02 -7.154705739921265462e-01 3.821108501474440033e-01 4.929205743958719327e-02
-8.847156745836044778e-02 1.333636487830817605e-02 -4.037771536272161121e-04 -6.834301667520198409e-01 3.960400635461532870e-01 5.660091447129094594e-02
-7.097042753679433380e-02 1.239820298402254800e-02 -1.506687040927251475e-02 -5.861937488613248037e-01 4.526596191289029014e-01 5.690118240166303770e-02
-5.525158844274331155e-02 1.038575453489226121e-02 -1.421095056338667062e-02 -3.991670572212158152e-01 4.299182621777903890e-01 5.885832737974774215e-02
-3.637094313950434143e-02 9.540162354987545903e-03 -3.285806740437663409e-02 -1.880360489164949467e-01 3.107068020016309218e-01 6.529810060068394484e-02
