-1.761751983785682374e-01 5.577110740569667796e-02 5.521902317089544265e-02 -4.156705842998859729e-02 2.446048854177386711e-01 -2.945723466056395651e-02
-1.580068121608953768e-01 4.797704435901635478e-02 2.874398298720687306e-02 5.684789967690377643e-02 2.451636756651757454e-01 -2.202815566236404621e-02
-1.486290982022215046e-01 5.486053664166927468e-02 1.704639051735840072e-02 1.413589214284056150e-01 2.774124012411556817e-01 -2.324718456766293809e-02
-1.224053123319902847e-01 4.481603000721858659e-02 2.186536639992298081e-02 1.718113872291160138e-01 3.227200955564534790e-01 -1.448850440501129634e-02
-1.125411051606961255e-01 5.151557339534931779e-02 3.284868909309901497e-03 1.774057560141746037e-01 2.814452271049122101e-01 -2.727226866906830305e-02
-9.231088326938810540e-02 4.291580394198606790e-02 8.328620060876645859e-03 1.085207116646232095e-01 3.267923347682050728e-01 -1.544582959933308436e-02
-8.653868168355721702e-02 4.532943292980272376e-02 5.122966398905082208e-03 -2.043968132959662117e-03 2.789325375289656850e-01 -2.483028385382134856e-02
-7.091731291917797997e-02 5.012189544161797794e-02 8.449582774660624462e-03 -1.051451441262421516e-01 2.335020932196190946e-01 -1.107610303544385132e-02
-5.269153449306194364e-02 4.530723658693708300e-02 6.625829578203124015e-03 -1.053057611520967496e-01 2.236253649736839877e-01 -5.015972633321185044e-03
-4.527447471347825769e-02 5.076251311503607311e-02 -1.796044080073999627e-03 -6.832627898287366164e-02 1.570302591803906522e-01 -2.030941090500606311e-02
-3.164216952406187500e-02 5.519738215701144174e-02 -9.456478501384257829e-03 -1.082628256737578482e-02 1.340244905298478006e-01 -2.325229024914099094e-02
-1.111197030650951101e-02 5.425305011540591110e-02 -6.789175139731096209e-03 -6.172123144198697099e-03 8.762704027063024370e-02 -1.370621556067912715e-02
3.522859294749595971e-03 5.662418312867355946e-02 -1.765608687240977082e-02 2.166147364063420594e-02 4.876706940368654569e-02 -1.318161545610896900e-02
2.020746081116963494e-02 4.984393643120439005e-02 -1.731251648640480534e-02 1.857530952025893828e-02 7.611648173999459310e-02 -8.221833420224169270e-03
4.028999897066934399e-02 5.152871680361095774e-02 -2.711202640288645771e-02 -4.853855729029417365e-02 1.109670596075538057e-01 -2.370583626171965733e-02
5.761799016577265342e-02 4.515125796029659938e-02 -2.049790390795808159e-02 -1.622187873467075686e-02 1.306682878991846930e-01 -1.431672152801705122e-02
7.378414233912633513e-02 4.534094167801698549e-02 -4.125168906667447954e-02 -7.445178278114149284e-02 2.334222387629074358e-01 -7.764947527261792729e-03
8.992252600773448235e-02 4.117363360516318460e-02 -3.987885343282637773e-02 -4.736868588872616970e-02 2.536037408527458403e-01 -2.412535243812374483e-02
1.066506873782284148e-01 2.494484290418524930e-02 -4.893379839486722283e-02 -4.632803996089983507e-03 3.086048152310710835e-01 -1.683598092116186939e-02
1.247248464340808549e-01 2.835702003281701314e-02 -2.916243839326887466e-02 1.901899280205534074e-02 2.877800283341588328e-01 -5.261404542586552852e-03
1.327018010783701241e-01 4.180238127803961867e-02 -4.171236334506372989e-02 -9.012974133902795087e-03 2.550801165440268470e-01 -1.747026503986877366e-02
1.532617069887326489e-01 3.937353231168061463e-02 -6.713639815723027038e-02 -5.897801557765625091e-02 3.040976916183095180e-01 -2.568475910947191909e-02
1.736972724891482356e-01 4.253158840052037593e-02 -7.119737808040454974e-02 -7.173112488341758242e-02 2.648081515257692531e-01 -2.701624052023951159e-02
1.963843787679571129e-01 3.977856899067183649e-02 -6.643128389462593653e-02 -3.472740073574404063e-02 2.652223427690804103e-01 -2.433474420735393801e-02
-1.911890757823375420e-01 3.727585841505837855e-02 1.603588239910819224e-02 1.478865971588379236e-01 4.823114509616571732e-01 1.991180031332906442e-02
-1.865612365084548530e-01 5.035917252687892309e-02 2.137245045063729254e-02 1.610191130837298756e-01 4.754864330284788165e-01 -1.288750091202028013e-02
-1.637424517668959745e-01 4.552681274305540177e-02 2.087503067218876573e-02 1.387282784347199094e-01 5.334613745162076759e-01 -6.755266640795985940e-03
-1.518820480767902881e-01 4.229959434561766235e-02 1.880362510707578316e-02 6.154926320628957559e-02 5.503943091500200779e-01 -1.266353142700001044e-02
-1.350302800397215341e-01 3.253794175303215130e-02 1.327160928680382046e-02 1.481958856134875033e-02 5.293466995810719444e-01 9.572456737404942684e-03
-1.140119404278745613e-01 3.172066852505866369e-02 1.311328388088017771e-02 -9.056964057324744591e-03 4.954621105119974556e-01 -9.198341280534238920e-04
-1.004653480976023250e-01 3.529836320400583233e-02 -2.192077015686855201e-03 4.598555935852636362e-02 4.454298082119703128e-01 -9.600333993575429353e-03
-8.121778412107595602e-02 3.550350257711451518e-02 6.351108503178881648e-03 -3.289575779282569168e-02 3.841698982835822784e-01 8.272253455812714207e-03
-6.233862362972560078e-02 2.796661313806131366e-02 8.358335231640756646e-03 -1.497636310540710614e-01 2.893541966314792102e-01 -1.654176129279491233e-03
-4.970857288079419400e-02 3.593933306772466307e-02 1.407159374828903520e-02 -2.705471571640620798e-01 2.821890234151141486e-01 -3.350062981276015744e-03
-3.176134936461276481e-02 4.891011054454749013e-02 -1.520346872455669018e-02 -2.929127169602688263e-01 1.485639598883335133e-01 -1.401315524629598123e-02
-1.214045234745447441e-02 3.585125085118293781e-02 2.135915567566487594e-02 -2.554869772207528089e-01 9.869847835295994520e-02 -6.105073978348680638e-03
1.989923053787381879e-05 4.249200003853217250e-02 -2.742589858596816699e-02 -1.643230382392067146e-01 7.670116197097540112e-02 -1.155431458983025537e-02
2.503107555757260946e-02 4.552339609859706177e-02 -8.358422975232593366e-03 -1.595680141837337029e-02 7.045872218163529155e-02 -5.872506328014056448e-03
3.839968649820969804e-02 5.551725876214352179e-02 4.531243518686056682e-03 1.705459221095984024e-01 -5.329069731130832432e-02 5.723512938022077591e-03
5.596975274664314770e-02 4.886182113501612995e-02 -2.344747424829085602e-02 1.460346765896530508e-01 7.402372049744150584e-02 3.200230150821660804e-03
8.237324821214492276e-02 4.613669397493277285e-02 -3.520103698681442683e-02 2.000802635980753197e-01 -1.412695837593649223e-02 8.213033808193604280e-04
1.007890135440394630e-01 5.006012778506231664e-02 -4.519173966260259245e-02 8.083440733281241353e-02 3.558811742518304486e-03 4.415639384999038575e-03
1.159963353008094944e-01 3.745216576097371020e-02 -7.509718508476739829e-02 6.652900710528794441e-03 -1.012708727757387211e-01 8.976589066732251765e-03
1.359101533117932636e-01 5.331577484357073043e-02 -5.674103539868813328e-02 -2.638684129548399260e-01 -6.147415557170893274e-02 -5.958217494524421440e-03
1.545690864962553090e-01 5.452286848371316191e-02 -1.387351651652288242e-01 -3.388764686771843504e-01 3.927353740473085372e-03 2.650606895913265593e-02
1.840771163913019481e-01 4.601132371962225742e-02 -6.475170632461363374e-02 -1.789474357258258874e-01 -1.297623077415001325e-01 1.244550503758926584e-02
1.968727682714555005e-01 3.936080234351691659e-02 -7.070301623377323041e-02 5.823244465963086682e-03 1.171479634596795799e-01 1.529867384587929764e-02
-1.922482431560571525e-01 4.564041349077072041e-02 9.579947352441608999e-02 -7.260871234882584346e-01 1.646185114962573082e-01 -4.577461429813218380e-02
-1.767112415835573880e-01 4.530691898700882347e-02 1.215667144860739235e-01 -9.995491770410008803e-01 1.430914314879760119e-01 -4.206832184129882107e-02
-1.582432141304692119e-01 4.836028896653810083e-02 1.463470943553163983e-01 -1.114759470833797117e+00 1.726434769250035917e-01 -4.541562336516234005e-02
-1.377061382367368858e-01 4.785793538632181904e-02 9.084808902068863823e-02 -9.291407328362734086e-01 2.695857182551590903e-01 -4.739320543480356196e-02
-1.187653690461994982e-01 4.562324690693113360e-02 8.878884684358018253e-02 -7.002123064934705488e-01 4.474333444351663025e-01 -4.117841180764793968e-02
-9.726765705446903387e-02 4.822641584992254371e-02 4.363220450229404745e-02 -3.982873787806260890e-01 5.670117932112905823e-01 -3.435626780402253888e-02
-7.533949142460706627e-02 4.061363160940356654e-02 8.499792822807827886e-03 2.633786244154042930e-02 4.998135974868509468e-01 -2.881376608495442651e-02
-6.393485162226880680e-02 3.293713133582484853e-02 -2.536108309469542466e-03 3.117740928292800709e-02 4.579929682685228154e-01 -3.722674791464034016e-02
-4.648326634760648751e-02 3.726160961206526762e-02 5.330264797636696805e-02 -3.109438656891290731e-01 4.278605999577202446e-01 -3.667553544461877452e-02
-2.213571465525383114e-02 3.684655217822618151e-02 1.749160311438846538e-02 -5.137600847517859171e-01 1.896181257548142929e-01 -4.060214875771218923e-02
-1.376105740737564032e-03 3.213347069530382571e-02 -7.186694077491950772e-03 -4.036750213318071601e-01 4.750772656231082303e-02 -3.187537919424093119e-02
1.053653637893304032e-02 4.190888604087102121e-02 6.791845531820384085e-03 -2.418153877379302374e-01 -1.970267967585843244e-02 -2.750970838178140934e-02
2.711909244448212214e-02 3.203400878576093125e-02 -1.829857290103925616e-02 -3.367884483457884159e-01 6.234616506522917823e-02 -2.400488369599065169e-02
4.512023411392560718e-02 3.738498762925721725e-02 -8.781445705603574403e-03 -4.030058211122820033e-01 -5.213246283859708508e-02 -2.639068308430303489e-02
7.105194512423454456e-02 3.431082783464230873e-02 9.672561045524719070e-03 -2.763286139728545754e-01 -1.603371782472026719e-01 -2.541972809376505382e-02
9.540688531951166396e-02 4.264987579375694587e-02 3.140659097793080390e-02 -6.025980255487598664e-02 -5.064470177090283354e-01 -1.502513758449783125e-02
1.185530525824313036e-01 4.057336190789661429e-02 1.858740569435424206e-02 2.882203267270873337e-02 -4.877013585656679306e-01 -1.161072544034752810e-02
1.364320623677786337e-01 4.713359371191611774e-02 -3.652088383195178922e-02 -3.472961317321090480e-01 -5.515484320756419701e-01 -2.381132213983645773e-02
1.563738970356496893e-01 4.375944313596574764e-02 -1.199760057023575577e-01 -8.166347493105479138e-01 -5.602131863080477281e-01 -4.397957812161322477e-02
1.764157572006395114e-01 4.645540779497547845e-02 -1.280218345802228985e-01 -8.912090167021748943e-01 -7.252117183965554048e-01 -4.333521623822796098e-02
1.974907246161897723e-01 4.696572913302461683e-02 -8.154205595637159520e-02 -6.051693097631989371e-01 -8.786708009064126967e-01 -3.105375692119923675e-02
-1.684335862764891889e-01 3.397106872989288928e-02 3.961741872099644457e-02 -6.383052234928847657e-01 -5.036073627326838054e-01 -2.506346392171212092e-02
-1.472353699192127108e-01 2.386607128764694358e-02 2.277296912394316530e-02 -5.023689174496109855e-01 -7.636271586322750382e-01 -1.328147103302326770e-02
-1.269162204323406318e-01 1.573271053585888202e-02 4.352661057908835396e-02 -6.915683702001461652e-01 -7.632359318592649711e-01 -1.291825636172555698e-02
-1.095692916706190456e-01 2.792503118679562704e-02 4.764844997176281849e-02 -8.510659788777725776e-01 -6.933934093326429293e-01 -2.695077744888425830e-02
-9.076109308923505092e-02 2.352228140691832795e-02 3.927511454232857080e-02 -7.644524914483045164e-01 -5.538537303756977392e-01 -2.284191530602466130e-02
-7.104475026019343997e-02 1.806437975172211358e-02 5.691433808669432715e-04 -4.968073296238728065e-01 -3.486587973989977995e-01 -1.785796896134787468e-02
-5.553496909554110628e-02 1.316263141184549797e-02 -3.684259890660568360e-03 -4.046153381528428405e-01 -2.882652480055398758e-01 -1.132010281911059561e-02
-3.692577117212979265e-02 1.528809729241216962e-02 -1.582064980649883212e-02 -3.668588969840853031e-01 -1.928709270520279628e-01 -1.541673136354753185e-02
-1.443381302231658628e-02 1.574223736161606269e-02 -1.435280393363436158e-02 -3.657996366219922746e-01 -1.029685407101270933e-01 -2.115651713186741598e-02
6.082438987539882241e-03 1.570156612809697760e-02 -2.659803949257061317e-02 -3.735441099137699061e-01 -2.837383651917685379e-02 -2.163259570193390782e-02
2.866777967821025272e-02 1.398611888276428232e-02 -2.818109877766550309e-02 -3.365733850880667788e-01 1.413288700191474290e-01 -1.916672084580537186e-02
4.821703664602865202e-02 1.882171417272030661e-02 -3.148784493937045736e-02 -2.568581866818986925e-01 2.736732684391733339e-01 -2.519186453191880198e-02
6.895411960918929051e-02 1.186009142856457935e-02 -3.739104994802144866e-02 -2.567318604848710661e-01 3.538822692304742779e-01 -2.144281307867029404e-02
8.920788462855830381e-02 9.040187575086140043e-03 -5.186686677116042476e-02 -3.004018896147210849e-01 3.893034628208607018e-01 -1.633660106340088444e-02
1.090993516890182841e-01 1.946644348249128298e-05 -4.718302426922738046e-02 -2.626565029548411645e-01 3.814676213554196171e-01 -7.359816466578362679e-03
1.291854684975163314e-01 1.525462046122905840e-04 -5.139340623278682019e-02 -1.246202319061727876e-01 3.015994258859803767e-01 -6.736318196412997665e-03
1.461262135762287639e-01 -4.251409921884719001e-03 -4.832570927621909762e-02 -1.386528290180906731e-01 3.756776495247185488e-01 -1.156450554623828821e-02
1.678845890180917233e-01 -8.737797636193776751e-04 -7.845272138192518896e-02 -2.469588412716863246e-01 4.674368051389894974e-01 -1.191157181573750633e-02
1.874723376105398853e-01 1.482482322388827684e-04 -1.052761748907913297e-01 -3.732173942123419019e-01 6.215628493638380991e-01 -2.495221818956732882e-02
-1.819511287409560363e-01 1.658178828212692607e-03 5.661431555845247710e-02 -3.594275734902438457e-01 3.322098324597384522e-01 -2.997978373088840479e-02
-1.601891023989683860e-01 5.880021117642108761e-03 3.311776162223162290e-02 -3.432433214001873734e-01 3.965420442218642871e-01 -2.157990181659734386e-02
-1.390054292723922336e-01 1.210225251656092509e-02 2.150357138879288588e-02 -2.926002946504077107e-01 4.270707265765268934e-01 -2.345061729118824018e-02
-1.198312991390582394e-01 1.398247383190558656e-02 9.617328878362529920e-03 -2.418598276984675055e-01 4.071877800887707122e-01 -2.810055908534840954e-02
-1.001701531923349237e-01 1.873398346346733315e-02 9.253722398477881583e-03 -2.155543443717776453e-01 3.334993976808334759e-01 -1.976568785806977202e-02
-7.733688724128180703e-02 1.709503393663884541e-02 -1.184093112287415428e-02 -2.025059352409085411e-01 3.039745556563274720e-01 -2.668762632188780709e-02
-5.373742276035262111e-02 2.190889251621191969e-02 -8.986447437242472969e-03 -2.065471208559029603e-01 2.259656107821997328e-01 -2.368474311345280039e-02
-3.261862425697195644e-02 1.774613199253088913e-02 -1.779571481305708414e-02 -2.441942355857766034e-01 2.112229782267328881e-01 -2.411139562739243736e-02
-9.710282399487124572e-03 1.023216042268308527e-02 -3.082149158822838908e-02 -2.367645378124066113e-01 1.295576840439967292e-01 -1.994208525033283955e-02
1.139179211569544062e-02 1.185055860001095474e-02 -2.686526895503310586e-02 -1.891347013334960525e-01 4.302249063807955104e-02 -1.771903307553188839e-02
3.105999394155343346e-02 2.215368157468733043e-02 -3.588549575116040113e-02 -2.501642131197688301e-01 -3.254223974174010742e-02 -2.235697404391770796e-02
5.420167508501046172e-02 2.059328978672548757e-02 -5.754608963919088938e-02 -3.966194124511980834e-01 -7.891806742968038302e-02 -3.311469918955087244e-02
7.383696310524406892e-02 1.101304655876162754e-02 -4.933678081002601523e-02 -3.722054623273401419e-01 -1.768026875978056522e-01 -2.621976535030449973e-02
9.743196329619421836e-02 1.862860387371111093e-02 -6.622742088612915135e-02 -3.198328795583831874e-01 -2.222229972952932675e-01 -3.343395330574780444e-02
1.131006722433751388e-01 1.233033665422071483e-02 -5.833358782171627066e-02 -2.292549452966625434e-01 -2.937546548014874359e-01 -1.426008523631764301e-02
1.379044800404477245e-01 1.645146290630385144e-02 -7.466308723670569969e-02 -2.666101097520017227e-01 -4.065368526477331490e-01 -2.399324508797957486e-02
1.604409905656232205e-01 2.720052975603755654e-02 -8.247811706494917461e-02 -2.937166446721146684e-01 -5.134147703243974181e-01 -3.128247627694546312e-02
-2.008243219778016175e-01 3.849298720313068523e-02 2.776575461326963312e-02 5.698736942506430481e-01 -6.603899077314741295e-02 -2.366128413678457096e-02
-1.754506834649074698e-01 3.010537320072441056e-02 1.407529695285886229e-02 5.420081981555072703e-01 -1.322909253345051946e-02 -5.106477706042281128e-02
-1.554437158735915148e-01 2.723111353988807992e-02 3.193033440824766256e-02 4.499626806914125421e-01 -4.384212934097644204e-02 -6.298642913605395632e-02
-1.368248281949561995e-01 3.940451488920539841e-02 3.228447920843485752e-02 4.259613990812096129e-01 -4.615995480355816055e-02 -3.947507594182363133e-02
-1.099803738434403516e-01 2.828610317935616875e-02 1.784268692505674991e-02 4.285615937177044144e-01 -2.242996345133691297e-02 -6.707178288643886321e-02
-8.486368194602063320e-02 3.527089197450219982e-02 2.032532770511918940e-02 4.925016422447656139e-01 -3.483055982911861109e-02 -2.952320353271796483e-02
-6.479491003942428051e-02 3.687293283487794865e-02 8.629020029424172566e-03 4.201391614159087351e-01 -8.596993828889583356e-02 -5.061989729086616846e-02
-4.642784028060754908e-02 3.430295409976608090e-02 4.365617042418223903e-03 3.310141091020530890e-01 -5.748074272998279083e-02 -6.228246538991504683e-02
-2.107785509381790087e-02 3.575343481198872686e-02 1.734601971062732506e-03 4.443052388308069700e-01 -4.436734928017357742e-03 -4.067276269160314400e-02
-4.399299821403711286e-04 3.602458060336214546e-02 -7.069781902061145207e-03 5.308160567310999944e-01 2.160378992011402141e-02 -5.170258442273564098e-02
2.510174304593270483e-02 4.130284271999661722e-02 -1.155358674292411569e-02 5.860543717174797607e-01 1.499661650162791571e-01 -4.343061614757045413e-02
4.121088815384126025e-02 3.292861592161593076e-02 -6.280973822962998554e-03 5.668024393970415575e-01 1.937781635863407015e-01 -4.135534517026685786e-02
6.487581587204957478e-02 4.307783837272506633e-02 -2.457398730904986062e-02 5.368477758215998152e-01 2.089502889690315335e-01 -5.122749162382387450e-02
8.910733954954563885e-02 4.571150687863719669e-02 -2.347299094670268760e-02 6.041196541765746497e-01 3.062382954807641444e-01 -2.737493767549498830e-02
1.113287296730800513e-01 5.803694074184803653e-02 -1.413439885716299971e-02 6.701032073624607621e-01 3.229191397027336707e-01 -5.056429395846169517e-02
1.330388034018349097e-01 5.105368588712704686e-02 -1.083799745294539152e-02 7.095655005503070933e-01 3.145181830986039095e-01 -3.180559882521214604e-02
1.583912830686532713e-01 5.135717904467301809e-02 -2.289824633493386941e-02 6.744053323261641752e-01 3.615138019136776015e-01 -5.662829878913031717e-02
1.834239830200777577e-01 5.071240027148704588e-02 -2.807452964137308049e-02 6.683200750691913328e-01 4.211993978826518714e-01 -5.600414524972562730e-02
-1.994187019263421456e-01 4.004208542002177934e-02 2.907213776457323595e-02 3.990055754945331934e-01 -1.069291617517754284e-01 -3.455841665660646517e-02
-1.789285333680006862e-01 3.637663105649796558e-02 1.882378253947097901e-02 3.410470017812001209e-01 -1.904247994860148660e-02 -3.159678115254675040e-02
-1.529070004706681030e-01 3.550192438491962810e-02 2.220260342581575896e-02 3.290362361628033083e-01 -8.654702269759024374e-03 -2.708981882285911233e-02
-1.305701802389794275e-01 4.196663519237562451e-02 2.689235863286154604e-02 3.072632629855526765e-01 -7.391893998419231913e-03 -2.852709676495011545e-02
-1.138283246084437067e-01 3.328638883909385698e-02 1.082837344769482790e-02 3.114954150790790188e-01 7.670892653845545750e-02 -3.573182296280343062e-02
-8.951380631980111746e-02 3.523627995912136102e-02 1.337905774839570627e-02 2.428405381335404789e-01 3.082345733293561513e-02 -2.842131956284311284e-02
-6.976431836339480608e-02 3.825826176511595150e-02 1.506941453618160232e-02 1.317834765273216135e-01 -1.920940075553967050e-03 -4.463737203672942661e-02
-5.031422436288628119e-02 4.635183694896466422e-02 8.646419747726175054e-03 1.259896763265345998e-01 -1.600613077709845192e-02 -5.317568506709863252e-02
-2.450045368861792847e-02 3.558010706046373095e-02 3.928085222539345889e-03 1.801513639065240036e-01 -5.558959674232261117e-02 -4.483571717896351477e-02
-2.735158022242157455e-03 4.660147751769908031e-02 -1.349939831754087827e-02 1.624939228908372224e-01 -5.541428124574636349e-02 -5.182809792748004074e-02
2.357157863216680083e-02 4.276660949563458602e-02 -1.477946094012122513e-02 5.170397156464831556e-02 -3.322392030382735617e-02 -6.109545073272622251e-02
4.576381973298566247e-02 4.784000049620960870e-02 -2.386415433486033244e-02 3.203051726734233717e-02 -5.081773967459521715e-03 -6.956226051345518191e-02
6.542832883144764078e-02 4.214089950871520440e-02 -3.087203726973536400e-02 6.659305851319945180e-02 1.875394933734281580e-02 -8.563421303673403318e-02
9.386992136853039570e-02 5.118952113141844729e-02 -3.659454294014446996e-02 1.672689749129321335e-01 7.739364262665393568e-02 -7.106131895381738450e-02
1.198142906868376184e-01 4.493084303470645802e-02 -1.706364003125176998e-02 1.950322712312242968e-01 9.838513234092186033e-02 -6.793680996051845722e-02
1.413038450027127302e-01 4.968464799360792356e-02 -5.195925013063207309e-02 1.416267961900231631e-01 4.242466229601285499e-02 -7.410540947272505063e-02
1.644034642953819403e-01 4.825156994276893346e-02 -5.055920019822501832e-02 7.149297293146844590e-02 8.252206012319951434e-02 -7.295328784389702725e-02
-1.974439753613642656e-01 2.830061179110737735e-02 5.554540882466185714e-02 1.881122329317856945e-01 -1.636162496651385190e-01 -4.355322075288253769e-02
-1.722425792658446309e-01 3.060346700463454500e-02 1.967260146450172664e-02 3.195370088030762279e-01 -1.260836087796455285e-01 -4.035129321261291674e-02
-1.467973168313436716e-01 3.776038216510004680e-02 1.950083030625437974e-02 3.888135211788251722e-01 3.343869738091784921e-02 -4.762372741559822015e-02
-1.241876791461002799e-01 3.350941400016168442e-02 1.561392090661822829e-02 4.209683354141642297e-01 1.193121655073991760e-01 -4.991682722450566795e-02
-1.030825688627689113e-01 3.035007918061338739e-02 6.258905131991177040e-03 3.576315723781185452e-01 2.157511062222716991e-01 -5.266789263191622855e-02
-8.127358939242677882e-02 3.325155205809965375e-02 -7.082675983585695612e-04 3.526023508579645416e-01 2.858899059306742596e-01 -5.031482017988652550e-02
-5.524618017597163894e-02 3.280825296353419990e-02 -9.164155443916022215e-03 3.380812388929740342e-01 2.262730137981989187e-01 -5.095939658121249882e-02
-3.071002416360927439e-02 3.580326948220544092e-02 -1.562639972185853043e-02 3.261807826335986205e-01 2.044741874579834584e-01 -5.437774278187909593e-02
-6.175409697903578438e-03 3.540672210512608997e-02 -1.896016550457568783e-02 3.496222592758532755e-01 1.415006991016456162e-01 -4.861448315605769455e-02
1.599617275627300550e-02 3.336345744296529553e-02 -2.936581861601861299e-02 2.985812370277813321e-01 1.486313411260532513e-01 -4.818271019151338513e-02
3.971316088319643695e-02 3.803588030677578641e-02 -3.480756870306755957e-02 2.528677963415703611e-01 1.469848716991252746e-01 -5.790883260501328289e-02
6.489144175523905989e-02 3.514949847350356399e-02 -4.464714047827095245e-02 2.752815521370250429e-01 2.239572707592746847e-01 -5.526204015353224780e-02
8.553697670762847038e-02 1.996164970812817907e-02 -4.388477587338907027e-02 2.844589200577397059e-01 2.197824917286565483e-01 -4.347422598168880492e-02
1.078639560899118527e-01 2.365830582238039395e-02 -6.195171348486183671e-02 2.349104642366201812e-01 2.523595898593451459e-01 -5.067120671242549002e-02
1.343194617843008754e-01 2.721290921526582640e-02 -5.317733236629673677e-02 2.341378784629871423e-01 2.055252196850371194e-01 -4.588332183242085222e-02
1.542708874907738059e-01 2.856005287094689690e-02 -6.145148617987239437e-02 2.405006733517395245e-01 2.160980131152419048e-01 -5.213387777204134960e-02
1.789141544363889724e-01 3.904519273873997137e-02 -6.130280218079375842e-02 2.635765588782724156e-01 1.937169002394280304e-01 -5.955397799539521864e-02
-1.923143139121904766e-01 1.623431775941175381e-02 3.364007058414042461e-02 2.039728652118901753e-01 -1.640162507477840870e-02 -4.791691208008703323e-02
-1.698581283138245468e-01 1.808913403609245865e-02 3.680795579479501090e-02 2.186582742461205819e-01 2.429996851000526537e-02 -4.974143054372615752e-02
-1.491824212913238634e-01 1.756484185550526503e-02 2.863953952327197294e-02 1.895677177871682995e-01 2.353487814035734593e-02 -5.968502736194632868e-02
-1.203082713642870394e-01 2.716188523517459180e-02 2.259230634750103439e-02 1.848112337333504274e-01 -8.594019642537361475e-03 -6.160830455795352628e-02
-1.005059225141435586e-01 1.726159331933695140e-02 1.876094127194938288e-02 2.085037810569292105e-01 -2.180987550428047095e-02 -6.674373566726335416e-02
-7.586559317904929822e-02 1.147522327726637793e-02 1.728941237979519929e-02 3.051098291594427914e-01 -1.086018849045120548e-02 -7.259227028472177434e-02
-5.353932370835147447e-02 2.262176509100146185e-02 6.210256446922912676e-03 3.622577327989942031e-01 -3.896276152011230592e-02 -7.161492761403381868e-02
-3.460137006851059238e-02 1.363368084837348129e-02 -2.359943089375038383e-05 3.395861039758963917e-01 -6.559500715346396060e-02 -7.058158416045941241e-02
-6.642995371734197740e-03 1.668992313321174953e-02 -9.713966919150385237e-04 3.272438933122916449e-01 -2.808523902485479326e-02 -7.351776654612081352e-02
1.280924762614264051e-02 1.868374156365642386e-02 -7.518033607646579242e-03 3.027822608627958600e-01 -4.765398508594311661e-02 -6.667518152379917074e-02
3.448906601536014943e-02 2.410386734871436051e-02 -1.578147223252535092e-02 2.413928727407314845e-01 -2.000243546001438666e-02 -7.149396067546660849e-02
5.469319230058942993e-02 1.748386338177679994e-02 -1.931368389340687441e-02 2.461067049663368811e-01 -2.403829635097850734e-02 -7.268379953348227951e-02
7.706916913649533574e-02 2.167557304427518428e-02 -2.932814549858547837e-02 2.498745454879925665e-01 -1.367137034083888009e-02 -6.781343744419185415e-02
1.035305416564137881e-01 2.211246581255102428e-02 -3.614346936252010867e-02 2.446865912831135970e-01 -9.317800972997334827e-03 -6.479912727208289591e-02
1.273657564611331283e-01 2.529175359383214333e-02 -4.555374205478074368e-02 1.786923781907089892e-01 5.235996166076919978e-02 -6.643556324481277031e-02
1.527586387971466009e-01 2.469924133966580615e-02 -6.280823954854264368e-02 8.726212315883806470e-02 -1.822912838504945135e-02 -6.186428616661103497e-02
1.710282082600148024e-01 4.370368040112660585e-02 -5.190296119905235539e-02 1.298171913092277530e-01 -1.166321254839713384e-01 -5.769982481649732486e-02
-2.034460053626594989e-01 2.711537650536802180e-02 8.807939370050171801e-02 -2.393049269267896462e-01 -7.992370745667878862e-02 -5.244916078371756468e-02
-1.793808517520833201e-01 3.137267848209323445e-02 9.563012087650774040e-02 -2.689724123240168074e-01 -2.192005871145876472e-01 -6.161726389662139369e-02
-1.539625712478958908e-01 3.616208761659384097e-02 4.609714797177172363e-02 -3.091200398416495132e-02 -2.079690748178089632e-01 -4.932899428433760308e-02
-1.309815392123336586e-01 2.795649279610185056e-02 1.661710195873256080e-02 3.030708359926332918e-01 -2.500652643883504722e-01 -4.490266969276784231e-02
-1.086604677256472057e-01 2.659125206965018418e-02 2.140724760290757533e-03 2.872095821845281893e-01 -1.700549857135531251e-01 -4.026221482447734507e-02
-8.730135541601455329e-02 2.353254415754460482e-02 1.740453706390132638e-02 9.590901505731576349e-02 -1.634512921259343998e-01 -3.892367107465712767e-02
-6.655132685942327653e-02 2.129544558883643066e-02 1.453716290007928125e-02 -1.940404426227860038e-02 -1.548978570918535802e-01 -5.030914476872263424e-02
-4.222035055855818952e-02 2.114753246870827719e-02 4.395785842193855597e-03 4.459150585115373433e-02 -9.315025183111744211e-02 -4.876206006154449463e-02
-2.405387988025316226e-02 2.323162967892099945e-02 -4.957493669295431893e-03 1.088846578819149952e-01 -4.713587338568728941e-02 -4.936673178127775480e-02
1.967275209771513628e-03 2.600471949832528634e-02 -3.733819750183831054e-03 9.514203320766409511e-02 -3.646153284304539527e-02 -4.623458074424443426e-02
2.631852586670752753e-02 2.405760781320009228e-02 -1.625580892999456406e-02 1.155393899986517647e-01 -8.796570738128582645e-02 -5.971364011694651336e-02
5.073962291127666335e-02 2.483419184463479812e-02 -1.531321711407329644e-02 1.645085274536985664e-01 -1.341482260318924147e-01 -5.060346543623381321e-02
7.705155494574442154e-02 3.190760925448155039e-02 -1.851659745741862650e-02 2.122234594856042544e-01 -1.336958990093476130e-01 -5.614170475652575931e-02
1.041235107124028336e-01 3.299361764065915359e-02 -2.611580324741669124e-02 2.074822077436234147e-01 -1.664332194998600634e-01 -6.856474445809804252e-02
1.284985220340101042e-01 3.308638355560390709e-02 -3.543189773354993299e-02 2.078811062593928782e-01 -1.938385995382033711e-01 -7.869303662212155659e-02
1.530082787582891235e-01 3.328114412625454710e-02 -2.889560646512306930e-02 2.089806595726344252e-01 -1.413472212184697652e-01 -6.625934050081978832e-02
1.769563780488949134e-01 2.701771877972589803e-02 -2.515158553080387716e-02 3.034453758187404260e-01 -1.407930847921160245e-01 -6.920128127838237608e-02
-2.032669397345200912e-01 3.391184254181273117e-02 1.533329183492904146e-02 3.293496430770517791e-01 -1.481370047461043338e-01 -5.694309126596273224e-02
-1.816576916741367842e-01 3.308474335040846592e-02 2.287366292739523299e-02 2.249954193712866424e-01 -1.681606471872148789e-01 -5.542830396695649225e-02
-1.574674272590328994e-01 3.646439800119927188e-02 3.425966504454203143e-02 8.999664977101956564e-02 -2.311344227214779667e-01 -5.038345981162627857e-02
-1.361998009541079691e-01 2.727223656308355032e-02 2.375749349454164827e-02 9.703820694738123087e-02 -2.093158090293886775e-01 -4.809777906942645787e-02
-1.139516956541822279e-01 3.551134763266998451e-02 1.908622052678049519e-02 1.583433698363373165e-01 -2.386952427046164782e-01 -5.969309936031574892e-02
-8.690730794042199336e-02 2.735388413226736565e-02 9.414778918050981105e-04 2.162989392435280267e-01 -2.226160410828188496e-01 -4.815250639877376865e-02
-6.603265095893098846e-02 4.189707939638499801e-02 1.310781003352212704e-02 1.740568114741642691e-01 -1.316579850697055798e-01 -6.160109862222142019e-02
-4.283942679867035197e-02 4.004938514010879941e-02 1.082113217071106748e-02 6.435754594661555195e-02 -1.324486086301500387e-01 -6.364184316440769928e-02
-1.984922290787351565e-02 3.699148727754428267e-02 -1.420372751957904578e-02 1.057136003967980714e-01 -5.263512901021837748e-02 -6.343930607159030399e-02
6.772915898269445817e-03 3.466576621669494734e-02 -3.812744075877450012e-03 2.361064266084929864e-01 4.169744994920784181e-03 -7.267638290421941927e-02
3.285795941720678903e-02 3.508908792949332750e-02 -2.102529938707614621e-02 3.857711946297270322e-01 1.764206506915438205e-02 -5.752061089116570353e-02
5.796508716543417872e-02 3.684608329482286226e-02 5.315946963525108870e-03 4.388191334805658927e-01 -6.909784564745884150e-02 -6.292921044879987158e-02
7.905173395187696517e-02 4.048315059760428103e-02 -2.445110164635366790e-02 4.253796058994305795e-01 6.031160708433212954e-03 -6.023842965214951106e-02
1.009487750907112485e-01 3.426323689138402462e-02 -2.869011628973233696e-02 3.839979452688306316e-01 4.697749288128058934e-03 -7.907251418522651121e-02
1.283700538215031550e-01 3.536257081388263085e-02 -2.959678337484106248e-02 3.656886077484083342e-01 -1.657956736742546497e-02 -7.748808060186893054e-02
1.523198693314439800e-01 1.268213423635451177e-02 -3.663594516873669438e-02 4.039215234455084680e-01 3.297314271577403422e-02 -7.076141078118328154e-02
1.753832931098903425e-01 3.335851789755430591e-02 -3.515825725704374571e-02 4.212262145285190496e-01 5.334121428078059113e-02 -6.711655265290143724e-02
-2.014319938278039956e-01 1.910373006268354518e-02 2.448967086973863339e-02 7.768426137126562860e-03 4.925345411217494918e-01 -1.817039194118871132e-02
-1.718915105981745628e-01 2.189789474964196417e-02 2.548656156916434545e-02 -4.903688446035258525e-02 4.164912114959482548e-01 -4.640162445886600838e-03
-1.515815205357615159e-01 2.134858594246134486e-02 3.046852259141152874e-02 -1.826229719295784648e-01 2.701656754955026885e-01 -2.584482908068858401e-02
-1.317401751456055148e-01 3.081970430217327930e-02 4.474082279837721110e-02 -2.283564896762042273e-01 1.909833434666281804e-01 -2.880353236910353221e-02
-1.064243613670960015e-01 3.095874400455649045e-02 1.281618396140066229e-02 -7.418925642812694565e-02 9.006939747289732789e-02 -3.112118597597596931e-02
-7.829737145589801828e-02 3.426014554724869654e-02 4.704300587344611984e-03 2.490351879885252875e-02 7.360413340102714419e-02 -3.116471773890199665e-02
-5.104483886125149583e-02 3.245650965101182922e-02 3.867671867980315703e-03 1.060736499541810839e-02 5.358296273597808190e-02 -3.353608980105558107e-02
-2.453819133337779498e-02 2.824790665997179567e-02 4.620627946468724989e-03 -5.813122541975417751e-02 4.550642489324528694e-02 -4.060054238634010215e-02
-5.453323415721640643e-03 2.507563556837351729e-02 -6.377337626080170629e-03 -4.635850626040213807e-02 7.135773045840995699e-02 -4.744876573042788870e-02
1.960671791157625465e-02 2.890543537669530358e-02 -1.604868745626303328e-02 8.456520747745618904e-02 1.489778103164639544e-01 -4.837579071529346519e-02
4.145953729835484547e-02 3.341218742784803769e-02 -2.629263673264992107e-03 2.882157407384631220e-01 2.215434157134180126e-01 -4.846505990378838225e-02
7.000018245583609910e-02 3.359722425397710516e-02 -1.383350375754893724e-02 3.417977498221975718e-01 2.539798127420562213e-01 -4.308629280320533383e-02
9.266587515402299746e-02 2.905647213215230285e-02 -2.467158886724168942e-02 1.545482073965825098e-01 2.446525334418526709e-01 -4.745166292348574483e-02
1.226713249619156981e-01 3.455790251068489166e-02 -4.923086394941167399e-02 9.938804531590304803e-02 1.753893939242580913e-01 -4.800202468334073547e-02
1.570115695233831876e-01 2.157389077464728216e-02 -3.869020474507572915e-02 1.738444674564025572e-01 1.528367423486274024e-01 -2.723739766750516919e-02
1.754277974729577805e-01 2.451174846915531169e-02 -3.204122780039397878e-02 3.364122234172459702e-01 1.065065283025683901e-01 -3.239561194295703661e-02
2.034407856754899546e-01 4.051868145723219738e-02 -9.661749827176768779e-03 4.285375365031273143e-01 1.670792798071544794e-01 -3.438124576525421888e-02
-2.034643828094396811e-01 2.283028239276938681e-02 -1.203366813845585526e-04 5.740450711312280463e-01 -4.389933983394288530e-01 -3.430130628275049331e-02
-1.902039612264151691e-01 8.808952051190040156e-03 8.977770474516144628e-03 4.681598484230660717e-01 -4.184756731840492683e-01 -4.099822262887801300e-02
-1.751649631669343343e-01 1.943700314730642531e-02 2.905926310301759630e-02 2.359864688338144667e-01 -3.160244336323243530e-01 -5.078891096618666501e-02
-1.368209976019044150e-01 2.210458745168508710e-02 2.352849102804133175e-02 1.983039635127314404e-01 -2.084512688506037770e-01 -4.557376644982779473e-02
-1.147865877759020881e-01 9.636505502872112078e-03 -1.303243324352371113e-02 5.662569118350492259e-01 -1.426776888227139451e-03 -5.174170317664637114e-02
-8.711215733863905686e-02 1.551661109687369096e-02 -2.083578386440437802e-02 6.886562992693762153e-01 1.140798062234114896e-01 -3.766182074002789870e-02
-6.240170065446274533e-02 1.451704061078853275e-02 -1.479747379241175276e-02 3.938262800739645297e-01 1.701618885025231731e-01 -5.392515270319990506e-02
-3.871809716611111785e-02 1.844798043016406680e-02 -1.693636703984768843e-02 1.206491917265477415e-01 1.572284513441428999e-01 -5.606270581500485267e-02
-1.255459918269433844e-02 2.256082147496001750e-02 -2.581106329714843994e-02 1.122307530097497175e-01 2.744250397945597816e-02 -4.209698948513451722e-02
1.162942648102762572e-02 2.058565248217433807e-02 -1.830324578557185333e-02 1.874693489658043888e-01 -6.832194767835257643e-02 -3.527090856112706507e-02
3.159353936053281575e-02 5.895591188221356409e-03 -2.696548717692870412e-02 2.710255440285292416e-01 -9.831801453127424206e-02 -4.672523877112574886e-02
6.356888489790117613e-02 9.640698750743822640e-03 -2.187664378927517417e-02 3.575461925978709044e-01 -1.098416388912995534e-01 -3.826744860710374480e-02
8.579717954298432536e-02 9.513259345290011465e-03 -3.044587697393863479e-02 3.827851949922758124e-01 -9.766523646641923906e-02 -4.049973703226596861e-02
1.136520860869589256e-01 1.834247347063356487e-02 -3.382671990079949564e-02 3.808613936629658969e-01 -1.193048781410753906e-01 -3.833708973766634248e-02
1.408557247245287303e-01 1.044034059032966644e-02 -4.557111695038312815e-02 3.321863049980930960e-01 -1.434749880034402181e-01 -5.317362240537325258e-02
1.655831928016531784e-01 9.821807193910837147e-03 -6.029001781071768873e-02 2.857071398208750890e-01 -2.174410115264789056e-01 -4.218802833051477075e-02
-2.191941272766517179e-01 -1.181035880747943398e-02 3.812247307700061816e-02 1.085043222895983560e-02 4.019809830074061452e-02 -4.894057691703305318e-02
-1.926528114071190123e-01 -1.496919929253765109e-02 1.925187912035297710e-02 7.515615185468657589e-02 2.527158135536311176e-02 -4.802138436975979252e-02
-1.614860323907914008e-01 -1.218750966084117260e-02 1.177699553970695812e-02 1.000997820719353448e-01 6.996165135103576960e-02 -4.127662006652232235e-02
-1.369737899227905231e-01 -1.147816169839349643e-02 9.964836330281556798e-03 7.713083961372022013e-02 9.596897879707372292e-02 -4.368930907766710448e-02
-1.113306961489379798e-01 -1.444474652541622578e-02 1.521339041619884647e-02 2.271851618226083686e-03 1.212551103719238799e-01 -5.269888469281280852e-02
-8.224516642144749645e-02 -9.502943067508762276e-03 1.273305968523796849e-02 -3.203346078343509429e-02 9.719065824814165921e-02 -5.064692843818471846e-02
-5.744116794561486550e-02 -1.296336002924855339e-02 -9.485058113974320637e-03 1.955837020688956998e-02 6.784696740643701707e-02 -6.066736733989600006e-02
-3.855201848608433290e-02 -2.400926213775480059e-02 -1.775054575126944201e-03 8.931596122818184769e-02 7.214860508030691844e-02 -7.327126728258470667e-02
-1.250230081797151782e-02 -9.510586354525887506e-03 -1.171707765984003613e-02 9.495752593060388658e-02 5.750326389018801942e-02 -6.697710276880596003e-02
1.249739814083522527e-02 -6.202993463541649904e-03 -1.021277381149338082e-02 8.421850094843939816e-02 3.597004169624729020e-02 -7.952527548507445920e-02
3.324177718217005001e-02 -1.434811500139321523e-02 -2.290888108208011253e-02 3.076716136285550379e-02 8.115526010381694799e-02 -7.140739441927126951e-02
5.914975062869133604e-02 -1.447899803208462302e-02 -2.094283666700330615e-02 2.712282282563506161e-02 2.747694328968520658e-02 -7.499967814616421979e-02
8.512778512172540502e-02 -1.701804675700894359e-02 -3.498172454866904646e-02 5.761502049013206284e-02 1.432823411464997226e-02 -6.427324699691774890e-02
1.153105016217800260e-01 -8.497940295681504289e-03 -1.645295193405221790e-02 1.698541891297288831e-01 2.395043383756706445e-02 -6.291920576817615351e-02
1.428333856961503112e-01 5.589845522481141221e-03 -8.355632730940310005e-03 2.648964131654731879e-01 3.893413506659242074e-02 -9.065576191835617026e-02
1.722513198966991177e-01 1.965985687657911124e-02 -1.716240258298967758e-02 2.397073411766178219e-01 3.125241184136571398e-02 -9.650972434360344243e-02
-1.866920763309940501e-01 1.240665905294949072e-02 6.315540845450950957e-02 -1.850461012103770120e-01 -1.461194349707512774e-01 -4.108774737850575537e-02
-1.582977295980364518e-01 1.478952700369078402e-02 3.320937057106898571e-02 -1.031202578994172142e-01 -6.294591844687032201e-02 -3.514761605885562828e-02
-1.302467781194467655e-01 9.826844389996085283e-03 2.549163936689885501e-02 -4.918989609663608487e-02 -1.002758772410129312e-01 -2.736185731120980777e-02
-1.049730921755728935e-01 1.220528958272064542e-02 1.436628669734152375e-02 8.912542731431577492e-03 -8.327771719318911858e-02 -3.809051764512673410e-02
-8.171147668316477986e-02 9.307751242465739719e-03 3.096566822329283042e-03 4.462434058094883610e-02 -9.372966203529978224e-02 -3.710312603572535339e-02
-5.792792954652106752e-02 1.374634805810210324e-02 3.208237277844416813e-03 1.306955496640793864e-02 -7.765796676879871407e-02 -4.813004070937516171e-02
-3.349238887349512139e-02 7.889175352568717284e-03 -9.888133898799389421e-04 2.509744541445083424e-02 -8.841648572910772164e-02 -4.074405641662075944e-02
-7.954733550240778578e-03 1.256401125834693232e-02 -2.926187764754339948e-03 2.239248398597256523e-02 -9.966281169947145691e-02 -4.823769070760899891e-02
1.818795955984526744e-02 1.309996044649546117e-02 -1.137927264744997835e-02 -4.634224818136712179e-03 -1.712135161808436834e-01 -4.626673337635812261e-02
4.493827009324989630e-02 1.851922747401954158e-02 -7.993644123234167065e-03 -2.884350532871575792e-02 -2.430259869170917908e-01 -4.241669122011432203e-02
7.396117651887647304e-02 9.629090025885701440e-03 -8.823486198491325982e-03 7.850687659557137321e-02 -2.762596810543531678e-01 -4.000946071860269487e-02
9.938797727581777375e-02 1.307635330617504081e-02 -5.208337556454445405e-03 1.773050051601655630e-01 -2.911902082512548007e-01 -4.184287263819164854e-02
1.282230797349684925e-01 1.358940776492733628e-02 -7.516334560341786375e-03 1.870654415155778294e-01 -2.914927479388132459e-01 -4.182851053148681914e-02
1.520521091579704887e-01 1.273981246618530530e-02 -1.697555425303898247e-02 1.526708553958842918e-01 -3.455102167042593542e-01 -4.727261853642405337e-02
1.790141033810800086e-01 2.198179909848602120e-02 -2.640518942893688159e-02 1.156553031090030575e-01 -4.490308064331767768e-01 -3.994545093316283213e-02
-1.904621591979101247e-01 -1.914117571860211864e-03 3.263851388044169965e-02 -1.877108094828397189e-01 -1.360057947331449468e-01 -5.638646958602010900e-02
-1.649809166480252776e-01 1.338284852204340257e-02 2.264647764315264045e-02 -9.614593340329576077e-02 -1.925833165624079024e-01 -6.046003139194386367e-02
-1.390602854633293528e-01 7.102651145530374834e-03 1.115709145196097651e-02 -1.362291093144183535e-02 -2.090601939187233804e-01 -5.844962006838089197e-02
-1.147184862223875196e-01 1.309183875854954757e-03 1.007551916291216099e-02 -3.024700263294386252e-02 -1.772774217132015162e-01 -6.921714252820018731e-02
-8.826094700784968550e-02 8.480703696882828380e-05 7.761228393603158970e-03 -5.388148435808931547e-02 -1.358193219970463550e-01 -6.301658743927804340e-02
-6.565027581268148560e-02 1.705266040616109854e-03 -3.810681673289129101e-04 -1.109164176057485067e-02 -1.017862441737917567e-01 -5.834660599255837854e-02
-3.413634345073918858e-02 1.225384108250896290e-02 2.113551579989492168e-03 1.820579625092355949e-02 -1.032017901346069244e-01 -6.403814988720454848e-02
-7.428295297724561708e-03 1.130251489866148686e-02 -5.543487992604845260e-03 -2.512039736784572354e-03 -9.359844171371892174e-02 -5.853906334247160892e-02
1.376101613642594437e-02 1.280829684257450002e-02 -7.035344496526485525e-03 -2.679709905527871347e-02 -1.160798260814372429e-01 -5.139389765605859722e-02
4.658010745708206224e-02 2.391649412134281075e-02 -1.800269815880256585e-02 -7.604529468147402937e-02 -7.991188950837525840e-02 -5.308514186042780081e-02
7.115607669261717061e-02 2.064735194966814055e-02 -2.372516641799260473e-02 -9.386200001149884453e-02 -7.842501796397342850e-02 -5.052135782306566708e-02
1.003853289610593252e-01 2.055656430229021309e-02 -3.218796638433213397e-02 -9.474344133984335947e-02 -3.235605385654867494e-02 -4.000349517755236867e-02
1.285729146719208904e-01 2.280579011162015002e-02 -3.041552669943847764e-02 -3.146368595171850080e-02 -6.759379731666155522e-02 -3.815459481180964035e-02
1.506464090580003079e-01 3.255579271413134440e-02 -3.515291955407651159e-02 -2.195229990449796761e-02 -7.574719250761226264e-02 -4.982943106399323474e-02
1.796899906642505651e-01 2.214991317290544715e-02 -3.539131720306276652e-02 -4.123363488397500075e-03 -3.733850226678094714e-02 -2.663050697929961533e-02
-1.911198695364310085e-01 1.181620800530084822e-02 7.889869335836136033e-02 -5.266126289728272503e-04 -5.681497424573474925e-02 -4.928562354257234185e-02
-1.697645713712858939e-01 8.976291583911470348e-03 6.773121424015260406e-02 5.407356957795818667e-03 4.481408396475965866e-02 -5.459225975194093028e-02
-1.439435111668325162e-01 4.242839571603372259e-03 4.215055329226607972e-02 6.729243189841840889e-02 1.943488533000296281e-01 -5.545946263809213572e-02
-1.162494434303256163e-01 7.784613346970800304e-03 1.802054323884111353e-02 2.088509978366034914e-01 2.218495730314256065e-01 -6.684047013128412151e-02
-9.146271546146494957e-02 9.056646793399149992e-03 1.585319503735604929e-02 2.731436698297566856e-01 1.975686439419706564e-01 -6.345595248518827447e-02
-6.241909996098839869e-02 5.350003783535784742e-03 2.668867484678649760e-05 2.794198366732291161e-01 2.231640586793779135e-01 -5.828624456185137193e-02
-3.954752727649157862e-02 2.053837694104110323e-02 1.765805025606803635e-03 2.073501864971012409e-01 2.000720262602838917e-01 -7.358544637609271133e-02
-1.389773598403272470e-02 2.148842870558657220e-02 7.713339389703310900e-05 1.278956949107325769e-01 1.186420856496457760e-01 -7.215755665918409389e-02
1.906513646426895303e-02 2.441576021661779478e-02 -3.428928213007442771e-03 1.482299549291566654e-01 1.189337922876915893e-01 -8.002772198554551630e-02
4.890590873093467184e-02 1.981018346512065931e-02 -7.515598993756256174e-03 2.242200524791284066e-01 6.355682716210356298e-02 -6.073219873974775029e-02
8.465501587548125706e-02 1.429053523416161722e-02 -1.916638467049064376e-02 1.750086738864807534e-01 -3.593174614488294644e-02 -5.879892467937542638e-02
1.126571649434181810e-01 2.433363608626405022e-02 -2.189234239518361713e-02 1.394150498023155049e-01 -1.057870733935368721e-02 -6.223670010376516903e-02
1.365351112081662766e-01 1.381285262678652245e-02 -1.235749159858423596e-02 2.536772091630292159e-01 3.872982483800460618e-02 -5.340038861538633913e-02
1.604162378020971003e-01 7.849122916972870942e-03 -2.965774596953713038e-02 2.177677521185110987e-01 4.592721235670868540e-02 -5.389340655988296425e-02
1.863593514342515578e-01 9.319770232189123621e-03 -5.152266822877354935e-02 9.439071419540311092e-02 -1.434007893707517356e-02 -6.339454706221352154e-02
-2.349920457487657821e-01 1.274720104566968645e-02 5.933978323019944989e-02 -7.979133829225185104e-02 5.954713189891937264e-02 -6.531840352468644417e-02
-2.106396754364293911e-01 2.689626220077320079e-02 2.926765677304721258e-02 6.466697617093282446e-02 -2.372817927168552679e-02 -7.282392721035611804e-02
-1.756313932823898860e-01 1.589156356113489293e-02 1.509263167653163151e-02 2.059338544315106045e-01 -3.507939417788433906e-02 -4.100115504953680962e-02
-1.593950167080081248e-01 2.034809177093928334e-02 8.978354419847178747e-03 2.171617724630054980e-01 -5.387745156679923236e-02 -3.883653999742792823e-02
-1.314609476938617683e-01 4.532434373903217184e-02 8.599515026245563298e-03 1.522883411143659826e-01 -3.588769825115571688e-02 -4.291317964626380904e-02
-9.897637314111089324e-02 2.969062090155070305e-02 9.321081189786917243e-03 5.791256264413218585e-02 -2.737822739228509134e-02 -5.706060997043341937e-02
-7.170805761098700271e-02 3.094202083978444054e-02 -1.689048242819457535e-04 5.867297877329925859e-02 -5.431813641089982408e-02 -5.875666408793411150e-02
-4.560733990889836303e-02 4.382572191091718000e-02 -7.995864437725541674e-03 9.771136786705812705e-02 -6.237992744943307577e-02 -3.305872027716810074e-02
-1.355813228322833713e-02 4.090853524163864247e-02 -8.293179087914381853e-03 1.024542559698142508e-01 -6.968612848676146443e-02 -5.044633514082543652e-02
1.819468089669292604e-02 4.536444067884143339e-02 -1.882352439590301296e-02 8.877872833745859005e-02 -3.547887492084215305e-02 -4.608168068797430239e-02
4.917483813509313656e-02 5.495225293655679050e-02 -1.677920458166481943e-02 7.377845305300630152e-02 -5.670947235300219380e-02 -4.143033325606203937e-02
7.534521204494779023e-02 5.463813416171343224e-02 -2.625243723496745174e-02 8.411279099066006071e-02 -2.388939538158474721e-02 -3.764261548034963240e-02
