-4.807539268513046776e-02 -3.242842892856089097e-04 -3.726493901254793184e-02 -3.237770947062919569e-01 3.008816695783128256e-02 3.688782971726959486e-02
-3.785415455855849903e-02 3.643619337597479163e-02 -5.078575528069201317e-03 -3.945587069146725967e-01 -2.505627805168925137e-02 4.329088929861227980e-02
-3.296027421208274494e-02 1.553710183056171250e-02 -2.776151652842923090e-02 -4.641615439073644156e-01 -6.042972223353244160e-02 7.467392072559113358e-02
-2.625663558068756440e-02 3.131573348790309824e-02 -1.444619900706331506e-02 -5.074698831623052353e-01 -8.030022032261875664e-02 7.179612983020426664e-02
-4.662325771694949411e-02 1.368891032303669320e-02 -4.290263044987818741e-02 -5.428766515651225477e-01 -4.281033656721643793e-02 7.657911606827315365e-02
-3.431769478040334886e-02 1.081852452481665144e-02 -1.343288044261366221e-02 -5.717834508138674998e-01 -6.007650164599537962e-02 4.891077930504478255e-02
-4.285565924631777254e-03 3.463167918577950838e-02 -4.131846637258074217e-04 -5.909675492027551824e-01 -7.556760319852517949e-02 9.429764688576967868e-02
-1.774839959275362894e-02 3.699534038940713310e-02 -7.731843404990862423e-03 -6.286714589343990189e-01 -9.767797156890602878e-03 1.433892751580932712e-01
-1.046759129810923873e-02 3.817896672461053298e-02 -5.690817807018078156e-04 -6.504242017540560195e-01 -4.278312112835837983e-02 5.689170738634927865e-02
8.593155313730654193e-03 5.272567926515643599e-02 -1.688995615188312871e-02 -6.167324933530312636e-01 -2.532372490277791030e-02 8.389156969851883916e-02
-1.886226919030116814e-02 4.984147069384277373e-02 -1.976279524091689721e-02 -5.454274009698013570e-01 -3.086561352930679986e-02 1.112424858495246194e-01
1.812090889624397641e-02 2.400666824807078450e-02 -1.881092809214489348e-02 -5.116137967987287594e-01 -9.036900226644346834e-02 6.549915948433590596e-02
-1.083423848577821404e-02 4.431342147102396156e-02 -2.568367933192877706e-02 -4.271062250242146363e-01 -2.241851404219123989e-01 3.372715970165438004e-02
1.358250685229076167e-02 1.984239140569195314e-02 -2.156828064940405354e-02 -4.142780198100876610e-01 -9.971839009329008796e-02 1.972585461074509786e-02
1.502548612115839691e-02 1.971829804153308469e-02 -3.168299481492546643e-02 -5.780125527511353889e-01 -1.065946325250134163e-01 3.876892607914592809e-02
-4.007570442604089025e-03 3.248648854825275656e-02 1.277289025615194196e-02 -3.691484601892917605e-01 -1.544883070875307726e-02 2.280626106447605425e-02
-6.845138956735399849e-03 1.782907949775117476e-02 5.604895848156377092e-04 -7.040583448153066026e-01 -1.150472602076884655e-02 -3.799386983035729637e-02
-6.155705143557052561e-03 9.058054362921995686e-03 -1.545814864897181173e-02 -6.684380547273276463e-01 -1.143710062563270957e-01 -3.467573958347031776e-02
-2.484044815060968206e-02 1.201699121753522712e-02 -2.331348266103053235e-02 -4.287441618912012364e-01 -5.067060898692408999e-02 -1.639890431145593283e-02
-2.441919695118304964e-02 1.365285930090189004e-02 -2.770550921781378406e-02 -3.357383158642003318e-01 -1.319778035404823857e-01 -3.800745834249845412e-02
-4.788296226315758713e-02 -5.431521719722470776e-05 -1.983418280952806145e-02 -4.834768435021692401e-01 3.242982687294738292e-02 -1.431221406597293216e-02
-4.461701386196651603e-02 3.701867011531003587e-02 -1.447265166756615817e-02 -3.272639856902652133e-01 4.443235710864848476e-02 -1.038049132570704851e-02
-3.702609875284648688e-02 6.297845241788842252e-02 1.481839515576036104e-02 -3.858170586337868885e-02 -1.323252723562395594e-01 -6.774962958775935205e-03
-5.251191577028585522e-02 6.027152101741727053e-02 1.382036254828819533e-02 -4.449740866412423834e-01 -1.443465922624267428e-01 -4.435118000507085045e-02
-2.051417232804300661e-02 2.317550786358530540e-02 -1.373966729124642683e-02 -7.400968679410561135e-01 2.842531966078703717e-02 -5.101235650419835149e-02
-2.317083468126767895e-02 4.548568767981411853e-02 -1.492683527506236119e-02 -7.326397228021719332e-01 1.721892578247783134e-01 -5.139467724496834394e-02
-2.778680029805621204e-02 4.853334907362517880e-02 -8.778298455583366522e-03 -1.551320770209722311e-01 6.686155387416888030e-02 -3.243847408293838719e-02
-4.831822946108411607e-03 6.467420688601573098e-02 -1.199073754860530139e-02 -2.440054606748277288e-01 -2.099572088379570226e-02 -1.736617461210025401e-02
3.898014343404207840e-03 7.623325703248594321e-02 -1.986306784653801838e-02 -3.086963338273143176e-01 -1.401271386565222099e-01 -4.850181729011181914e-02
7.292303219095726784e-03 4.189342519963786676e-02 -1.676912588238435586e-02 -7.149525739916527955e-01 -2.079528273175957481e-02 -3.520065450325000900e-02
2.234471151127593105e-02 4.638292197623349739e-02 -4.594659082987562204e-03 -4.798101347021436758e-01 5.416998520798757544e-02 -4.313219644093582716e-02
5.854638596037870651e-03 4.732822041759680853e-02 -8.315320137647075338e-03 -3.438705258061658943e-01 1.228399612400122437e-01 -9.373803202606554794e-03
1.197160766507274167e-03 1.557840098833279154e-02 -1.130646138770757814e-02 -4.154939633003162935e-01 2.557579854622175561e-02 -2.449171174508772697e-02
-2.580165916423706254e-02 2.058395551602238555e-02 -9.796109577323477979e-03 -3.597655101898717955e-01 4.167525070805266907e-02 1.933818780787007960e-02
-1.419321922051730751e-02 3.757065870317207595e-02 -1.200074533135163379e-02 -4.340257458969656312e-01 -1.611837801828461605e-02 4.567545321018678939e-02
-1.417897388686803657e-02 2.146218428096020869e-02 -1.927361311752301409e-02 -4.314105895941224289e-01 2.714833805115226401e-02 9.025422755739167385e-03
1.907738982543603521e-03 5.028317795198822271e-02 7.169614483693576013e-04 -4.597900351191829826e-01 -1.380630681405784488e-01 5.235809412253765102e-03
3.221795315558088901e-02 3.955818280601826331e-02 -1.394788732772565820e-02 -5.050041106475364749e-01 6.745568827150751068e-02 -5.626900093345883758e-03
8.645603052628283644e-03 2.947269836391871664e-02 -5.270714443891225121e-03 -3.011250331433643623e-01 2.559955681312859471e-02 1.661570299146798366e-02
7.760418542356512829e-03 3.397812424288607080e-02 -1.104204750301404636e-02 -2.040183874485491655e-01 -1.579020650062004649e-01 -1.245552593628888177e-02
1.584335073334014465e-02 3.604103474282836783e-02 -4.922838190326878083e-03 -2.779350027067806761e-01 -6.237040173271617138e-02 1.138406050500825710e-02
1.121144597170632348e-02 4.177566737852166784e-02 -1.066011974470977564e-02 -4.206682097104091911e-01 -1.616602950857292387e-01 4.025938632353605849e-03
1.907616799059861507e-02 1.185441441629517950e-02 -6.988338160796719878e-03 -4.222580866267573452e-01 4.163524411477411216e-03 1.875798427584616027e-02
4.388867219668973405e-03 2.954612640634108126e-02 -6.585142035429744634e-03 -2.760221070014499678e-01 -9.062467999686371276e-03 6.244327295092005556e-03
1.777677511203491724e-03 1.995639124135282702e-02 -5.187385801853669487e-03 -1.720169274280912708e-01 6.951111174348631287e-03 -1.201399853799801735e-02
-2.556806260824256733e-03 8.765787352846140038e-03 -1.229347374864654674e-02 -2.210455307599336339e-01 -5.734859747338709457e-02 2.722434351727504032e-03
-4.901989825194822889e-03 1.268175806567058139e-02 -1.167941634043838384e-02 -1.225370889390590134e-01 7.641740069182683184e-03 2.130187451188752037e-02
5.627390579183202610e-03 5.247786715900300790e-03 -3.106761892802706315e-03 -1.375885424587305617e-01 -1.586225252847097422e-01 -1.301056250446167191e-02
6.884626588636194068e-04 2.800373790712322800e-02 -1.418465709542277020e-02 -2.143339646586486513e-01 9.858910347568847210e-03 -1.179690155915216927e-02
6.685967112149700242e-03 4.313309762603318581e-02 -8.889560926412076736e-03 -1.019088876979886427e-01 -1.346923007287640361e-01 -1.645807292713986295e-03
7.005556430000661403e-03 3.786281921164896119e-02 -1.341259360010374491e-02 -1.117815239046633935e-01 -1.329397156138660274e-01 4.284240082046393908e-03
7.717336575641265545e-03 6.978664564460655695e-02 -6.586175205763933338e-03 -1.532455647103680707e-01 -1.060911424673205566e-01 1.944997418454440588e-02
1.802538107131588380e-02 4.280730620878300113e-02 -1.162124025036018193e-02 -2.285543549035446986e-01 -3.653766497063175994e-02 1.764222044084405583e-02
1.749157389181116989e-02 5.485859041424927252e-02 -6.280895912419925953e-03 -1.269838191487406565e-01 1.074904402772821344e-01 5.101288473079028385e-02
1.730271357147566275e-02 3.092145574576780909e-02 -5.028770620919345569e-03 -2.228386823960571139e-01 5.077509469916034746e-02 2.735990571560644596e-02
1.652406194999285829e-02 3.608209780977385955e-02 -1.307260239540039559e-02 -2.996411400214096243e-01 3.942439719177736474e-02 1.804636510799203369e-02
2.466717144652402771e-02 5.764215242440166864e-02 -1.142895855427865370e-02 -2.567257801300419917e-01 5.192557000284798996e-02 7.419685040572115628e-03
3.015451878234982550e-02 2.646000327240183997e-02 -1.480636646766859965e-02 -1.626583264640174553e-01 1.939224822527810949e-02 4.269150819771740275e-03
1.090019771868214193e-02 -3.420417941007099314e-03 -7.813606419780100287e-03 -1.550142716252353725e-01 -3.952021127234736642e-02 5.095524423966929853e-03
1.500017144808484491e-02 3.076770510274985659e-02 -1.142288651101747154e-02 -1.877711294936165731e-01 3.628623359994342934e-02 -3.666039892924323473e-02
1.804335393345856894e-02 2.472388552750682394e-02 -1.680591192583742732e-02 1.550359968360824070e-01 8.227077878274198508e-02 -5.961797875069211466e-02
1.309544072120375109e-02 1.349872762109953842e-02 -2.831269203970671056e-03 5.451289790814441982e-01 3.916292944029140660e-02 -1.192083854386191341e-02
7.698727445465054428e-03 3.942013495737302364e-02 -1.097541281104512378e-02 3.770248701491606957e-01 5.864310652743423558e-02 -3.839954369311639887e-02
6.505044619143691802e-03 2.734262828752596908e-02 -2.701339138632408154e-04 5.892647142604993116e-01 -2.837432145811956408e-02 -3.129290628079348102e-02
4.109529540059145628e-03 5.291068944024163861e-02 4.719000347395418959e-04 5.245074448306663584e-01 -1.057675769878204108e-01 -2.059467585561965478e-02
5.567452462293010808e-03 4.500288857062440667e-02 -9.794571755563197257e-03 4.905948810829672269e-01 6.614744568393068902e-02 -5.392177700502293058e-03
2.672688417768308636e-02 4.897897263826223903e-03 -1.028981846761534147e-04 4.503550003253158907e-01 6.248659924307457120e-02 1.038081225156252396e-02
2.226796771297309685e-02 6.945463889449748039e-03 -1.125910623208423167e-02 2.456027313608352414e-01 4.792936205047342024e-02 -2.908839575025369897e-02
5.306123618318222407e-03 1.595946515313417108e-02 -6.140510397433268652e-03 4.032365884232244624e-01 1.428557452564945263e-01 -1.414303248080978591e-02
-1.175058967428646616e-03 2.265094224634382064e-02 -4.913209674032303909e-04 4.127102864825601958e-01 -6.658993811564611898e-02 -1.855439063791371884e-03
4.183530869434777186e-03 1.701948456108979060e-02 -1.196936068245224583e-03 4.857146260090132173e-01 -1.075641019177851765e-02 2.535479919361521579e-03
-4.464488577706187539e-03 2.663768328985034739e-02 -9.503268043505680440e-03 6.182358421235225610e-01 5.620444647228495239e-02 -4.455653159082336584e-02
-9.510239770148861543e-03 1.795356650392048586e-02 -2.771514683127390688e-03 5.095544726127464452e-01 -5.153770726866959556e-02 -4.770905893514178209e-02
-1.316022942635945367e-02 7.583892056469654537e-03 -5.162353044391443380e-04 4.704948938701497552e-01 1.204813170349386224e-02 7.137763205482990959e-03
-1.168479918203588208e-02 2.745278870545324670e-02 -8.783044389481631242e-03 6.116811094872597332e-01 5.393903036696367365e-02 -7.328938400891076531e-03
-1.673124845425034285e-02 2.087955617290620375e-02 3.673705526343301608e-03 5.021318677970429967e-01 -5.535482697393696860e-02 2.123810513926643537e-02
-1.323641276630066477e-02 2.779588500186679079e-02 -6.259801240751927676e-03 5.930521133321106086e-01 8.567159037566150770e-02 5.454053815457314547e-02
-2.747195697313820767e-02 3.634544840994728687e-02 -6.315883956406351252e-03 4.486181682341495169e-01 3.501060762027955603e-02 -4.849951826899408236e-03
-1.330378688553317083e-02 6.768602583022377203e-03 -7.418160241935325971e-03 4.582040983994525862e-01 4.837216835033427559e-02 6.466306349171124963e-03
-2.484960075554368611e-02 2.907479883074542623e-02 -5.444802249759947421e-03 3.817107185681307691e-01 9.146905475988892364e-02 3.358683870189030363e-02
-2.504161286686379037e-03 1.608043001218737236e-02 -2.320624810072891009e-03 4.477496005463759143e-01 1.041753877423341329e-01 5.703313200734561744e-02
-1.200831595953782450e-02 2.941667135818493151e-02 -7.416632519427784898e-03 3.491441156185731698e-01 5.470898856697996998e-02 8.978645025425878792e-03
-1.591797692194221389e-02 3.871829976203575163e-02 -4.196812559569829126e-03 3.340694389665612163e-01 7.949768184938060811e-02 2.975112292897431898e-02
-8.728011741430809906e-03 4.104097007434190370e-02 -4.959105137620878345e-03 4.008236707095692575e-01 9.052606037535304573e-02 3.141274636189135550e-02
-1.702285284938821058e-02 3.826002252572183182e-02 -8.494388274164793584e-03 4.070400441952301551e-01 7.310889638325987483e-02 4.135692883215053017e-02
-2.477587492098261290e-02 3.646344369972440158e-02 1.506768020584359213e-04 5.686162615066898685e-01 8.932810408147678904e-02 3.093031688203434770e-02
-1.513016223399531353e-02 4.397036156395964235e-02 -6.416039267083020747e-03 4.065089975546248846e-01 8.936363971753599755e-02 1.875597636649093541e-02
-1.665688884852684071e-02 3.836288198739436217e-02 -6.128595272149553463e-03 4.023898005695051849e-01 5.207431943275619285e-02 1.540537356840242754e-02
-1.928922856660491431e-02 2.695323415971998329e-02 -7.769393842156427366e-03 3.232830794742964087e-01 3.724786961904000965e-02 -1.825867713284431287e-02
2.517212479995062369e-04 2.957432925436411994e-02 -1.687383115645202381e-03 3.667720999670876503e-01 -4.908450951353859198e-02 2.572040812664746698e-02
-9.841826497123737708e-03 3.793132230168493740e-02 -5.903253556222176623e-03 4.515261609448316671e-01 1.369020579059712986e-02 -8.245604242946021718e-04
2.593340890237812689e-03 1.926635024745693495e-02 6.222043804299248748e-05 5.001186509838811967e-01 -1.652799053267552803e-02 2.257062642515372114e-02
-1.030005070698015827e-02 2.968015789871200280e-02 -9.285159453684799225e-03 4.259458614532150578e-01 4.192784828001511893e-02 1.061455454259731604e-02
5.105204265365730814e-04 3.575716490551807819e-02 -5.021583156817555071e-03 4.146461078235054720e-01 2.125719453922182353e-02 4.990892755953627719e-02
5.765664182709009586e-03 2.691231200026912226e-02 -2.965663000283585982e-03 4.522920793207925727e-01 1.202359010506503789e-01 4.493704199862229992e-02
6.570032522686926682e-03 2.525463228746103322e-02 -5.264114894142885026e-03 4.594346740808514240e-01 -1.812135720695717475e-02 4.850276879538113761e-02
1.497933679395197296e-02 2.406654425297977129e-02 -2.080715040257752335e-03 4.551164070005396245e-01 8.792299405600761952e-02 3.944880178076880239e-02
1.560481196371674411e-03 5.760158140681633475e-03 -8.568766257008308962e-04 4.179740457291180045e-01 1.732248179592918713e-01 3.715343731845406616e-02
-6.107389854387116354e-04 1.931659051759737275e-02 -1.041065819312476937e-02 4.097532362360491454e-01 2.434355590417407178e-01 2.346110585750819152e-03
-1.393212601205895407e-02 2.008403492657820366e-02 -7.867128019885649692e-03 4.938682122080379489e-01 2.482409674416686807e-01 -5.998982090321648523e-03
-1.584790598007295923e-02 3.799154782229861166e-02 -5.571475072429499242e-03 4.867261534650335064e-01 3.086714684249710627e-01 5.162671053644745517e-03
-1.577756701090682681e-02 2.020775712697714041e-02 -8.138485970587167051e-03 4.592555728121640590e-01 2.876783650789893065e-01 -2.085693097257582118e-02
-2.587691454696518581e-02 3.887702302242391356e-02 -1.102742557011769653e-02 4.264742926895840336e-01 2.389786463161653329e-01 4.445500332395490445e-02
-2.414315383532977810e-02 5.307208345727072035e-02 -6.489420918937477412e-03 3.953466354004898098e-01 1.706197530147374186e-01 1.517267301467367310e-02
-3.077186945592671682e-02 5.134370764269496901e-02 -8.275851910763409869e-03 3.780603303528868864e-01 1.458382871853657614e-01 1.199783169012360977e-02
-3.482165855447011404e-02 3.272279576219712383e-02 3.908755954478010386e-03 3.826114565250879895e-01 8.422355709187819006e-02 1.312565404872779139e-02
-2.927353536710614740e-02 3.477032319484821971e-02 -1.420479245420297465e-03 3.810736607070971393e-01 6.831277040525683686e-02 1.808502565723726918e-02
-2.075805142192844316e-02 4.903848248894068784e-02 6.414732911973752838e-04 3.534600119345550628e-01 -3.618435105548105553e-03 1.524201535507319072e-02
-2.243253379458921490e-02 3.360415105146542097e-02 -8.230717418960697973e-03 3.534422365611654682e-01 1.230052694145476223e-02 9.471854077178014017e-03
-6.543633629298503153e-03 2.944732186269613874e-02 -6.005801862068838037e-03 3.162526038188151478e-01 -5.201614520088834216e-03 -7.622102725764861577e-04
3.056243068250424563e-03 3.642889718024752699e-02 -4.205057570583703441e-03 2.192426388976361773e-01 2.916539469430922543e-02 1.108205722196818534e-03
6.631606059649904766e-03 3.856642182368102967e-02 -1.231890083462847119e-02 9.855823552346781868e-02 1.491642005921883785e-02 -3.503220866241990583e-02
-1.559967288746826747e-02 3.495826456066637028e-02 -1.694863474551812355e-02 6.729994726341646805e-02 4.158903093694087810e-02 -1.485428827995342871e-02
-5.194621096598752395e-03 2.500313019218734778e-02 -1.283686153687363385e-02 3.794549591169389668e-02 -1.688716334347478351e-02 -2.973523778234359385e-02
-1.873576039849109143e-02 1.364864559668340499e-02 -2.052811863465082987e-02 1.577291729542593633e-03 -1.034041138515020587e-02 -4.477612609171813945e-02
-2.022632052025606642e-02 -4.137752621986982501e-03 -1.479615253640656491e-02 8.609830774928829396e-04 -7.227417351134982071e-02 -1.038911619641406242e-02
-3.369243021155712142e-02 4.992405539494965822e-02 -2.001292079699501514e-02 -1.513177685212608540e-03 -3.924820904596657001e-02 -2.024855020063828087e-02
-2.529434542765506347e-02 2.385407554225728310e-02 -1.706081769677424143e-02 -2.907748872585125266e-02 -1.115797201596964022e-01 -1.467676700314651632e-02
-1.965677032021747109e-02 1.600948411864418219e-02 -1.641265116372174482e-02 -1.457961949627545155e-02 -1.329392674355994175e-01 -4.352630648346660774e-03
-1.487551594186093014e-02 4.912685760107010635e-02 -9.457297613447074314e-03 -6.404232855084640574e-02 -3.187841597897136392e-01 1.780520325038099580e-02
-3.921979713615439227e-03 5.517473468256092056e-02 -1.283873766508708547e-03 -7.949422078423246107e-02 -3.976945664996175411e-01 1.904310419304544935e-02
4.604933718892979290e-03 3.417818934447988677e-02 1.444092158380372304e-03 -1.529888427252181493e-01 -5.649604798666632011e-01 -2.285122342244243470e-03
3.954041458025478809e-03 4.305258504998337593e-02 -1.980604935777700859e-02 -1.566852196170208933e-01 -7.007639798086680027e-01 5.904844879074619413e-02
-1.170123708022621951e-02 1.963998242665551675e-02 -5.826926892782219314e-03 1.978819605233480064e-02 -5.736417030737046563e-01 2.759434384715502703e-02
-1.680546480384157229e-02 1.437545215189776904e-02 -2.217961088223208144e-02 -2.761134909130932846e-02 -3.555135513989327034e-01 1.008593187339030736e-02
-2.034938401525030263e-02 9.933981658990153826e-03 -2.352636211798979360e-02 -2.146930736962058273e-01 -1.048495001997483550e-01 -1.372591119709763718e-02
-1.354636844565363166e-02 2.756936206394840563e-02 -9.053340087195216324e-03 -5.645870912842877037e-02 -5.370147788683308360e-02 -2.155709944581091914e-02
-1.110515762917457143e-03 8.246740696711593599e-03 -6.886825182430042491e-03 -4.484327774756532298e-02 -7.955220632090062582e-02 2.591752955832471884e-03
-1.362869279637495511e-02 6.140120528939485740e-03 -1.432022619430793620e-02 -1.057295999415592963e-01 -1.786976673815633132e-01 1.751642878169689527e-02
-6.053592603680741681e-03 1.954927407379747004e-02 -9.915941894433594195e-03 -2.281351802122499328e-01 -2.736757873214349379e-01 7.428850514379614287e-03
-1.353230855014938422e-02 -1.666424929929391204e-03 -9.922624013844610902e-03 -2.046233185978223179e-01 -2.622228848451898520e-01 -1.752975469354521934e-02
-2.517506259876487254e-02 2.300405094539378914e-02 1.383839127010538794e-03 -1.018535631765090238e-01 -1.731563765379765807e-01 -2.671652272835069175e-02
-2.006947562904856652e-02 2.550095947191794669e-03 -5.421730514970621306e-03 -4.565667081866818522e-02 -1.279435907416101303e-01 -3.076027942720638633e-02
-2.182349872380536394e-03 1.140809952533061895e-02 -1.067657102888108778e-02 -1.266872009856468695e-01 -7.465590854363500506e-02 -2.149649000909928387e-02
6.188591803969299351e-03 1.277307840245862566e-02 -5.162497155992790132e-03 -1.329335754799415570e-01 -9.071963549648195957e-02 -1.805162478769185494e-02
1.040602258959479748e-02 1.588231769839087287e-02 -1.484425853782792015e-02 -9.926294433352945978e-02 -1.432595921569753683e-01 2.179582288217827082e-02
7.321140493179663193e-03 1.939900885535614239e-02 -8.973755801940694332e-03 -1.040991051028863079e-01 -2.146350330350211277e-01 1.484147297826457143e-02
-2.017372763797590368e-02 5.496563758573454368e-03 -8.676716618688545823e-03 -1.995573450208734945e-01 -1.486742377717016894e-01 -1.330295760557285989e-02
-8.962710431603251870e-03 4.748589066150255521e-03 -1.401294194929375569e-02 -2.130455385746035102e-01 -5.248466179021513134e-02 1.240296513725782680e-02
2.786430089043369362e-03 1.565166513756192576e-02 -1.840962578787330717e-02 -1.176494432235293680e-01 4.155461133183289968e-03 2.941184467776165878e-02
-1.730739832154792879e-02 4.408922461462710246e-02 -2.216952761724942655e-02 -2.772936979137528499e-02 1.454548274289716447e-01 -5.865053289542976334e-02
-1.450089088696681835e-02 -9.876185830207091440e-03 -7.625429298363808894e-03 -5.184910556018948458e-02 1.541789584419009651e-01 -3.746164816221643490e-02
-1.017710485622322532e-03 -1.552691824920553014e-02 -1.489130893631240848e-02 -1.152183850687875377e-01 1.393204650180602522e-01 -5.396339935705227880e-02
-2.640665484476005867e-02 1.855124973960247184e-02 -1.740351870676577761e-02 -1.835487572878469753e-01 -2.476284648903955693e-02 -2.515792653527970657e-02
-1.370368311981233142e-02 2.603238690009251552e-02 -1.505631814142749381e-02 -1.065721245459292782e-01 -1.303652319502884571e-01 4.865016347284022852e-02
-1.206901395477938226e-02 4.485102159886729389e-02 -1.896319747715091708e-02 3.997766198864320664e-02 -3.012044833928917420e-01 -4.319540301931325613e-03
2.847204578246950203e-03 4.268801679070471922e-02 -1.674191142768675922e-02 1.153261972647500778e-02 -3.036331330602573542e-01 -1.377589299567267764e-02
-1.805607830647577719e-03 1.360757847700147689e-02 -1.575765554035292448e-02 -9.689321431189007461e-02 -1.011476553821729490e-01 -2.638611940028177255e-02
1.416531933306670703e-02 9.858678112128309301e-03 -1.008673803052043128e-02 -1.601799985777317692e-01 -5.666639983755083695e-03 1.343933167775334010e-02
2.767095194594282326e-02 6.787454296423600132e-03 1.832042026493285736e-03 -1.274154028312161346e-01 1.273552660861201336e-01 -9.489432247279950758e-03
-9.493311164003903277e-03 1.842259572461567253e-03 -8.136859078382907562e-03 -9.338191781583600470e-02 1.071737084731734235e-01 -1.966220063059558390e-02
-1.077019557633470369e-02 -3.299299126847034941e-02 -1.396510232383457728e-02 -8.311806414908472218e-02 7.443156094387801125e-02 -2.833593048463801597e-02
-2.794405810596151812e-02 -4.190589479278045842e-03 -2.020593137369144920e-02 -1.185661247760539799e-01 7.626053673292196126e-03 -3.789125148399836995e-02
-3.274058058864019738e-02 1.002366973044648869e-02 -1.454247890541802979e-02 -1.289426836464266368e-01 5.769412166534776398e-02 -7.512677061412167609e-03
-1.927446422168924145e-02 1.404288943777852287e-02 3.290097414895276628e-04 -1.428151698270667680e-01 4.880247400821365045e-02 -4.668485741008523981e-02
-3.122376973959713198e-02 2.738922062810295044e-02 -1.374241546143599446e-02 -1.933769783309756407e-01 6.347717118502667344e-02 -2.841164859117852395e-02
-4.197424948460100336e-02 1.169965591826765960e-02 -2.179745828739941549e-02 -1.920423482825355521e-01 3.428700348696311212e-02 -6.418005658659454993e-02
-1.449887733892883841e-02 1.023197854292927367e-02 -1.336560754621926583e-02 -1.888301197152270072e-01 -2.659234155119388592e-03 2.998007262900528186e-02
-2.074031191803190483e-02 7.449599193486394766e-03 -1.041434857142123360e-02 -2.160661740022860877e-01 5.274651421435227333e-02 -1.574832297835117301e-02
2.279726511658337895e-02 -2.738161249763121710e-02 -1.868288355378484866e-02 -2.105085516167004844e-01 1.111561155092371800e-01 -2.005508887688258607e-02
3.189872176503974043e-03 -2.642787308386221334e-02 -8.835590580021868146e-03 -9.881016914047958954e-02 9.669007654431123477e-02 3.982920742472437908e-02
1.332320028309558028e-02 -1.906124142650945583e-02 1.307131013807730224e-02 -2.527949631823289689e-03 1.709828056002618210e-02 -7.370007984574896039e-03
7.214870806575014207e-03 9.276419886351200059e-03 -4.900897123831987612e-03 8.920657698840626926e-02 5.531063358388615958e-02 4.930340028063086993e-02
-6.885234385148947082e-03 -7.185424100739407419e-03 -1.227942002625852236e-02 2.233974653921833031e-02 3.112772692282932130e-02 -2.184131652936193140e-03
-2.840532378227689572e-02 -1.082594891907789902e-02 -4.415694463851649321e-03 -3.225566783243331848e-02 1.857416955088529373e-02 -4.820477788949171713e-03
-1.776267047597664822e-02 -9.955663884407913236e-03 -1.221381599477554258e-02 5.168494532944420405e-03 7.199409633514806950e-02 1.861363999037212932e-02
-1.858252278091236664e-02 2.260847520922384252e-02 -5.821342190451828102e-03 4.806663647878601370e-02 7.633962299213899183e-02 1.210319788542560046e-02
-1.441866565187375528e-02 1.655304742162155493e-02 7.678894793349266834e-03 6.252902302237650645e-02 8.048691585705868012e-02 1.321362582986343806e-02
-1.079365078635031484e-02 -2.474656421829730425e-03 -1.929556986346143976e-02 2.794780724127237173e-02 1.040119906974569797e-01 3.892312963485908966e-02
-2.452393587443996853e-02 1.570218333359572199e-02 -2.296234582994000073e-02 5.551669612948872262e-02 1.247281534605660519e-01 5.315025224443428037e-02
-3.003482619600189758e-03 3.609406946015691897e-02 -5.285779797474840502e-03 -2.055189149013212160e-02 9.952551548219637501e-02 6.550795105412875186e-02
3.019455197428514912e-02 1.140814529734664878e-02 -1.794210572191556885e-02 -1.094055391041559994e-01 6.890225680142179898e-02 -1.425311256997141389e-02
1.765098404015755934e-02 2.659850712997524624e-02 -1.350601439299944917e-02 9.845785932098051474e-02 1.408657167318342618e-01 3.425606241523667522e-02
7.943868090620953212e-03 5.338735623105920342e-02 -6.743005841319316129e-03 -5.493090891418606417e-03 1.068013470162641754e-01 2.516715567046173135e-02
3.293547024648954546e-02 -6.690559057018720043e-03 -1.700128279012252941e-03 -5.738378309680253198e-02 7.048104647663863687e-02 -1.400804023069139072e-02
1.635277645196542631e-02 -8.017838426167451377e-03 -1.083550554853518477e-02 -4.195072655913281712e-02 1.870265873541776753e-03 -3.636042106535113810e-02
3.511962984282102768e-02 -4.423436297434633208e-02 -9.420388721080585892e-03 1.668451688029245344e-02 -2.027438527023909740e-02 1.069770874783254437e-02
-4.660012460255021430e-03 -2.736508323967525719e-02 -1.634068865679275118e-02 4.915789279394346123e-02 -4.727173140345577312e-02 -1.577407059857050334e-02
1.580459661175199690e-02 -2.186594180817846497e-02 -6.217666453230130674e-03 6.802092962554998068e-02 -8.950713260135571836e-03 -3.132328363382055197e-02
-1.409401956905241386e-02 -2.641717582599125216e-02 -9.841106633054749753e-03 6.139772745045731644e-02 -6.088580210009576256e-03 -6.258826299202133181e-02
-3.467751672387425071e-02 -8.685777272982343755e-03 -1.623939843402966154e-02 4.045156139027496212e-02 3.162889296661042932e-02 -2.712894095526820204e-02
-3.767139461363000486e-02 2.611888172646117598e-03 -1.945572450458771252e-02 3.018892244410563766e-02 4.071367242671697362e-02 -8.033668559818232455e-03
-5.813112384593869392e-02 -1.024007669098183325e-02 -1.832133228031748717e-02 -1.078354499825881670e-02 6.486180030920295214e-02 -5.423167849500869475e-05
-5.102986089994727276e-02 -2.662402151667085659e-02 -1.410299468604168938e-02 -5.623797333234772933e-02 8.278978531362055082e-02 5.019869592163814231e-02
-1.525605863158486716e-02 5.597091384756208016e-02 -1.933030452432425716e-02 -4.409934618004900109e-02 1.078578901372094084e-01 -6.032227652165187554e-02
7.971195835903277516e-03 8.205230140207057932e-02 -1.856824699529527334e-02 -3.051985853015453526e-02 7.247036763063979814e-02 -4.208411961799146672e-02
1.346466719007918290e-02 5.124902558464705660e-02 -8.471057544235230385e-03 -7.470825422810617455e-02 6.411390806241046032e-04 -8.565691191892581269e-02
6.639471201323983614e-03 1.395515426050541324e-02 -1.312468563767288376e-02 -1.375720897766970485e-01 -2.906543097391648192e-02 -2.886262730692082737e-02
1.666016132415915063e-02 5.430564936030347206e-02 -3.758692484483155960e-03 -1.448510420126794263e-01 2.021415434973701172e-02 -6.650341530508667443e-02
-1.369135950184850389e-02 1.656493714834905359e-02 -1.375279663375655881e-02 -1.800524496554907761e-01 -1.765299995403913844e-02 -3.998632920585457919e-03
1.461046503291975503e-02 -4.245814859269768718e-03 -5.870687199279467361e-03 -1.809051310632552312e-01 -6.367694398423352602e-03 1.905542484413465937e-02
1.637519564095344868e-02 9.187392540861312462e-02 -1.544716479967862821e-02 -1.703708883320823597e-01 6.919312022658493516e-03 -7.959583800217784333e-02
1.881854622544735373e-02 4.870462669811646134e-02 -1.815286476774682911e-02 -1.453575290740320436e-01 1.161436519707765604e-02 -7.954863960895662556e-02
1.647056153068871334e-02 5.251393209970701970e-02 -1.939371741700070262e-02 -1.510171354704636648e-01 7.248622179077667330e-03 -1.248160808810701988e-02
2.626145833552903652e-02 3.776708618985393645e-02 -2.015003022557818047e-02 -1.425617303734858232e-01 1.798899836637065514e-02 -2.597183024098190587e-02
3.702890036487461317e-02 6.323686312591855763e-02 -1.460131822776108979e-02 -1.613797618924592003e-01 3.556375097564922622e-02 -5.241091266975588664e-02
4.066913798229515598e-02 2.804554430798366499e-02 -1.822028763832109211e-02 -1.702877253466668350e-01 7.327715761644386372e-02 -5.239820343249946763e-03
4.293055720912978407e-02 1.080551944861609173e-02 -1.833968086912833584e-02 -1.337745595276550736e-01 7.159837031975904709e-02 1.305089180435745283e-04
3.259662286829508732e-02 -1.624163667648644699e-02 -1.448053404971999525e-02 -1.108044954139023180e-01 1.098744671983832022e-01 3.033256401048320741e-02
9.605983431735166944e-03 3.808018230188658232e-02 -8.013623903044636565e-03 -1.440068973763767302e-01 1.000206416886286337e-01 6.222179593085012950e-03
1.764713889760924706e-02 2.678366006858281037e-02 -8.157608886286166205e-03 -1.901586761611716581e-01 7.499077309006835224e-02 -1.486791131844271072e-02
4.455876024078950920e-02 1.132986077219499607e-02 -1.872972990875299004e-03 -1.629135089512734613e-01 4.744606925382731377e-02 -3.415551014329944873e-02
4.062951656203329237e-02 1.033744812398345800e-02 -1.364012056991222022e-02 -1.135465945521745013e-01 4.996593974746048328e-02 -1.725863319310866340e-02
3.088401387911637874e-02 -9.761368534505173930e-03 -8.637900041893312175e-03 -9.873889043845175684e-02 6.719378537299770804e-02 -1.745211510717213643e-02
2.006971497546947841e-02 -2.589719895652821055e-02 3.055700343027045740e-05 -1.011784098110183189e-01 5.342393287758174375e-02 1.464156269315656199e-02
7.607761572890722052e-03 -9.593306531946992760e-03 -1.215880076117911712e-02 -1.126331425606401232e-01 3.090169200944495320e-02 8.484334422960029473e-03
1.009372029797298530e-02 -3.181639458486881095e-02 -1.974918464278900554e-02 -1.495565945751231862e-01 2.741392905645128469e-02 1.787641544746885677e-02
2.955275989310119332e-03 -3.767699259605083312e-02 -1.809808425085342176e-02 -1.528073741073378289e-01 4.209340642442278152e-02 -3.488040426545716260e-03
-6.270915730823361199e-03 -3.495229235076254340e-03 -3.473878376308914273e-03 -2.015156426742131246e-01 -3.212978722213598315e-02 3.856781611353031491e-02
-2.307853976256370176e-02 -1.221081433074185790e-01 -9.652571518609681656e-03 -1.481342474591882397e-01 -4.511212017004718328e-02 4.623081041665715041e-02
-1.684520441962060813e-03 3.590306645211564784e-02 -1.016054636061540506e-02 -1.246605291577485980e-01 -1.228702259185819601e-02 7.193069309826581603e-02
5.685096852427898827e-03 4.595619624343151577e-02 -9.964724937697927443e-03 -9.634495433953946253e-02 3.561866810896243719e-03 1.317686904270183069e-02
1.425977127363289767e-03 1.700153460753181306e-03 -7.875246224536253115e-03 -7.040421901173768426e-02 -2.641511052725501602e-02 2.512859847953020573e-02
-1.370594988486634191e-02 2.870718108282842990e-02 -1.608724422018262268e-02 -4.712399150767913186e-02 -2.708496085098603331e-02 2.487923069332543050e-02
-1.059064281294670902e-02 4.345703259455202354e-03 -1.000250004722758046e-02 -4.041471307679781605e-02 -7.658717088136705875e-02 3.142602066446525261e-02
-1.939380638891916031e-02 4.330251825871157118e-02 -1.716260583996179201e-02 -1.870692777468440857e-02 -1.686192801646060196e-02 1.127563328229533833e-02
5.365272114060873516e-03 5.896164101337961205e-04 -1.004934068009467885e-02 1.067915927128326586e-01 -3.570648535541189050e-02 2.556071615454083221e-02
7.347801986574065657e-03 6.595219622323725273e-02 -1.319136961042123579e-02 8.438858182693483034e-02 3.813361974723442072e-02 1.841533591315418087e-03
1.674019313985666835e-02 2.985002003509301671e-02 -1.845087498307196316e-03 1.352999214116431259e-01 8.593621665714056002e-02 2.210879253733219127e-03
1.253175796388199606e-02 3.264024590022244349e-02 -8.582786653799176491e-03 2.055102020179466471e-01 8.663790941499349696e-02 1.110782665199033271e-02
1.034046508838256870e-02 2.124112810772516707e-02 -8.865005234578310356e-03 2.407423367601014552e-01 7.325956504497763144e-02 2.337424652429272165e-02
1.498518319644672608e-02 2.438513940963450352e-02 -1.420608579451454467e-02 2.433469202339192394e-01 1.164711405621921270e-01 7.959839585020394778e-03
1.972864975270423663e-02 -9.902124652672872340e-03 -1.421541656480934668e-02 2.126161924022164917e-01 6.159440665385590430e-02 2.673070659180084782e-02
9.448864949027177985e-04 7.569204508740220994e-02 -1.079722151082025683e-02 1.857689808649137519e-01 -2.970544781848750981e-02 -2.163628013478231110e-02
1.474044229988375767e-04 1.273698375816214928e-03 -5.993806322162342770e-04 2.138945612873308089e-01 -4.259024667491301958e-02 2.764699306634763043e-02
4.012513086363331954e-03 -4.711154985117853300e-02 -1.739053977035769083e-02 2.336514807560088336e-01 -2.987315306191737005e-02 3.128952551645927671e-02
1.893670630398435785e-03 1.176794885408656045e-02 -1.963694689687464634e-02 6.848369304108137268e-02 -5.682441324271054334e-02 1.531619740271272269e-02
2.252063377676833539e-02 9.362017690714374840e-03 -9.363273710187497434e-03 5.839764011679203504e-02 -4.416489818333194789e-02 6.824992895195285125e-02
1.428838230345195158e-02 -4.149651168422689024e-02 -8.648184928713845143e-03 -9.077215300672043796e-02 7.714800439955552848e-03 1.222969989517683469e-03
-3.103023516454330583e-03 -1.490423221984031772e-02 -1.635008734325081592e-02 -7.281159482251615966e-02 1.590363043034332541e-02 2.110053192729134056e-03
9.839312292556065542e-03 1.703037498511314474e-02 -6.566073844059092113e-03 3.773347955894261474e-02 1.154369799836890004e-02 2.953173472072919206e-02
5.672153065770133788e-04 8.944204393500573141e-03 -3.483228980538405350e-03 4.429017300139714147e-02 -1.911774454860003247e-02 -3.975165391448307918e-03
-1.096383691462551879e-02 1.878592765786761543e-02 -2.532309878746169529e-03 1.890855411276983269e-02 -2.797676268015887244e-02 5.627554913948197568e-02
3.091305701386628819e-03 1.143001517090327197e-03 -4.358612882505663588e-03 -1.860213781281416442e-02 -3.039786622721818779e-02 9.950336219465602539e-03
-1.968912927318314059e-04 4.026320535150986618e-02 -1.117541617306890001e-02 -2.439792964911727952e-02 -6.398602246198395460e-02 5.356081766428561625e-02
-7.829702063480209820e-03 3.009166665629469870e-02 -1.426217747562749660e-02 -2.469099493051123834e-02 -5.834035659372164423e-02 1.906714502464811403e-02
-1.622694605297361108e-03 5.760148470348180894e-02 -1.207100846485950618e-02 -7.414119081142567756e-03 -1.251106322279163345e-02 2.808556310496145361e-02
-1.867981033306358868e-02 5.961473342527009306e-02 -1.716138007324470582e-02 -1.659621469643099770e-02 6.192961241166324731e-05 7.021714765287600732e-03
-1.960410019976419754e-02 4.040395837183084066e-02 -1.690297304620475005e-02 2.718398846919388087e-02 2.855181311382192638e-02 8.290920383327300691e-03
-1.222915044055386188e-02 2.231347832348203747e-02 -1.539702744897403219e-02 -1.114102183380692376e-02 1.242971789829120342e-02 7.920810634701245037e-03
-1.837651829756746166e-02 -6.655022613730508275e-03 -1.807613505998505177e-02 -3.589049701419805977e-02 2.605743867211129244e-02 -3.461832336626027851e-02
-1.488563566296280394e-02 2.906581797810658951e-02 -1.755118444357053886e-02 -5.642373043265226477e-03 -5.007097813247030765e-03 1.355382770708641032e-03
-1.308897816763178630e-02 8.163584830439817594e-04 -6.144095064618396163e-03 -5.214336946318642169e-02 7.334587094104531857e-02 -1.868564188487606620e-04
5.697075512233782529e-03 1.619373115558126602e-02 -1.935989081469562112e-02 -1.866322045564711707e-01 7.127424059943512913e-02 5.148988069898260966e-02
-5.856862159620493044e-03 3.139776770561521907e-02 -2.785677879577597160e-02 7.234715187392332103e-02 2.476417944192198586e-02 -2.872945869892271770e-02
2.079099935194743745e-02 -2.898984061137659888e-03 -4.537470302449775339e-04 -1.675240927437354199e-01 -3.256207525523196339e-02 -1.134779498925072953e-02
6.344141781211727876e-04 2.314957325728849141e-03 -3.778711540477153186e-03 -3.251729196964073254e-02 -7.401992842038970788e-02 -2.952915076682081572e-02
-2.737671082227095907e-03 -7.339393953515291509e-03 -9.805431084193072522e-03 6.935928929601038739e-02 -4.588951942439524478e-02 -1.451727781268912290e-02
3.092967937036479945e-03 -3.750407528252295425e-02 -1.387076189628036471e-02 9.314892420102428849e-02 3.561472395504736155e-02 -4.385300107715252999e-02
5.083674542788293310e-03 -9.829790969001920621e-05 -1.421031117342945460e-02 5.924426508618096943e-02 7.319110743789111750e-02 4.617036139789446221e-03
-1.009010426181071451e-02 1.612452089788791315e-02 -1.810277646949612351e-02 3.312077690349479048e-02 5.680006886158621426e-02 2.487964111914644019e-02
-3.075515361577080796e-03 -1.669328684445227633e-04 -1.831079547351131820e-02 5.464964640872286422e-02 -1.030270211202689032e-03 1.018424574815944388e-02
-2.163752910729513021e-02 1.177730470702169352e-02 -1.324163385211009347e-02 1.010875515430389032e-01 1.336887227656177041e-02 3.951639258608755784e-02
-1.902453421439342582e-02 3.175941075835092553e-02 -1.772953206524288672e-02 9.792000095392680570e-02 3.296053763007503190e-02 1.042741651199515472e-02
-2.455999194893323731e-02 6.021214643812837670e-03 -1.179843181662623697e-02 3.941574799840332627e-02 7.513012832350597636e-02 1.359574693633278791e-02
-1.317239309132425470e-02 1.062860538507189555e-02 -1.324542711444201548e-02 6.538471700149503518e-02 3.624424370283077512e-02 3.678110180107625055e-02
-9.830381619760676388e-04 3.442156838084736020e-02 -1.486824800229701038e-02 8.623108242683337477e-02 -8.324689007893470299e-03 5.182186110024029901e-03
-9.410806055909924986e-03 2.371701182501049360e-02 -1.035585766030927557e-02 7.016039112521289811e-02 -3.102304535895247621e-03 1.551972434090511874e-02
-1.857201144671511914e-02 2.643994798873322560e-02 -8.582490219538052578e-03 3.534633783567813631e-02 -3.333681275596938297e-03 3.305188450249018500e-02
-1.546297500027039341e-02 1.139553831627639242e-02 -1.495596320559586245e-02 3.022857624547241676e-02 6.029512857083415417e-02 3.498596809648622102e-03
-9.407488629054678447e-03 2.786475817843240242e-03 -1.488661496878751489e-02 4.939739301516046094e-02 7.335105534058625198e-02 3.771762807325951955e-02
8.873705525564219709e-03 1.978128521727104752e-02 -1.798424714447868777e-02 8.268292365990405346e-02 8.767145717182459053e-02 5.202990041015188166e-02
-8.775633467591106157e-03 1.138585214582440303e-02 -1.880868257312399983e-02 1.017621172424204440e-01 1.018044789958755802e-01 2.107900593444451270e-02
-1.231588798766089510e-02 -4.735864468437394888e-04 -1.841887713005060934e-02 7.396299150649050802e-02 1.192510712391232214e-01 2.823312520556895550e-02
-1.655785266672327519e-02 3.650944741348843142e-02 -1.942165814138054059e-02 5.771268797574363729e-02 1.052817776366107988e-01 -7.262554793628474628e-03
-1.857067278298189794e-02 -1.596529451615887876e-03 -1.516039757350011452e-02 3.560317338548991267e-02 6.438526279761404292e-02 3.897694310035468052e-04
-3.597091715449643456e-02 -2.405262878868643858e-02 -1.695166539664605398e-02 2.374822055395217277e-02 -1.510089684669511023e-03 -9.660399881286169110e-03
-3.516602572338362737e-02 3.589147048617767621e-02 -1.468697094197561615e-02 -5.505082411152648937e-03 -7.726305062734788176e-02 1.186465292055097209e-02
-1.152506546092119978e-02 8.139093294388782471e-03 -1.054943819923542803e-02 -2.402349451387813736e-02 -1.322323634194769448e-01 1.703768113357399458e-02
-8.274176472826964487e-03 2.244857557660552907e-02 -1.897590760058782966e-02 4.033779668281961550e-02 -2.281251948751367997e-01 -5.220361143617076316e-03
1.188835806142263946e-02 9.967283916955360992e-03 -1.214939887540618380e-02 1.326892731821151250e-01 -4.977258979301244640e-02 -2.328855486443053013e-02
-3.284400204908642391e-03 1.011554629846285816e-02 -2.036936804279552982e-02 5.762185415183264381e-02 4.099401573424239081e-02 2.715541636527559095e-03
1.500237595494935666e-03 -4.318774708183958574e-03 -9.282861152040022823e-03 -5.785833213211492160e-02 2.444799971328155130e-01 -3.815210055785617227e-02
-1.053743021715095214e-02 -7.470906283491879525e-04 -2.195384156262772390e-02 -1.241180949732763050e-01 2.289788297429682928e-01 -1.141543384321637780e-02
-1.124148678490600323e-02 -9.906626622883114852e-03 -2.162804301373952298e-02 -1.240617709718537243e-01 5.759818476629426087e-02 1.269740597941466790e-04
-8.341311169779423718e-03 8.757280782800080932e-03 -1.638129647873318162e-02 -3.555428041449962273e-02 -8.239356435607882168e-02 9.151984943864979391e-03
-5.740002853281795173e-03 -3.596083035273725526e-02 -1.239345146516561413e-02 7.645683503456409714e-03 -7.350199354947220542e-02 -2.647415050851106063e-03
-1.541361525627742840e-02 -4.267251360764874601e-02 -1.653350703296996294e-02 -5.816652906891654068e-02 4.024651470121370922e-02 3.763826470199752722e-02
-3.287218714133126329e-02 3.232294979095442448e-03 -1.591023482694875479e-02 -2.997921408439806895e-02 -1.299847149048495576e-01 2.444299998843042776e-02
-3.379071464484303955e-02 3.026237372147512830e-02 -1.633493589952761393e-02 6.906878623326119515e-02 -1.649436579741898334e-01 3.362226462337972177e-02
-3.693336254272340524e-02 2.410634792820485692e-02 -1.031409003346361875e-02 1.793446924122099606e-01 -1.134607195327912293e-01 4.157889354595530051e-02
-2.898280953569405682e-02 3.654853445363071690e-02 -1.165993902450068731e-02 1.832485988840351354e-01 -1.357228454623104763e-01 4.249148704208187410e-02
-2.662682034107573953e-02 1.956515509053997209e-02 -7.361192914317027380e-03 1.519201772408735052e-01 -1.753209791779048454e-01 3.161263070515345913e-02
-1.042434476140243274e-02 4.454489259180655775e-02 -9.252098468003566722e-03 1.170275564246605199e-01 -1.351550116625256370e-01 2.735851008757652150e-02
-8.459302226058961621e-03 3.359672338742798747e-02 -1.074335261412755205e-02 1.582395516556832360e-01 -1.073187428526518328e-01 1.359529577061092086e-02
-7.553879797851674373e-04 3.513092295952657818e-02 -1.583512307758103144e-02 2.601302327196987063e-01 -1.391557420525685318e-02 -6.036152222299597490e-03
5.666572482024065556e-03 2.602973006875615447e-02 -6.852287514205329666e-03 2.478683179969425054e-01 7.340524382428520456e-02 3.720942185971355676e-02
9.090447216646903306e-03 9.235886059684334307e-03 -3.786393431883888772e-03 1.990175242089547714e-01 1.186105878454950247e-01 6.445277893060416541e-03
2.082017738183807032e-02 9.955287621599268316e-04 -6.280608583390245858e-03 1.839014482728079658e-01 1.367920550415355485e-01 -6.940734480415579333e-03
1.852393560608727591e-02 4.037584189385787226e-02 -8.259489947995760084e-03 1.696770749423727187e-01 1.061010221786103658e-01 -3.100884389124199114e-02
4.066140683250832853e-03 1.948102287849123176e-02 -8.615812167877379135e-03 1.770038531649651969e-01 3.174767593682728539e-02 -6.286814078932349836e-02
3.021091767966213246e-03 1.508171347937293984e-03 -3.670671727435154130e-03 1.903391170044223812e-01 -3.887570791847334145e-02 -3.371871832285331522e-02
3.315099273945498835e-03 -2.483594844462438944e-02 2.448469569984457195e-04 2.152181143550037645e-01 -9.784825281728606883e-02 -7.825164169708145878e-02
6.575873759584084308e-03 9.534239536357333455e-03 -8.614192558443242720e-03 1.639247279042946037e-01 -1.183589244629854320e-01 -7.467205306037080770e-02
2.562872288976344483e-03 2.075767645742583600e-02 1.730121820586627557e-03 1.230339894912566845e-01 -4.885406574305328070e-02 -2.104528886412722691e-02
1.251836879913250516e-02 6.974716999615569735e-03 -9.375378363331673959e-03 2.274708080210399996e-01 -1.236778026674758557e-01 -2.781964236523992023e-02
2.340633393434265672e-02 -4.106467387168846392e-03 1.114381596907731975e-02 2.494624474697723915e-01 -1.100512867953358162e-02 5.194665940216103284e-02
1.133381322338864947e-02 4.419602479914715165e-02 8.769500548633235582e-05 1.540061331156642455e-01 -1.031223468688657330e-01 5.730223266948433758e-02
1.292709240078057480e-02 3.618097112871748039e-02 -5.647413268156445398e-03 1.781446522755101847e-01 -6.357657103621335015e-02 9.580953435215608036e-03
7.581325494119705959e-03 1.815350816353058019e-02 -4.737245066181700048e-03 2.079826873580631619e-01 -2.027791458036028865e-02 1.278750633575054772e-02
1.662717622328336795e-02 5.664928552846238904e-03 -1.251572106076209723e-03 2.822530047330240044e-01 -4.037683739284860657e-02 2.153919557128776072e-02
4.047098158488242662e-04 -6.015013696418103351e-03 -8.388389086927405813e-03 3.051897162014240994e-01 -8.399162506258224525e-02 -2.475171017951876933e-03
-7.486182939758266076e-03 -1.806950195614918583e-02 -1.012106668822815303e-03 3.026964264988142861e-01 -1.517474320095852369e-01 9.495879243035527939e-03
-2.046172866027779619e-03 -1.746006082124905217e-03 -4.254781735415463784e-03 3.056690968524213292e-01 -1.336598988020621659e-01 1.231884833841141898e-02
-5.961267374628329355e-03 -1.326574394649854098e-02 -1.281144153219712645e-02 3.253739454389071861e-01 -3.838972192391035265e-02 6.588956964907129177e-02
-2.113394424963412760e-02 -3.321605901074143729e-03 -1.506217133467699365e-02 3.457207564525755505e-01 7.283892695950223983e-02 1.820212372029846905e-03
-1.954551146466152606e-02 1.221919912625066273e-02 -1.676954808986266809e-02 3.785015094484950327e-01 1.396389632904951883e-01 -5.853913256631010364e-03
-4.255748061764345544e-03 2.027065952273503224e-02 -7.937630783851873373e-03 3.376751915590301967e-01 2.679359514573000367e-01 5.167715291080451218e-03
-3.183038120946543592e-02 -1.557717055711226734e-02 -1.858005542622090389e-02 2.071271963558234119e-01 3.491502102196326618e-01 5.817133007351968366e-02
-4.945617393736564428e-03 9.183743616239111243e-03 -1.109444865510346434e-02 2.836240895346701651e-01 1.474826403177363632e-01 1.571136322534278859e-02
-9.283432058686315672e-03 8.185146479613360226e-03 -1.330377219711911807e-02 1.423979445294518698e-01 2.885052125564299685e-01 5.498133279493892106e-02
-1.290158117234148621e-03 1.638315482590435926e-02 -6.089173206635975499e-03 6.445764417817417824e-02 3.052389481260885384e-01 3.321500561682668579e-02
1.097991572293384628e-02 1.481593762351307401e-02 -2.442163974837596729e-03 3.205187142340611139e-02 4.013802757987023906e-01 6.499979011671748463e-02
