4.125051889260661353e-02 2.086935264962321290e-01 2.106294443251748860e-01 2.676503118800575062e-04 -1.317118263676513717e-03 -5.275472303085988468e-01
1.330146409901419510e-02 1.789772623224909487e-01 2.106176871995751876e-01 -2.209084023461272876e-05 -5.067942129966323487e-04 -4.305424305933329143e-01
5.218013211629371484e-02 2.207540583779478149e-01 2.105565545492361634e-01 4.939771912635207586e-05 -4.746386025080563502e-04 -4.191561758855510966e-01
-6.638662283047651325e-03 2.155778775596637331e-01 2.107010941168992457e-01 -2.823437340228153523e-04 -6.148969390913579290e-04 -5.401946353303890280e-01
-1.716769312158751559e-02 2.019936916321238007e-01 2.106126810659832427e-01 -1.171865206968286980e-04 -3.718024516087518210e-04 -4.376386930295929067e-01
3.386954919951404297e-03 2.254281086781438070e-01 2.106418451511624101e-01 -3.654779903342455019e-04 7.656510842691376529e-05 -3.960920589120757174e-01
2.600809405624488618e-02 2.176218932837026276e-01 2.105353128098441107e-01 2.394082049784650374e-04 7.955532862601582416e-05 -4.580537397884827944e-01
4.750805529026048968e-02 2.105325221031703609e-01 2.105215119264761681e-01 1.057009866091212586e-04 -9.757093818056613519e-06 -3.764051700801347988e-01
3.807120978503730768e-02 1.509907737209513767e-01 2.105587756720537773e-01 2.406077980951133754e-04 -4.949861946273204387e-04 -5.023254008781755653e-01
2.469537497594514672e-02 1.779729994112878855e-01 2.106437504438917196e-01 -4.238881517109553535e-04 -1.549514716601035121e-04 -5.204347492779562989e-01
5.879015330470885314e-02 2.022127558265645331e-01 2.105245323519264189e-01 2.405174300116769972e-04 -9.145027402413881585e-05 -3.985726115663424940e-01
5.497263456266048703e-02 1.753738498094827014e-01 2.105649289563910065e-01 8.151224766232000203e-05 -1.012370515250943513e-04 -4.460606828739077656e-01
6.873259681419680023e-02 2.049121261026272955e-01 2.105286708963883258e-01 3.427451396984413311e-04 -3.717800662076398426e-04 -4.775609930066733733e-01
4.670574559371497292e-02 1.768991855777179711e-01 2.107298139808558290e-01 -5.664946494304356041e-04 -5.591789741145434959e-04 -4.656230037857281845e-01
5.539638369417208830e-02 1.836362205254928326e-01 2.105020725455294950e-01 9.794100805556267607e-05 1.610476586335525821e-04 -4.191473114124731336e-01
4.859921677335744816e-02 2.225793882902946386e-01 2.106931629625913294e-01 -2.225971579624454752e-04 -8.385834716243060734e-04 -4.282651383856398430e-01
7.140737562882661094e-02 2.324379558681279601e-01 2.105679882839670558e-01 1.477891440464762553e-05 -2.467102175007598354e-04 -4.573560913149141149e-01
2.328399120491523797e-02 2.183816051772134448e-01 2.107115468728456009e-01 -3.851012699208648999e-04 -4.447112657835757899e-04 -4.365815137624831643e-01
2.612046134075517514e-02 2.535833156390249199e-01 2.104556789465579780e-01 5.759673339134264601e-04 -6.283746340650955787e-04 -5.450380397702609958e-01
5.115279434118488733e-02 2.105191145735161307e-01 2.106212754608051130e-01 2.500536252477489742e-05 -1.139508395722290453e-04 -4.253530519045124469e-01
5.880808061990486918e-02 2.412547976404637862e-01 2.105912341020411693e-01 7.526349182470555587e-05 -3.843278410343403239e-04 -4.570143145040192478e-01
5.867970530992865086e-02 1.714501807034969905e-01 2.105802650896637096e-01 2.250729634538597317e-04 -9.135393733844081050e-05 -4.776446841661983189e-01
1.801740241356445879e-02 1.014625430089406838e-01 2.105863188722421619e-01 2.470134338918521092e-04 -6.089768668897509608e-04 -5.108682823059487177e-01
2.806057372648802090e-02 1.192585422408526663e-01 2.106159509264091678e-01 4.649164005366620162e-05 -6.218460782286762585e-04 -5.043749630014718877e-01
1.670317072791555058e-02 1.303197163941942627e-01 2.105732448080904207e-01 6.882846290486827165e-05 -3.862724350606290200e-04 -5.207613429312288877e-01
1.342448728285457887e-02 1.058968867024883131e-01 2.106018623461187733e-01 5.839394384674932102e-05 -2.109058400703260475e-04 -4.298869621487715897e-01
-1.419195644006769619e-02 1.199289655071675287e-01 2.106178328013720291e-01 1.504305223214751693e-04 -1.182050862935783622e-03 -5.885184947916853870e-01
4.896684458644437465e-02 1.445774594474257269e-01 2.105508467390783678e-01 -3.756761902865372995e-05 3.902805895590489974e-04 -4.260322631029023199e-01
2.042317134186758670e-02 1.376139803091850911e-01 2.105986326400438591e-01 -3.345883383977941365e-05 -4.721531708108096196e-04 -5.244304997888957764e-01
4.004363868078723160e-02 1.231306987947109188e-01 2.106114378534409415e-01 -3.580535556369489358e-04 1.771279136532019096e-04 -3.667188007285897000e-01
4.184901168245125369e-02 1.461991442610555414e-01 2.106199254900071316e-01 -2.060626012555561327e-04 -4.368709724957707714e-04 -5.156434213139002853e-01
3.361697056458969740e-03 1.634722169610929310e-01 2.106170117803995989e-01 -1.375745072334408010e-05 -7.123123643541854873e-04 -5.231379124359957222e-01
-3.321994587110917163e-02 1.123082290971942204e-01 2.106082269556439068e-01 1.617396158253193051e-04 -7.078175407588481981e-04 -5.247492007318230733e-01
1.264336381980202609e-02 1.624910221221939621e-01 2.105457608482494414e-01 -1.390804922405790029e-04 8.590641607212107407e-04 -5.084454215498297458e-01
2.314093052498539596e-02 1.813577148539004258e-01 2.105934952592299347e-01 -1.115594443340093585e-04 -1.881055029416167548e-04 -4.816875397789384117e-01
5.089982793033157038e-02 1.978192363218979344e-01 2.105438731256739082e-01 5.559960873410402509e-05 3.528462835994304820e-04 -4.220269089351909586e-01
5.312064621957369309e-03 1.744197844578897205e-01 2.106660338599921634e-01 -1.786658667937258776e-04 -8.208840214973911302e-04 -4.670508690783537475e-01
6.165604150447955012e-02 1.871097864700137781e-01 2.105540721085225053e-01 9.408854044746321472e-05 1.377956880242502753e-04 -3.936296413788413218e-01
4.666579785733641905e-02 1.540905684893021654e-01 2.105841907787149858e-01 -7.837515462681374798e-05 -4.770088214566305931e-04 -3.689370366175928617e-01
3.142773620833749781e-02 1.259310490862751153e-01 2.106436665704207178e-01 -1.420655681493461487e-04 -3.579594556168934219e-04 -4.079405920646530515e-01
4.715821792757982078e-02 1.593955957443462801e-01 2.106469222448744683e-01 -5.871168569603784672e-04 4.526415260658781881e-04 -4.283674215990745382e-01
6.737341152852086013e-02 2.508115301203587832e-01 2.106152445584639210e-01 -4.334413107901187510e-04 3.716438772753121876e-04 -3.424545122397252839e-01
5.587491236417754803e-02 2.769920889571291234e-01 2.105104409458009584e-01 5.644212482260016657e-04 -1.039171322153476179e-03 -3.171417675684165549e-01
7.242428186744497010e-02 1.614391043554489480e-01 2.107691558801942366e-01 -7.002231252079729306e-04 -9.172301407866311580e-04 -3.809389908583726836e-01
7.862738532733729718e-03 2.056639462516688943e-01 2.105473678273356852e-01 3.038985754214337917e-04 -7.026462552016783875e-04 -5.657853589119946625e-01
-6.432486915384328513e-03 1.524164502824970624e-01 2.105368861153807947e-01 1.804830178360270886e-04 -5.530591024597667502e-04 -5.532517596855168751e-01
-6.083685654436186974e-02 1.343248259853742910e-01 2.107363022507743877e-01 -2.732606953199302096e-04 -9.381298322860698183e-04 -5.262167292486463754e-01
-1.111397204983024523e-01 1.186377664473484972e-01 2.105643717293372852e-01 5.298204304104243891e-04 -1.018931263830441915e-03 -6.141142439503245454e-01
-1.715386325053686600e-01 2.843795829051493432e-02 2.106824217957289358e-01 6.817702800190413200e-04 -2.105093858300571830e-03 -7.233423374740063361e-01
-1.998688347100681661e-01 5.395687900367703016e-02 2.106146332452195624e-01 4.904063586209971362e-05 -7.661991037388716196e-04 -5.587369477273799179e-01
-1.641100307046799989e-01 8.572171655833565884e-02 2.104973949476073303e-01 -4.255572499367481692e-05 1.108188547472483304e-04 -5.968069560727230494e-01
-7.170504160480219158e-02 4.478166971136811336e-02 2.104136880548541089e-01 1.139898350696711907e-04 6.680925691578418549e-04 -6.458287283665358203e-01
-3.010702525057700613e-02 7.694037472714532200e-02 2.105237272250121694e-01 1.483243595748470279e-04 2.000679291145745099e-04 -5.618643289370222060e-01
1.380119831163425376e-03 7.182138927547312979e-02 2.105756395177043605e-01 -4.656296186532168273e-04 6.018861953545469280e-04 -5.401534301810189120e-01
-8.136551290281679449e-03 1.225991802506174733e-01 2.106775484639317186e-01 -4.054780943107981809e-04 -5.697812375135189421e-04 -6.200933892180700013e-01
2.530804799938604285e-02 1.507228410397442875e-01 2.106195574635900680e-01 1.968032326976502987e-04 3.093650602151240959e-04 -5.012928517346553203e-01
-3.559637990140386565e-02 1.436521076257299689e-01 2.088499823920686449e-01 -1.244082393982540201e-04 -6.924524625404474346e-04 -5.233151936023567874e-01
-3.943828736646962790e-02 1.029421717982928614e-01 2.092986686668853458e-01 -4.899876312338208523e-04 -7.361212892774142598e-04 -5.088838553257288844e-01
5.603898796234494523e-03 1.311715943047322697e-01 2.091473021728930126e-01 1.176309458835931437e-03 -2.493011372579466574e-04 -3.948948791949947190e-01
-6.369869915024524432e-02 1.925108728742454256e-01 2.099444322976075639e-01 -4.937854154261024295e-04 -1.175141628135994380e-03 -4.697109557933101809e-01
-1.528164757581253197e-02 1.683217343061407523e-01 2.104373220066656502e-01 6.521903152167788688e-04 -1.600744346579745680e-06 -3.458455511950739858e-01
-1.158224592966647093e-01 1.401180509577003575e-01 2.094765955933015067e-01 3.786263232107433424e-04 -8.440168506974162150e-04 -5.269803173933536034e-01
-1.008071652357698800e-01 1.265208073311329673e-01 2.098296690163053424e-01 4.069532070498749037e-04 -5.656477753984310783e-04 -4.359145136461594072e-01
-1.313145189784184486e-01 1.745938952329834093e-01 2.089568301733294442e-01 -3.708301670111910624e-04 -2.157557843531605294e-04 -3.926332762489034844e-01
-1.178007924203634399e-01 2.417094835677057740e-01 2.098996957999839097e-01 -1.813120222176098145e-03 4.355296732800285008e-04 -2.983805806986506992e-01
-1.520238752522939940e-01 2.233297918458745090e-01 2.092193976973169001e-01 2.129727215439080571e-04 2.812605022569288917e-04 -3.664077827681929689e-01
-1.348051023958260208e-01 2.300714567603637239e-01 2.104108622942584828e-01 2.800981596647059363e-04 -1.946575767383579075e-04 -5.187853144290556218e-01
-1.749113953444772496e-01 2.311771858332439256e-01 2.097249461903979428e-01 -6.726445632200310715e-04 9.236603156573217630e-04 -4.681458353675337358e-01
-1.424676008542218597e-01 2.631332547116250198e-01 2.093641269169947416e-01 1.722043614782411318e-03 -1.213334538421338352e-04 -4.860369650859453494e-01
-1.628759901954224820e-01 1.680986636458367545e-01 2.092681119480674923e-01 1.374640167714489321e-03 -2.603790168587128665e-04 -3.362507968484526599e-01
-1.492287685132901165e-01 2.120858110718034928e-01 2.091780644736181971e-01 2.557500134039913595e-04 1.615813104750319111e-04 -4.098174449095684513e-01
-1.787655082800906348e-01 2.369417456179007397e-01 2.092669835028001524e-01 -1.959076145263445178e-04 2.355879954150740636e-04 -3.561796818786914232e-01
-1.978385245000231774e-01 1.993677121221341109e-01 2.094701564808214567e-01 1.951102942835287622e-03 -6.128650078546999443e-04 -3.470049742879943722e-01
-1.494081870396650469e-01 1.963954109030877360e-01 2.097786715638000343e-01 1.760536693042705301e-03 4.741246575785303401e-06 -3.981055580238422320e-01
-8.540506872304173824e-02 3.134898668059946658e-01 2.094602995679218371e-01 -1.015100450779470292e-03 3.362597938759861560e-04 -3.138324579318326202e-01
-9.739089329804256900e-02 2.810440922764742555e-01 2.100799053030247832e-01 -1.495717668395751918e-04 -1.625967570663731194e-04 -2.369094173610870879e-01
-1.044510239674351915e-01 3.398301117541582816e-01 2.091896644833615704e-01 -4.373176236494926176e-04 -5.651924696142708159e-04 -3.380830568071736542e-01
-1.601925640243358206e-02 2.861620179292094224e-01 2.098788023128586033e-01 -1.203629601325610323e-04 -4.617143292687032907e-04 -6.491171611303639399e-02
-3.966341295284383367e-02 2.360591731392842618e-01 2.094151721250262499e-01 1.528531576479814262e-03 -9.883272918583979084e-04 -5.076508480389373829e-02
-1.015967406068741669e-01 2.513030915415812583e-01 2.094042015351648134e-01 -3.670709923099618418e-04 -5.960045990218116674e-04 -2.567739633489392603e-01
-6.612720499610036384e-02 2.310026102130211256e-01 2.100884724872982279e-01 -1.753051421203238132e-04 -1.501836797284688931e-05 -2.715084409198019189e-01
-1.081471160344928684e-01 2.312687045860311041e-01 2.096191355006846169e-01 1.193907359821977246e-03 -8.728002450500566001e-04 -2.265842992352652407e-01
-2.153270633755880181e-01 2.514354044666143317e-01 2.094057617234578728e-01 8.316940281496066787e-04 -1.292006610206084070e-03 -2.535833661001924977e-01
-1.825379357303216765e-01 2.069051748669396285e-01 2.095433921627177787e-01 5.439020268043605680e-04 6.502256132190246474e-04 -2.190442031044139426e-01
-9.967450585078217740e-02 8.478594719316914774e-02 2.089269457269507524e-01 7.905300011091396985e-04 4.460922882379469490e-04 -4.318922176134987190e-02
-6.554241397721777274e-02 5.415551883865205030e-02 2.101768391122539881e-01 -1.390648187677808107e-04 6.120209672123720548e-04 -1.446273643678385457e-01
-5.692832737695366352e-02 1.450937436501045230e-01 2.100145069118811714e-01 -6.647073323607140954e-04 1.606785230167020106e-03 -2.556556017671662295e-01
-1.973393907167562411e-01 2.578576646268249117e-01 2.095317932221045787e-01 8.123000297387597727e-06 -1.473574265110446410e-04 -2.628163203991528141e-01
-1.288662551102488785e-01 3.053718427109397004e-01 2.105272808493950931e-01 -9.204442792669989288e-04 1.288840543917096773e-03 -4.120956773481130875e-01
-7.881879401236459304e-02 3.562718396750560457e-01 2.097151832656765635e-01 -4.578871173131242507e-04 1.332529809074222164e-03 -4.600426546537198513e-01
-6.281396507894448922e-02 3.084749306126758350e-01 2.086496518467392813e-01 3.672650119430610435e-04 7.191942377707638383e-04 -6.062690521132367838e-01
-4.268628881387630247e-02 2.244117601030467812e-01 2.094563054997767848e-01 5.265143722061647142e-04 4.616674180461181995e-04 -5.757887866253321718e-01
1.857098600515406581e-02 2.680690400363621162e-01 2.102155848497934132e-01 -2.969721033139944601e-04 6.530711771446693443e-04 -6.400386584753549046e-01
-1.205301294940681889e-01 1.645334147034460959e-01 2.093492679856275296e-01 2.568616688663088055e-03 5.946740028051824157e-04 -5.535531461069618242e-01
-7.975426009767182245e-02 1.924953222182223811e-01 2.098756164719582928e-01 1.289904750960979519e-03 1.027398552736385638e-03 -4.064428944888143769e-01
-6.226412179198675956e-02 2.131133907497015090e-01 2.104328036458389395e-01 -1.932531462838028619e-04 4.550285462467500977e-04 -3.692454194439939719e-01
-1.352548854985284044e-01 1.559707102556787406e-01 2.089435514393415683e-01 5.902356060790425740e-04 -3.490964993747109821e-04 -1.757157322414686640e-01
-1.924871930961975786e-01 1.051435306792966734e-01 2.095271373324978370e-01 -1.125513670595262123e-03 -8.095701922771618734e-04 -3.870254995847838830e-01
-1.029291685026591657e-01 5.784788837213594714e-02 2.104884632352456153e-01 7.462414599681922505e-04 7.921523792388209710e-04 -5.523744812710903451e-01
6.153528372124725254e-03 1.048454646905428028e-01 2.102976377915498074e-01 8.326447828673489695e-04 2.378708186535794401e-03 -5.198658040744028597e-01
1.197656678871828265e-02 3.261880824568956505e-02 2.099319257289875007e-01 -1.816296585092440873e-04 -1.289868525469544617e-04 -4.717866858562517196e-01
1.564304220898354858e-01 7.712226636512140715e-04 2.103506207741790424e-01 4.395447363501804204e-04 8.785586878483820803e-04 -3.154705492085708163e-01
1.056160980046988163e-01 -8.617107687804177740e-02 2.096359592201327282e-01 2.561921178074076308e-04 2.023346641478162829e-05 -4.811212894219383807e-01
9.159371428499819834e-02 -5.487718912694638379e-02 2.101219082655689796e-01 -5.329928146303446624e-04 -6.152689255772924139e-04 -4.095485361162618521e-01
5.612047407978309338e-02 -2.887571499763635224e-02 2.104522541050505846e-01 -8.029395278929209634e-05 -8.944269453419545967e-04 -4.299186115196101943e-01
1.065742169539489193e-01 1.929636101122002637e-02 2.096794616780625620e-01 -9.855428624457266557e-04 7.014639232782606372e-04 -6.007312584950238454e-01
8.195779357283164424e-02 -6.458769242908041219e-02 2.097314707655276167e-01 -6.186517355804992992e-04 -1.956375731024195765e-04 -6.764239442921283763e-01
6.341820708455303546e-02 -9.356788332183983703e-02 2.100100501484163940e-01 3.878147803683829747e-04 -3.686812345217102549e-04 -5.338991514695341500e-01
9.047216877113384292e-02 -3.113194479282424890e-02 2.102118055719975898e-01 -2.730965448662788474e-04 -4.059132291504445925e-04 -5.763375482229783353e-01
4.355259717822810434e-02 -6.997059607550031035e-02 2.107489568414196435e-01 -1.680971204435336135e-03 4.774099180117886390e-04 -3.674463371135393563e-01
3.173385598840108845e-02 1.036488235600991625e-01 2.097924444673203714e-01 -2.888495988762883077e-05 -1.743120502008325664e-04 -6.733867685675184456e-01
4.045169000995568753e-02 7.686825185296275453e-02 2.101434925116937857e-01 7.852369695393298168e-04 -6.113543254137789734e-04 -5.578925795869826842e-01
2.053982594427881947e-02 9.366937097870073337e-02 2.089757605028490506e-01 -5.880014011797554284e-04 1.675389836303633253e-05 -6.675981405391671064e-01
4.358012290820691831e-02 2.073671050741449084e-01 2.094086158952818688e-01 3.476784804618102305e-04 -4.457510294093191454e-04 -7.144254744278600855e-01
-1.166603629930263071e-02 2.018249526289853657e-01 2.096085560570361550e-01 -1.049390359123173155e-04 -5.299159700319550949e-04 -7.666996040255127376e-01
-3.719449943286610299e-02 7.597010802299200560e-02 2.099987985277053104e-01 3.970142829260730360e-04 -3.639009751224355524e-04 -8.187872704165057858e-01
-3.144311072923165751e-02 -1.913914428526919051e-02 2.100290702495039019e-01 -2.248341274595647219e-04 2.256891820603771639e-04 -8.259080647706298350e-01
-4.475691984852786520e-02 4.974620050044609165e-02 2.100903564902474319e-01 5.217960119980601276e-05 1.578467619755846046e-04 -7.412436468212549867e-01
4.302209588339898916e-04 1.271929449486767227e-01 2.104789988899827269e-01 -7.503105977785753554e-04 4.414603348492399343e-04 -5.065102980536823063e-01
-6.227147961096399231e-04 8.129808292082507659e-02 2.106505077599689080e-01 5.258808047515627516e-04 4.573900730648323520e-04 -7.551578398499172451e-01
-7.014002971418234478e-02 1.353985919434477769e-01 2.089147874133616689e-01 2.105182509049948391e-04 1.905005100319098765e-04 -5.198496805251232589e-01
-3.748941515793335899e-02 2.097797774519036262e-01 2.091419742981558416e-01 -7.400532536697725355e-04 6.198974628215064928e-04 -5.046624190033904833e-01
-1.270367106357528364e-02 1.280320327608831521e-01 2.094908115298120266e-01 -1.815230164515590583e-04 7.717980416966092449e-04 -5.678169790616760526e-01
-3.446826987778331408e-04 1.042878802482533063e-01 2.095621671302930755e-01 -5.147910646988657698e-05 2.269089015138146391e-04 -4.090978091748435630e-01
2.802740006478402976e-02 1.330897901117541193e-01 2.098626823755686543e-01 -8.796251986077154332e-04 8.790556994055484562e-04 -4.893998607481895302e-01
-1.125741581895994825e-02 1.318601749371555165e-01 2.099849009994346760e-01 6.048917165095183085e-05 1.107309491655560806e-04 -3.316490061594183358e-01
-5.075738518733714788e-02 1.307411973910488079e-01 2.100868273692071408e-01 1.773726369662123549e-04 5.948710327999293752e-05 -4.270106379244452688e-01
-8.718732055488558064e-02 1.819862319718762445e-01 2.101860242700630543e-01 -2.628640094210644832e-04 4.897784481327683735e-04 -3.821746493373732734e-01
-1.255559573494196557e-01 1.594410182755028604e-01 2.101790789849474761e-01 -7.131098934816686077e-05 1.423122283154420618e-04 -3.806663282591348230e-01
-7.953949355075810856e-02 1.304846548585097965e-01 2.104481077900742236e-01 2.374054387244699151e-04 4.355754027604681546e-04 -1.531053952362936288e-01
-8.068868004152303375e-02 1.008401941204554730e-01 2.101704230270367013e-01 -6.002751351826639400e-04 4.668626751466240085e-04 -2.692426846672593133e-01
-1.203891242107591880e-01 1.016589572230474636e-01 2.099395215974924067e-01 -1.407286729759129099e-04 2.599800266201307292e-04 -2.332104445491462452e-01
-8.155152917169329607e-02 9.376577849048060853e-02 2.097400522730364925e-01 1.066290639091503904e-04 -5.191565756872667658e-05 -3.445250067579379571e-01
-7.143947901283925761e-02 1.182606975748158179e-01 2.093917962203689642e-01 -6.713503693805263301e-05 -2.895171815308396086e-04 -3.959510849531059917e-01
-1.298441979187632822e-01 8.721862426114962430e-02 2.091016953705472914e-01 2.204554933399144009e-04 -6.491539825604168961e-04 -3.268401023616512302e-01
-2.571533314044022883e-02 7.855664899638981069e-02 2.105114941182633093e-01 2.185307835545896300e-04 -2.856874848115141400e-04 -3.485753989868340397e-01
-6.740277021893867349e-02 8.337405478655465774e-02 2.102254454567721309e-01 -1.319007091554874329e-04 -1.729535378149543235e-04 -2.286408231916020051e-01
-1.943260141256459780e-02 9.906320798591029819e-02 2.099265293933579302e-01 4.328981336333553051e-05 2.348105780556038549e-04 -1.698397020734238871e-01
-9.965491580678059735e-02 6.928269154334135149e-02 2.093275635727399608e-01 -6.387924402872135945e-05 -4.962053533194489986e-04 -3.100303305356114647e-01
-8.940449019324282764e-02 2.645619624438275488e-02 2.105970142869008077e-01 7.680066128401564758e-05 -1.248122389315027266e-04 -4.430013061255652640e-01
-7.033362456511917105e-02 -1.102375784920920677e-02 2.102445981013512100e-01 -9.827510215535972284e-05 9.742789099975047572e-05 -3.492905686974383528e-01
-1.167793450354412260e-01 -2.425732671308948596e-02 2.099222996502430605e-01 1.791725002905396932e-04 1.117907110592740784e-05 -4.153598211248519800e-01
-1.102139021728589796e-01 -3.142351245856866981e-02 2.094982685024749380e-01 3.296522442119897089e-05 2.719096319637950713e-04 -3.020331354397393642e-01
-3.417010839071819850e-02 -8.365200908225625676e-02 2.106210054595832881e-01 -7.993051283731318591e-05 1.717889817786548228e-04 -5.306203009392154168e-01
-3.160913376012217113e-02 -3.042138899751860651e-02 2.102016759389942480e-01 3.114883159152667891e-05 2.678099568967879729e-04 -5.135629963348151694e-01
-1.496681297670280075e-01 -3.790633516802951325e-02 2.097418433376841418e-01 -5.182390653138709528e-05 -1.695952732995337659e-05 -5.470002299060620077e-01
-1.990946559529075399e-01 -6.607813356668366944e-02 2.092980454933438539e-01 3.781224933669578522e-04 4.423019217206697112e-04 -5.935948521678073853e-01
-1.219974751658141621e-01 -1.380675195407023714e-01 2.104450013406313214e-01 1.743025026604506293e-04 5.564057356955292872e-04 -3.776864416565300364e-01
-1.487079123020635663e-01 -1.733731255293197993e-01 2.096907011871670945e-01 -1.957072335119378016e-04 2.687884983636225616e-04 -3.957947560525443276e-01
-4.109324025229825483e-02 -1.640389165265268290e-01 2.105424654107510007e-01 -2.482605171222376480e-04 2.254701096288483928e-04 -4.838480996087182184e-01
-4.957240053612881059e-02 -1.748733804788380752e-01 2.099715918142274207e-01 3.308125632357517020e-04 4.159292723050473208e-04 -3.695414835811124954e-01
-5.158910534047951579e-02 -2.052358131227861038e-01 2.105447412964994158e-01 -3.478492786934004712e-06 2.689752573634571165e-04 -5.317665792073511533e-01
1.912773876414825339e-02 -1.670161351160928120e-01 2.098009674533210522e-01 2.860101283085322637e-04 4.219811612256696258e-04 -4.918235033292616687e-01
7.676630461837007091e-02 -9.920169579196343179e-02 2.103045926543934963e-01 -3.666306278967638847e-04 -9.075584258426279926e-05 -4.108167581952369973e-01
7.349636218876395843e-03 -1.477562727093370831e-01 2.093977965862618418e-01 2.721893810761641603e-04 -1.505575688166835627e-04 -4.140900898737081004e-01
7.599293434592319096e-02 -2.188029348550829811e-01 2.098067057085304943e-01 7.310030743120952490e-04 4.394294213313104137e-04 -2.832100651315872519e-01
6.343155068718786538e-02 -2.112518173096635532e-01 2.099853531269591511e-01 -2.861680068398296248e-06 -1.186571484902489994e-04 -4.212002613220302005e-01
7.233704771388493882e-02 -2.454107159490018508e-01 2.103541934788571988e-01 4.047618108211866773e-04 -1.962337777666831734e-04 -2.794138278928280372e-01
1.077348330572451829e-01 -2.093854671760908281e-01 2.104136703232834527e-01 1.907071279454769218e-05 -8.062525053539152677e-05 -2.853089521927371086e-01
8.695168738657232943e-02 -1.478498582362398617e-01 2.104713092459625234e-01 -4.990492679462513398e-04 -8.331164465023500236e-04 -5.141574478597285003e-01
7.935848232049257100e-02 -1.845601509851197419e-01 2.105871698746971110e-01 1.583342779799907975e-04 -2.791639417598143079e-04 -3.383420967162007464e-01
2.003205448948796111e-02 -1.961826847920143946e-01 2.106044992831511697e-01 -3.086096679719993810e-04 -9.113440670966883612e-04 -2.450287902423033959e-01
-4.884527128177542504e-02 -1.531722866656709536e-01 2.105520898521393569e-01 -5.356578342321253669e-04 -8.991547001685711157e-04 -9.844747825849550771e-02
-2.957548357142802259e-03 -1.762146890742224969e-01 2.105437801445316781e-01 2.841568898526888707e-05 -1.195671113337320036e-04 -1.740429749142954619e-01
-4.939445630501315687e-02 -1.469853531364735399e-01 2.105351839175878537e-01 -5.086232462226243601e-04 -8.919864016778368196e-04 -1.397180693765774362e-01
-1.178612937901255160e-02 -1.771739120344331675e-01 2.105752058339581123e-01 5.259297662757456138e-04 3.215711576465486894e-04 -1.382640325489048472e-01
1.034148174158533440e-02 -1.995529836726282757e-01 2.105736394366893305e-01 4.107919880398233831e-04 -1.863767888781492664e-05 -1.987339249042269773e-01
2.613472570309807036e-02 -1.908744641269836395e-01 2.105120902432946473e-01 -3.158242903784010971e-04 -5.717148096130659010e-04 -1.672222310240987775e-01
2.051583053844271282e-02 -1.382057097735532314e-01 2.104699304530673887e-01 -7.290071045088427097e-04 -8.907562275647241522e-04 -2.878151693170232783e-01
3.335339865651386348e-02 -1.731080510101428438e-01 2.105541305363569649e-01 1.807552511605357013e-04 -1.252735411006300058e-04 -2.028157116518886083e-01
-1.279855850199897171e-02 -1.395748296464449090e-01 2.105747746242033758e-01 1.149706240993040343e-04 -5.428609845455729336e-04 -2.936457978003844671e-01
-4.068353484770113881e-02 -1.156467693538208441e-01 2.105321754815845381e-01 -3.980913249767836499e-04 -6.512793465971246408e-04 -2.379338784309779631e-01
-3.323621246784398686e-02 -1.119037816305224337e-01 2.105540866100892305e-01 3.310854015919761505e-04 -2.427213257532260455e-05 -2.083642709466319021e-01
1.790046400820268988e-02 -1.179561927743615762e-01 2.105515192599157204e-01 1.517374055250922805e-04 -5.255934564341828831e-05 -2.119275792789084290e-01
3.251906407003057886e-02 -6.314790467896116977e-02 2.105524787828219613e-01 1.108236645347751921e-05 -1.310184601876799801e-04 -1.874162552306060936e-01
-1.927859281190682367e-02 -6.247345758082901990e-02 2.106130256237099818e-01 8.433122469609236949e-05 -7.785898112157110286e-04 -2.096801652854719256e-01
-7.606678952659051002e-03 -1.296370847989821162e-01 2.105879071947766579e-01 4.191978261707644555e-04 7.737248842481969017e-05 -3.143429004627684153e-01
3.355067027248015421e-02 -7.389903732283839566e-02 2.105311504993215843e-01 -2.826450068594433401e-04 -3.614240869217712681e-04 -2.811042525443867013e-01
8.016619212114969861e-02 -3.420330566597395983e-02 2.105069456668990924e-01 -1.892243036751389525e-04 -1.888955324228148882e-04 -2.926546293811125854e-01
3.982107757906609702e-02 -2.009408801879145751e-02 2.105793737462703374e-01 -3.077857404469641405e-04 -8.445245338007845333e-04 -2.317539650866587420e-01
2.125998453757520570e-02 6.660417381324715280e-02 2.105173470195964014e-01 -4.047821971599972735e-04 -6.423645533566795744e-04 -2.934549191051600281e-01
1.857702527723987043e-02 3.884786500067581583e-02 2.105783691145624581e-01 -4.734143150000997968e-06 -3.732441401637508378e-04 -3.526622518998048794e-01
7.501690554738479899e-02 7.167259511565068908e-02 2.105909289093592096e-01 1.875101377989979868e-04 7.517732541994586154e-05 -3.657110418717879896e-01
6.084588070702150880e-02 6.567915884502467661e-02 2.105519828476499766e-01 -2.446816618946769366e-04 -6.574517648655154103e-04 -5.122618173807739206e-01
3.982885444818019816e-02 6.964164198922090376e-02 2.105997247080065304e-01 -2.376544318384451689e-04 -7.193321221701496921e-04 -5.060538125499863815e-01
2.340411404096647691e-02 5.444522241506004334e-02 2.105964934995103732e-01 2.894449874893594639e-04 -1.216947691188600619e-04 -4.343197955774892871e-01
3.626469528645816232e-02 5.149698820773375429e-02 2.105779041245072758e-01 9.821834690879049923e-05 -2.669044373530852165e-04 -4.448834086357895123e-01
-3.799047307584679789e-04 9.029716017892883140e-02 2.105336044591343825e-01 -4.994489061082207828e-04 -6.233702439179755967e-04 -4.986001416026672461e-01
2.904637916803085029e-02 9.637296986656639086e-02 2.105552209703608901e-01 -4.121020575219833983e-04 -5.509476988219250051e-04 -5.147210442747589543e-01
3.054165290967273197e-02 7.085734017117084615e-02 2.105964237593268007e-01 -2.500711802005211240e-06 -2.368205413256505639e-04 -4.377265106163547581e-01
8.907242708428850242e-02 2.834793639848082886e-02 2.106312288631049245e-01 4.426254939011003953e-04 1.530823950567360451e-04 -5.480632378323093690e-01
1.075825369306167845e-01 3.281745074431181852e-02 2.105969305571706585e-01 5.835909162028836764e-04 3.327317973605023417e-04 -6.340824523302829308e-01
7.604119549578067239e-02 -1.179988840206281156e-02 2.105976210531833037e-01 -2.062973951517141726e-04 -7.967959713909950840e-04 -4.988111171759188611e-01
1.714231381812935176e-02 -1.475025366512331890e-02 2.105936311766191116e-01 -2.902847585130533393e-04 -8.455647434993564119e-04 -4.882307677050539696e-01
7.740480813632658746e-03 1.908543421006776014e-02 2.105936396459155979e-01 -7.683485041849315669e-05 -5.721933336637408715e-04 -5.061762986740998560e-01
4.474415045431413135e-02 4.891291668469964146e-03 2.105830522814270966e-01 2.242996992390968965e-04 3.306896231958772724e-05 -5.719955114458763479e-01
4.987669574840229714e-02 4.186939985680810175e-03 2.105838764972592370e-01 1.059260504143824552e-04 -2.217128388473192104e-04 -5.815643857279382267e-01
7.247784925620978647e-02 3.870254037590726420e-02 2.105745765253556612e-01 -3.939813251363975767e-04 -8.019521405983954295e-04 -5.220270725152545976e-01
7.076797563222535226e-02 3.549821779922272477e-03 2.105702253828154458e-01 2.286872794008950401e-04 -2.754596721843537374e-05 -4.411698932828952979e-01
1.019065882926604577e-01 -3.307123668235129044e-02 2.106092193111764876e-01 4.996897195682887356e-04 2.092287097286189704e-04 -4.843826976565248077e-01
1.363430710735296369e-01 -9.689062103460942960e-03 2.105383715970884362e-01 1.973503337478106645e-04 1.233152204854125654e-05 -5.124063359667956341e-01
1.613654224358426481e-01 -3.650942517877109328e-02 2.105873715992285788e-01 1.239812064446596843e-04 -1.126083273571255140e-04 -5.177458605467252228e-01
1.826853713401587198e-01 -4.762568822506779709e-02 2.105624720193379207e-01 2.402215264345156792e-04 5.306006599306642961e-05 -4.099225765016532019e-01
1.710731120247870607e-01 -5.707651893106176905e-02 2.105894983690455025e-01 2.527533732168727007e-05 -5.057635350905974846e-04 -4.806019038839391411e-01
1.494991095924472768e-01 -8.258743872619215415e-03 2.105250437249370776e-01 -4.732939620529980941e-04 -7.800960843084914827e-04 -4.848011941353580490e-01
1.090435802273114346e-01 4.063381228188082603e-03 2.105656354597131852e-01 -3.165247083114803173e-04 -7.813523675352504125e-04 -5.287799584921561991e-01
8.068844354088029747e-02 2.108406126309294096e-02 2.105906405891783684e-01 -1.726764723786207824e-04 -3.733798457818147737e-04 -5.467291277369715763e-01
5.436919068837505614e-02 8.048941201732582457e-03 2.105795402698719121e-01 -6.002621810304112088e-04 -8.946052146087593972e-04 -3.349566274193747084e-01
9.352722656283954383e-02 1.962724241388763904e-02 2.105845745098895438e-01 2.818550329211438562e-04 2.781280825292390757e-04 -4.179437002293245884e-01
1.067722034762509375e-01 3.011152631369531929e-02 2.105743891279437952e-01 -6.036634827959618704e-05 -3.575970050960327793e-04 -4.768127598899863928e-01
1.289934267483047181e-01 7.871067603120786640e-03 2.106257431096114074e-01 3.265834533083568077e-04 -1.358698184132778992e-04 -4.768407828350963440e-01
1.261927235841069639e-01 -2.089106108435230535e-02 2.106073782643782533e-01 1.326755600516668122e-04 -2.620792943186986130e-04 -5.793980585649272097e-01
7.885755173701516907e-02 -1.669893118327457626e-02 2.105845590821386337e-01 -5.398398329653359947e-04 -1.123324363644753179e-03 -5.818878181053196430e-01
5.128905657597299800e-02 4.622968464528889182e-02 2.105634641518728256e-01 -5.551291105061081877e-04 -7.603023674586070800e-04 -5.287310197839226733e-01
9.538828316039946187e-02 5.368127276091452099e-02 2.105618831078433506e-01 4.592877224215834468e-04 1.973741321319041030e-04 -6.121345186189224297e-01
9.044043051583282311e-02 8.964177697830082170e-03 2.106066650623895642e-01 1.082117928248633610e-06 -4.725531805064241662e-04 -5.320563232147095256e-01
1.019053740339749270e-01 -2.472435695672296763e-02 2.106205302528022516e-01 6.652934850643908498e-04 1.617672986908074372e-04 -5.579978680695871773e-01
9.742250892808923535e-02 -6.273234855750092764e-02 2.106348093918147812e-01 4.324064551062725800e-04 -1.952943534614194122e-04 -5.420787899197515580e-01
1.309049298491886115e-01 -1.099348203528700135e-02 2.105189958712693210e-01 -2.252694502044180714e-04 -1.012325259874827449e-04 -5.714892790935320876e-01
1.462469747321573643e-01 -4.942151493840253595e-02 2.106096064194571404e-01 4.625785095525579730e-04 1.210775593384712305e-04 -5.612078062216577790e-01
1.205141776554539690e-01 -9.538564319813547243e-02 2.105711997349090647e-01 1.112190723126501646e-04 -3.525297795378960655e-04 -5.502501471978056280e-01
1.771552937934350314e-01 -7.561765223727799634e-02 2.105383300131619673e-01 2.594436184811229674e-04 -1.719549717030503737e-05 -5.919242510809313851e-01
1.307788318345290413e-01 -1.314987706965300152e-01 2.105834398686391995e-01 1.063831371774484346e-05 -8.406594393785565443e-04 -5.750251750727291000e-01
1.461520082816022692e-01 -9.667270667496102865e-02 2.105625511929820615e-01 1.389506921622435257e-04 -1.514353751623229497e-04 -5.930817509171188995e-01
1.544990426427038654e-01 -1.381801368225054616e-01 2.105837314637065139e-01 4.610181616032529113e-04 -3.783252064685032581e-05 -6.332054630990563426e-01
8.370510286468219041e-02 -1.036300931381521351e-01 2.105588342534974178e-01 -9.179472042398751329e-04 -1.232642579225161914e-03 -5.187419239200116161e-01
1.142464349847878841e-01 -7.416351187087710795e-02 2.105233227656449491e-01 -1.040638450077209368e-04 -2.415383947846443103e-04 -6.018918412595868350e-01
1.247616402079468195e-01 -8.052158884913551695e-02 2.105867363655201663e-01 1.011182904920912681e-04 -2.083269514034677785e-04 -4.425307680919678410e-01
8.430093145704559143e-02 -7.081966322594406005e-02 2.105626544862269078e-01 -3.902170425562118041e-04 -7.844422840644619437e-04 -4.405209517654462004e-01
1.321741640732988499e-01 -6.140199839460522974e-02 2.105302376069830284e-01 1.850386454152175536e-05 5.525996202269472878e-05 -4.658156144969930468e-01
1.110964768598712987e-01 -6.466490886607549615e-02 2.105876417291017710e-01 1.009168285337299942e-04 -4.851699654014086927e-04 -5.452231297723095782e-01
1.431600366428447957e-01 -3.761946926232832833e-02 2.105376101770591868e-01 -1.549462913354571593e-04 -3.259867152917187111e-04 -4.640226521868322518e-01
1.059407953380593070e-01 -1.299190248022082453e-02 2.105349741252764417e-01 -6.022428093619108368e-04 -9.606416271611493279e-04 -5.514243601207799994e-01
5.127886831728810380e-02 6.227040182751160391e-02 2.104797386417119331e-01 -6.129012818198422080e-04 -9.320398004075820765e-04 -5.830695697391350407e-01
3.920625223522693215e-02 8.726635559347137305e-02 2.105828978586933298e-01 -4.865601399142558303e-04 -8.600147354667577902e-04 -5.219976166909277016e-01
4.870687494428024150e-02 5.023100592165645473e-02 2.106128381843164754e-01 1.822124843870902625e-04 -1.731241541826170907e-04 -5.529346136973722903e-01
4.055463662734209995e-03 2.022318680123071089e-03 2.106139941615554623e-01 5.274077828683880503e-06 -5.565494215652942158e-04 -2.934285341846284978e-01
-6.267565784013811453e-03 -3.842611098302167044e-02 2.105571479619787190e-01 6.640148993074464526e-05 -3.887765564193410689e-04 -4.126955870759428380e-01
-1.333096452587700757e-02 -2.004059629051089045e-02 2.105019937294599908e-01 -5.609575553555642188e-04 -7.067955671660297156e-04 -3.338716421746797391e-01
-1.020962249557839929e-03 -3.020035353752193244e-03 2.104961162293588761e-01 -8.087579985194806568e-06 -1.353824532448412346e-04 -4.286149755646898041e-01
6.955633236332948999e-03 2.177888229765121558e-02 2.105343380353679184e-01 -7.295119929890425702e-05 -3.219796621288878121e-04 -6.648553536286891941e-01
-3.921403131647887425e-03 -6.173301744319663331e-02 2.106418913880889199e-01 6.179848875210172069e-04 -9.002270323441437195e-05 -6.445396879839432325e-01
1.277925898570644175e-02 -1.333913896865208601e-02 2.105415363429120612e-01 -1.340845900278968196e-04 -2.941919147245655860e-04 -8.049063717284951069e-01
4.935346090274753128e-02 -1.343970574733246992e-03 2.105839749982079123e-01 6.109908061894445510e-05 -2.585226733545720593e-06 -7.032071363785185047e-01
1.153916616597466457e-02 8.460148766099984466e-03 2.105188368462784232e-01 -5.667185292325740151e-04 -9.276274172284093610e-04 -5.987410496587578512e-01
2.707834013954323743e-02 -2.678053268176212517e-02 2.105481453173234652e-01 4.462438013024322609e-05 -8.737058828211511816e-05 -4.130303357605707992e-01
-2.635828142089378587e-02 1.825171461673674375e-02 2.105503748126844599e-01 -5.925506104568599311e-04 -1.047869161875425057e-03 -4.539810422076465124e-01
-2.745477379407008922e-03 1.193330311633879551e-03 2.106894317308407039e-01 4.498527155229641093e-04 1.280199165410503632e-05 -4.718317252874903445e-01
4.580338677334894193e-02 4.633701102915794429e-03 2.106899285766518082e-01 4.457504726142342806e-04 1.936249064004267890e-04 -6.350495407571512541e-01
4.370194357266099505e-02 -7.556098411715506113e-02 2.108207425364980736e-01 3.404794847986137196e-04 -1.201392822875215470e-04 -5.613808179784056662e-01
6.371562323059662414e-02 -5.353659226531491677e-02 2.093822003095827666e-01 -3.285471777793052444e-05 -1.422895517665609681e-04 -5.591492561029213215e-01
2.792806025838291684e-03 -1.005339522342563463e-01 2.095612648994006344e-01 1.774862509699167519e-04 -3.266523794212001087e-04 -5.059983031863294345e-01
5.618504630367128494e-02 -8.569805372292958745e-02 2.099672572440506313e-01 5.323940407186251392e-04 1.839444688575117743e-04 -4.142960080535537659e-01
7.898652238102459033e-02 -1.200710403831396628e-01 2.102028199538970021e-01 -4.896414161560427758e-06 9.600933004446072334e-05 -5.244052479102842002e-01
9.945043440670600643e-02 -1.382841452330523802e-01 2.105794440680053836e-01 6.664474528539701681e-05 -2.657041316271590583e-04 -4.378037830327508595e-01
6.273431799175281653e-02 -1.394118728508862148e-01 2.095318212237657352e-01 -7.580712568029075249e-04 -6.427080070947330855e-04 -4.146014312768060428e-01
1.705654415983165473e-02 -1.337139181362348717e-01 2.103720906705866533e-01 5.841668123656737575e-04 -3.994361827266967586e-04 -3.922898255856988592e-01
-2.798433378609219493e-02 -1.245814661888172137e-01 2.095142545255594957e-01 -2.234780188779159852e-04 -5.276931368458932098e-04 -3.993657365572588214e-01
-6.749254422798774827e-03 -1.099161391242588492e-01 2.103871811122678404e-01 8.890067955817271988e-05 -5.107249622577611546e-04 -5.162939140531762616e-01
-9.243255011961899748e-02 -1.061085203703903967e-01 2.097235147118128307e-01 -8.103500511092120691e-05 -7.532309262635647875e-04 -4.775496498472072138e-01
-8.176291575686793489e-02 -1.912340875568248333e-02 2.104528096964399797e-01 -7.084362641192864509e-04 -5.133043125536509467e-04 -5.387296177847431533e-01
-1.131331025141704416e-01 -2.858057325798625536e-02 2.104478942752532888e-01 1.028041817704695938e-04 -7.666162108615136002e-04 -4.644546249729574194e-01
-1.226403817635350474e-01 -9.229931008917282090e-03 2.101168336653747026e-01 -8.866610045348581528e-05 -5.495169760687740931e-04 -4.486925218699185924e-01
-9.304830822418644343e-02 4.775401372805185285e-02 2.096742932357498757e-01 -6.668980579846080789e-04 -7.491359941567025471e-04 -5.540052440965109737e-01
-1.332244340496035184e-01 8.886038822474575175e-03 2.095666297890045882e-01 7.709442691451673586e-05 -5.977762814396458436e-04 -5.090628408454818121e-01
-1.580340272255225109e-01 -3.261753561536316626e-03 2.093941386791849935e-01 4.475397147749407860e-04 -2.164467300472514325e-04 -6.651566124753045539e-01
-1.810104890853314330e-01 -2.341509501979035721e-02 2.091584901851457623e-01 3.788643166756421130e-04 -3.194332022147470520e-04 -4.249232579202884552e-01
-1.101369770344105825e-01 -4.701024254835103888e-02 2.108149390530474898e-01 1.435171938295197458e-03 3.668902089578407553e-04 -2.754384336749792772e-01
-5.555490995472738003e-02 4.017014634707528897e-02 2.106916206927544888e-01 -3.699971455879778729e-04 -2.958089469820151000e-04 -1.681913780377139733e-01
-7.612532596133228524e-02 -2.664134355663185655e-02 2.107218113555679451e-01 -8.381291096716460710e-05 -2.647813343426480342e-04 -2.266302589076031049e-01
-4.224894122052100243e-02 1.209868564676253033e-02 2.107558326701007845e-01 -1.791155577998923846e-04 -3.578682980478604904e-04 -2.464201765969233071e-01
-8.135156900751058795e-02 -8.338280961120332624e-03 2.108170261973129622e-01 -3.583316837100666797e-04 -3.529192893935082214e-04 -1.078665181081421287e-01
-1.322416055179625183e-01 2.213095315301925881e-02 2.091333068643481674e-01 -7.722727274014538033e-04 -2.900196075949555523e-04 -2.828774839362039328e-01
-1.345235242213370930e-01 -9.871142161982371377e-02 2.093246425758820695e-01 7.420874284024162959e-04 2.277415300261150118e-04 -1.534542702482908916e-01
-1.424285860015940264e-01 -1.015649013208953094e-01 2.094908709131270697e-01 -3.769270798319670915e-04 -2.378675021655720419e-04 -1.708353526141076772e-01
-1.550252186605255711e-01 -1.206910055373398294e-01 2.096874764620334508e-01 5.668515347529043359e-04 3.217272265897805128e-06 -2.279385408791256840e-01
-1.099979068737345356e-01 -6.007305856412351736e-02 2.101108797035276532e-01 -9.659574774831046311e-04 -1.374269287677780263e-04 -8.027753588266346718e-02
-6.947365939211311292e-02 -3.425552729901133742e-02 2.102493321666187298e-01 2.878201172331283078e-04 7.128784459460792589e-05 2.339956815818383662e-02
-2.474640586563622846e-02 -9.069864030480170869e-02 2.105022953851490852e-01 6.633670536704546839e-04 3.290419232567483657e-04 6.890633136998439157e-02
-4.358980587674614326e-02 -8.523369058907999396e-02 2.108597656374056051e-01 -3.111677109051921874e-04 -1.582537147181617876e-04 1.317171041263271933e-02
-4.783780258009852349e-02 -1.308599878677586537e-01 2.092558829321619629e-01 -9.714317111737561460e-05 5.051189900699427351e-04 -3.646979726121035020e-02
-4.543625326711550616e-02 -5.107759135912191134e-02 2.094440680815340405e-01 -1.361992161696388450e-04 4.690009611566018613e-04 -8.930774846052574878e-02
1.301584091087116743e-02 -2.037627406190870363e-02 2.096979671700454628e-01 2.723260230975347164e-04 6.265234966659055920e-04 -1.879132212496087721e-03
3.395894628655182768e-02 -2.288644920792481940e-02 2.098033547721783743e-01 2.088671973983124085e-04 1.080545050683730680e-03 -1.470173789888885862e-01
-1.890760940152762248e-02 2.954159432396315232e-02 2.101887029504899695e-01 -9.324523058352020624e-05 1.135015511923689272e-03 -1.466392634080165569e-01
-2.298068502055635245e-02 3.344054896741707056e-02 2.103730175033502459e-01 1.001461806293156494e-04 1.481043667174533748e-03 -2.233467845484360115e-01
-6.339570372792296266e-03 4.242177613224899085e-02 2.095297442593807014e-01 1.201858117993397887e-04 1.392014775468684070e-03 -2.433502989037464037e-01
-1.095941298049291253e-02 9.734062528783676838e-02 2.095548295354646151e-01 -5.620793198995012539e-04 9.519025040683477389e-04 -2.920243928247973630e-01
-2.410342976039404547e-02 1.418822556064987805e-01 2.098880224564171892e-01 4.753106953425352744e-05 1.544745856095694047e-03 -4.450127097524706477e-01
5.519173354856756614e-02 2.525325292142620581e-01 2.100186864511568996e-01 -2.052332474873481928e-04 1.710435877384086558e-03 -3.284357476129593501e-01
-2.663890615591724131e-02 2.952531099483933774e-01 2.092647295111259020e-01 -1.062747232673977071e-04 1.191432983637699585e-03 -5.095210242458690919e-01
-9.212921708429207268e-02 2.476751092651020558e-01 2.093957637416051787e-01 -5.148976014610631919e-05 1.370054949848367384e-03 -3.568670353840511789e-01
-1.583547930755260444e-02 1.771099633405346929e-01 2.093007648519077946e-01 8.290890357673817625e-04 1.582557333462023246e-03 -3.594394809659357537e-01
3.460190600927315341e-02 1.665983262740720616e-01 2.097958705310296601e-01 -6.412650108854775987e-05 1.675844232736683559e-03 -2.832398003151604393e-01
4.302608373830874022e-02 1.516376494317452639e-01 2.100942667591841340e-01 2.126137759014732579e-04 2.101338326080685523e-04 -2.320983320469379718e-01
1.782556284326240401e-02 4.772191091363270354e-02 2.102872753040765375e-01 3.281288301926474967e-04 1.732629148058104855e-04 -3.598501189867913674e-01
3.541492624609224316e-02 6.849994083853729043e-02 2.094930109375543470e-01 -3.525547197923306511e-04 1.506827088537252479e-03 -4.078787280903596324e-01
-1.575056845352251073e-02 1.106402267320035770e-01 2.095866462102543570e-01 1.004318620413769216e-05 -8.984518764305663395e-04 -4.548412602583074005e-01
-3.582316681788204338e-02 1.149152338124333761e-01 2.097512365611256535e-01 -4.259448951772421064e-04 6.213763788033618146e-04 -3.257874908076768827e-01
1.233120433315705589e-02 2.592968590409542445e-02 2.102337043735185707e-01 8.391234218728387418e-04 -2.562687390285987681e-04 -3.444708277855181855e-01
6.691315122841169638e-02 -6.659258158452509291e-02 2.103877269167804265e-01 1.232763812462890369e-03 2.532319770730398012e-04 -1.617657477319725534e-01
6.560323012248114871e-02 1.037797269471310707e-01 2.089836983869165499e-01 -2.909135304064067520e-03 1.653357126614857751e-03 -3.685597152263830889e-01
-4.821756792255689483e-02 1.552179923441029119e-01 2.101090699667031991e-01 -5.718961583876696394e-04 -8.838934957296521681e-04 -3.232571703139476837e-01
-1.354979936761032677e-01 8.973811486028156204e-02 2.103704839843031360e-01 1.246798203100249209e-03 -1.631046418929867233e-04 -2.081853765323295469e-01
-2.125088182757569610e-01 1.131665225968746524e-01 2.095209874026482955e-01 -9.984757971439510785e-05 -9.492500568429525524e-04 2.819888321367948134e-02
-2.317725243814165170e-01 1.470363428384589000e-01 2.095404644607278821e-01 3.474520552070884327e-05 1.538306710653000720e-04 7.163667215393319798e-02
-2.481738597937683533e-01 7.236531126508487233e-02 2.101561732650894521e-01 -2.259737791306655290e-04 -3.010788062873084913e-04 -1.006171207328829253e-01
-2.148731757276881593e-01 2.124411293210008711e-02 2.102724833984807584e-01 9.806210576613102851e-04 1.915363270794893241e-04 -4.820986252288253504e-01
-2.314262856291352533e-01 -1.884533108735446730e-02 2.104638386214979784e-01 -6.959830728013614637e-04 -1.995317080130328566e-04 -4.460797975866632181e-01
-1.862464560918908330e-01 9.213499430099329757e-02 2.095045761787182048e-01 -1.694630159790084297e-03 -2.815048990862564207e-04 -4.648217686328340870e-01
-2.048049213118335876e-01 1.704419452559239045e-01 2.096549275370547250e-01 -3.374005067129980735e-04 3.435596210531845283e-04 -3.625567517699163078e-01
-1.782612663783522122e-01 2.133712319719172634e-01 2.100048801517205299e-01 -6.422822508811821087e-05 3.128866762882699182e-04 -3.022525371343996459e-01
-2.504548599489633265e-01 2.416580535587307677e-01 2.090971257364292457e-01 4.792849980440841862e-04 -2.242407524624912495e-04 -2.960344858625883480e-01
