9.756797273340377108e-02 2.420720240003179369e-01 2.103423800648582254e-01 2.492195469417575774e-04 1.062337606944806700e-03 -5.060895884840008740e-01
3.854877639583416393e-02 2.088411379033494331e-01 2.103482201045787647e-01 -1.677204831740916873e-03 1.769775329468606167e-03 -5.010621093848096619e-01
6.814705825924069482e-02 2.035936315977567301e-01 2.100725893772810715e-01 5.563218212559947707e-04 1.908195020733414451e-03 -5.064779786149459229e-01
1.035076420658441326e-01 2.562858832229903405e-01 2.095400029428693967e-01 -1.445940389498652241e-03 6.043483275413624733e-03 -6.678965490957911033e-01
3.379755171422622190e-02 1.972832744497044766e-01 2.099964957399657051e-01 -3.861040337285371227e-04 -1.805437615007426401e-04 -6.900543396507081706e-01
1.048187669061460964e-01 2.411442875639250027e-01 2.092744264309537860e-01 2.026597407853747524e-05 5.629927282991943095e-03 -6.337965424583397178e-01
6.021978199180483271e-02 2.226184053643541216e-01 2.089472740574149223e-01 4.660264079259845982e-03 4.302493331647880823e-04 -6.922852230246714367e-01
4.380137141048083549e-02 3.750857551848156834e-01 2.094063656696931175e-01 -1.658856923885121187e-03 4.063261803341872494e-03 -6.196599832188189882e-01
9.575774401375437839e-02 2.764660535401743391e-01 2.092861044974824170e-01 2.943343426835757018e-03 2.858295829728568007e-05 -3.084717414859912132e-01
1.746419724211636937e-01 2.671701141495514409e-01 2.105690204907568197e-01 7.803916033054782370e-04 8.261692077002801005e-03 -3.897820281716625757e-01
2.181658384578454846e-01 2.907640484379527268e-01 2.095687634345192452e-01 -4.870925692601968740e-04 1.369790786922849219e-03 -3.763343855502066515e-01
2.900813495332854597e-01 1.679375582036445880e-01 2.093308151691828933e-01 -6.454775939302902438e-04 3.677514697266157356e-03 -3.715607069154436837e-01
1.501118192622472591e-01 2.777198226829487582e-01 2.088515128135357002e-01 -1.214412446828566118e-03 -2.386046573035251368e-03 -5.283250034120633432e-01
2.284575930343591410e-01 2.943301452450452493e-01 2.104257433295914081e-01 -4.750653915492071664e-05 -3.236609751093599851e-04 -5.757739448670705640e-01
2.546750707491082788e-01 3.480866947000625933e-01 2.114141458489361969e-01 -2.373833613342726974e-03 3.860478807105337511e-03 -4.542719264617213759e-01
2.398962883972415305e-01 3.495273861401483884e-01 2.100249550315234082e-01 -1.789773099530576851e-03 3.153977572121425405e-03 -4.679476615061354261e-01
3.642371972033757177e-01 1.758640176467616834e-01 2.096599243565116510e-01 5.894967061621899295e-04 4.509278536736782868e-03 -3.607015558012940937e-01
3.119838885262531392e-01 1.395084254642270372e-01 2.094142697134467879e-01 -1.562037013747207860e-03 -1.948755679391245884e-03 -5.689743003290574919e-01
1.912678723994618579e-01 1.007233038611843323e-01 2.108948055937620580e-01 -4.894836871727927105e-04 -4.506052393315998668e-03 -6.421009187606562252e-01
1.385827651425145524e-01 1.543702869306202707e-01 2.103503662910879979e-01 -7.687333176649083352e-04 -2.114569543808824531e-03 -4.073211076832612965e-01
2.143530561457016037e-01 2.225684473981573153e-01 2.094747669218352537e-01 -8.237729107747800974e-04 1.892474007060914679e-03 -6.444652563250139465e-01
1.270465112445785250e-01 1.862345358471960699e-01 2.094471027918190509e-01 -7.546218210209652139e-04 2.682200158219820527e-03 -7.503319004624198207e-01
1.228321217688315703e-01 1.569366219852138256e-01 2.102721528662992445e-01 -4.902080010334039463e-04 1.605546800928793190e-04 -8.972060861879347371e-01
-2.403394237440957190e-02 2.338983397387968122e-01 2.095690834532016877e-01 -1.373887764260322414e-03 -4.672103583130308296e-03 -8.468198311842874970e-01
-1.556370610880992468e-02 2.772044177803821285e-01 2.090797829481253478e-01 -1.359074330916793145e-03 -8.647883552127459510e-04 -7.224040248538550202e-01
-1.367064780619638986e-01 3.310377006795661714e-01 2.103006873760707718e-01 -1.078645551717021932e-03 -8.488417517834866187e-04 -7.888685867022818821e-01
-1.339169741990623719e-01 2.516153301292531341e-01 2.090844481757163642e-01 6.467885951941521310e-04 1.465355493939017074e-03 -4.282465756567064852e-01
-5.391607551577676932e-02 2.310875090521123387e-01 2.099892940363419780e-01 2.515603518337015607e-03 2.346133215937055375e-03 -8.217772474352502687e-01
3.325383088858852032e-02 2.750847123168296271e-01 2.098099355761894880e-01 -2.265358554995143135e-04 -3.103585389871591567e-04 -8.477304012612254525e-01
4.071210631304583022e-02 2.598206705397812510e-01 2.089701635086667064e-01 -1.025280955358025541e-04 1.415056951337265514e-03 -8.948232808116884929e-01
1.177467642440204049e-01 3.105909435172606869e-01 2.097748434826910979e-01 -6.960897707854193190e-04 2.290687275095178209e-04 -5.887567660501715761e-01
2.445432022205200340e-01 3.691440437337638603e-01 2.091603882351345534e-01 -9.259971236045038204e-04 2.282692895434920125e-04 -3.072182812366974769e-01
3.262495074016484864e-01 4.113366729767145569e-01 2.101863794588214041e-01 2.704969195052293971e-04 1.640032122983874150e-04 -1.850730323044663950e-01
1.978803920208000999e-01 2.216277788069632437e-01 2.095564427548489150e-01 -1.975790904325890919e-03 1.393307636218793890e-03 -1.114940551923930268e-01
2.479512682946017899e-01 2.467252940734331323e-01 2.101960449439749801e-01 -2.031698291671713875e-03 4.142882888005664302e-04 -1.373243620545128441e-01
1.824968770772423254e-01 3.070857223125654789e-01 2.096196748339964055e-01 -2.192988230817717685e-03 -8.497996855987226912e-04 -3.325821543915336576e-01
1.138090717240582556e-01 4.166752759179055965e-01 2.103828103763266677e-01 -8.129097691715314860e-04 -8.977525497197544509e-04 -1.036974033504655779e+00
-2.290156073281927190e-02 1.217610122634138620e-01 2.091311991977989337e-01 7.596706487217713384e-04 -4.276443663374868083e-05 -6.659487248248261437e-01
-2.471430969656141646e-02 -3.899141574467150650e-02 2.099245098944425569e-01 2.344213661967231403e-03 5.521516816709557589e-04 -8.055538903435796039e-01
-3.749140893111212181e-02 -4.942544103478735407e-02 2.104338963442772825e-01 -7.705673431831505953e-05 2.088668437865416790e-03 -7.162809320957399528e-01
-1.710541575571265099e-02 -1.140209407090798932e-01 2.096369204046078516e-01 2.769385042086591016e-04 -3.165772010666482636e-04 -7.976361916173190236e-01
-7.892618350044688230e-03 -3.748520287205070467e-02 2.104072094266755122e-01 -8.175106300848034762e-04 -1.210362220773234312e-03 -8.485454775377850867e-01
-9.415484876402632763e-03 4.523587652073668419e-02 2.091614517687704899e-01 1.619714915003937273e-04 -2.660949274602958229e-04 -6.308261923348922329e-01
5.997639195287167435e-03 -5.987533595263865721e-02 2.098744094140834182e-01 1.760585370695211130e-04 -6.586461305900044496e-04 -6.151529843947902698e-01
4.320638100990462083e-02 -2.516427688942551866e-02 2.104443660846173070e-01 2.942806376260680016e-04 -6.058583081019475181e-04 -5.974019621314573536e-01
-2.294929699519027491e-02 -6.573390131630246769e-02 2.093205643088875134e-01 -2.853574181230163795e-04 -1.556180393414286931e-03 -3.613992709484757926e-01
-4.273322821791976367e-02 -1.963152967024138218e-01 2.097413496106445008e-01 1.588972570891933464e-03 2.219053606566029411e-04 -1.774698895706961210e-01
-2.731224687289384931e-02 -3.175565030744796902e-01 2.109835827773994255e-01 -9.402468735760325259e-04 -1.320338741955985476e-03 -3.320839023520491540e-01
-3.164257578662654780e-02 -3.314255645611560719e-01 2.096578634598441071e-01 -3.728256841104647516e-04 -1.107236431150286854e-03 -3.031661278912423096e-01
4.595368459214606988e-02 -2.625352566905181928e-01 2.103193594606124206e-01 -2.148408042080726684e-06 -8.044641907670821044e-04 -5.062586359753928900e-01
1.576747553031726534e-02 -2.878436190166074882e-01 2.111347904857923119e-01 -1.955830467249362176e-04 -1.036111851083075042e-03 -4.973022847663236545e-01
4.853325636563567136e-02 -2.245757483629756690e-01 2.101683578773097527e-01 -2.111826582486223559e-04 -1.093800033788572008e-03 -3.714165476465379201e-01
8.227434055036253469e-02 -2.217954570249850710e-01 2.107773533168356694e-01 -8.796989589940394996e-05 -3.279563114143026182e-04 -4.377057353974628806e-01
8.689768845336592884e-02 -2.901349283713310426e-02 2.098564531728143168e-01 1.453402350983770870e-04 9.970595382011695942e-05 -4.875179744340034649e-01
9.643336674123118013e-02 2.467108531681159317e-02 2.106749307665157223e-01 -3.092418451959062396e-04 3.008909663269646278e-04 -3.885120119710497866e-01
9.216998895342665143e-02 -8.105737520335290491e-02 2.100124533202781252e-01 3.979551689113003865e-04 4.761688131916990492e-04 -4.658743637184596942e-01
1.257806094574752953e-01 -5.560203090545084298e-02 2.107358705400717014e-01 -3.581542611234328130e-05 9.184676922033345415e-04 -3.332860661009356962e-01
1.508552965136217283e-01 -4.895190277603833628e-02 2.099220726523368108e-01 2.936487124066499798e-04 1.133866489723106552e-03 -4.326614266906437800e-01
1.987763793112753141e-01 2.459335406478074804e-02 2.091530107189463195e-01 3.437338091320648540e-05 1.552804815504308907e-03 -3.586067526625255630e-01
2.142044999657718163e-01 1.471509663240447019e-01 2.099448609402682631e-01 1.401408969263692782e-03 1.562884543924784181e-03 -4.452326945147586645e-01
2.032187750945128601e-01 1.852075195021854470e-01 2.103515261467456821e-01 -5.824125182250040672e-04 -3.615424886270888387e-04 -3.166720425586506682e-01
2.604231452337592567e-01 5.764036214264492419e-02 2.092910361112218509e-01 -1.356266243357022191e-05 1.009336871911142462e-03 -2.544246105920415779e-01
2.211482286876511605e-01 2.158210330237187724e-01 2.106026795266973672e-01 9.258819855995303015e-04 7.128208546318564633e-04 -2.477084597173671021e-01
1.871771611775056576e-01 1.026443701268902192e-01 2.101568666901371674e-01 -1.607511938775524818e-03 2.171062193072091976e-04 -1.115186732882404858e-01
2.087420392704365524e-01 1.196119241776256725e-01 2.095314641175801684e-01 1.061305565439171820e-04 5.551142527334019128e-04 -1.616250056725102580e-01
1.394881897889997391e-01 1.010140793907487178e-01 2.090599794637923448e-01 5.199494201206758428e-05 4.414761767216497375e-04 3.779595318976532170e-02
2.233561695629052157e-01 8.543914275279594628e-02 2.104335784444661961e-01 -4.353791919700672366e-04 1.375611182449541585e-04 -1.117682544771685382e-01
2.129103251172625999e-01 8.563731237860179590e-02 2.102837183951471456e-01 -4.493425655484116856e-04 -3.593542837645675097e-05 -2.878053045314411529e-01
1.250707525494761385e-01 1.479982383422861862e-02 2.100233540794886888e-01 -3.101754413355767986e-04 -6.223060290129202006e-05 -4.690275015899990629e-01
1.518945892258018460e-01 9.640169238887368736e-03 2.095878124554859112e-01 1.473057784590570899e-04 -3.466674872573500616e-05 -4.770047340939040925e-01
1.905742852869307113e-01 -1.247412687869868878e-02 2.095683537968033305e-01 2.328591572998586594e-04 -1.029015230406408918e-04 -3.156039393685244332e-01
1.966881999365175104e-01 -9.916886462968590304e-04 2.102866224880157731e-01 -3.694288771893373762e-04 3.020147865712921207e-04 -3.454272492547356688e-01
2.022848462822661175e-01 5.558270566136477853e-02 2.105021268280067304e-01 1.555564107885766567e-04 -1.745223219254314693e-04 -2.956688549201800797e-01
2.162258427718916909e-01 1.746379411845192520e-01 2.100330932000865625e-01 -1.749481090630364266e-04 1.765446237932743545e-04 -1.848921273489275152e-01
1.884022945549587713e-01 1.047463749650920373e-01 2.099081007724219461e-01 -4.069561666826212488e-04 8.538734829941441661e-05 -2.087430188643534523e-01
2.173904935592561594e-01 6.947814938300617138e-02 2.101056268201353383e-01 -3.648963003224865763e-04 -2.106071598263799119e-04 -1.237997765833542263e-01
3.171221568454571926e-01 7.539506265789376604e-02 2.089923199133463805e-01 -9.103968324170419284e-04 7.720021522917867515e-04 -3.848370871782815783e-01
2.721683902715257286e-01 4.932037609417923296e-02 2.094231455713551071e-01 -3.218105762807473079e-04 2.142802125779970837e-05 -3.888020943900115101e-01
2.463953522158559006e-01 2.580827458629207649e-02 2.097553304630853099e-01 3.717955429609025303e-05 -6.147754280207154637e-04 -3.864452630387582577e-01
2.096019269832285759e-01 1.970141104017388706e-02 2.104963385186907621e-01 -1.955499469960157786e-04 -2.367025943476030190e-04 -2.245617335255029878e-01
2.692488201952547566e-01 1.080115693874884736e-01 2.102674443080829181e-01 -1.666113701740532969e-04 -1.258986868092515539e-04 -1.246962934401435880e-01
1.880123500631278588e-01 1.868359676329495733e-01 2.101558036378596284e-01 -4.491603330933936224e-04 4.927369546398286641e-06 -3.461546192532811705e-01
2.384094073259484248e-01 5.634378368537276693e-02 2.100064813910846873e-01 -1.159185738582481492e-04 1.273774860725895816e-05 8.666079309966327054e-03
2.565282999189983926e-01 1.079275611859331768e-01 2.098779669840398210e-01 5.083001871758742419e-04 2.500589269521241048e-04 -2.539359285035124869e-01
2.968072246875285702e-01 2.049303823639853916e-01 2.099621440073834444e-01 2.191169524310494136e-04 6.458745047432496681e-05 -4.122352293025870473e-01
2.607128084635428333e-01 1.365782665633791249e-01 2.096970974353618011e-01 -1.099518588148682791e-04 6.238988853606197878e-04 -3.926438423623940244e-01
2.500822745781881018e-01 1.247493994923871419e-01 2.098220166907728834e-01 1.503657610718782227e-04 3.506354006075454747e-04 -3.176181265801715226e-01
2.059065200442921906e-01 3.642931279735459743e-02 2.097798586685226674e-01 -9.688948666879274908e-05 3.843155022646075995e-04 -3.408177612313707527e-01
2.992563337933010770e-01 8.737978038739916201e-03 2.098579006664602065e-01 -1.701592291274729577e-04 4.314899997789534885e-04 -2.267609177263810172e-01
3.114609057652044655e-01 4.476825446059846253e-02 2.098802490807567533e-01 1.397395282454643740e-05 3.369721281740659775e-04 -2.680330418535460391e-01
3.032778423496059195e-01 6.923731489689734231e-02 2.098087342737318672e-01 -1.078527677757040706e-05 3.098763123448846561e-04 -3.004787263988346058e-01
3.776102637345240542e-01 1.293920390441243573e-01 2.097849347589667013e-01 -2.602493803493521060e-04 1.817609826204780350e-04 -2.737332975867249329e-01
3.690612580681565391e-01 1.500434070451586999e-01 2.097193074060862972e-01 -6.148815261743136571e-05 -3.075723878913391002e-05 -3.688790642502878248e-01
3.946725837440371865e-01 1.485705035003930530e-01 2.097638871685840178e-01 8.433139292234066297e-05 1.743624304539806284e-04 -2.524255890998373664e-01
3.591355132197044941e-01 1.483321236749913230e-01 2.092852326581117750e-01 -8.732780280169583379e-05 -2.796975855368856630e-04 -1.869057878502064229e-01
3.142238135689806589e-01 8.573331603554193436e-02 2.102002899853388507e-01 7.268604972270665307e-05 -2.701430754016801578e-04 -2.664103120715421436e-01
3.836707739228154557e-01 7.632426275171541596e-02 2.096030862808112016e-01 -2.996276008326122426e-04 1.370010272963683839e-04 -1.515231735770300459e-01
4.143161563870131348e-01 6.755850783383454683e-02 2.104466092585217107e-01 1.739853801601445296e-04 1.167525568969477151e-05 -2.497397194238350215e-01
4.146918421073063632e-01 1.242573832799859085e-01 2.098281085820095093e-01 4.732812294262611624e-05 -4.988213986435243190e-04 -3.500910277223553413e-01
5.018013961015069802e-01 1.159811878752551179e-01 2.103623780446634006e-01 7.672217007982718695e-06 -4.179105288980602376e-04 -1.544385650687627454e-01
4.412269519622265546e-01 1.494868372570553328e-01 2.098367003103889794e-01 -7.232888305444136706e-05 -2.574152584890279562e-03 -2.317847168442413175e-01
3.819142886175823648e-01 1.846711293229345019e-01 2.103301977274612544e-01 -2.139938925300991130e-04 -2.704694861101542176e-03 -3.706323541773017261e-01
3.842995736920726824e-01 2.051412148494436705e-01 2.095630301196738099e-01 -2.748394500422532763e-04 -5.663936762464728998e-03 -4.526434155765632905e-01
3.481816892268037589e-01 1.770753193385414259e-01 2.099976959875489713e-01 -2.902459825385817556e-04 -5.838146815092918294e-03 -5.405200970632225710e-01
3.728497359654635579e-01 1.458193777442096661e-01 2.103841633565808333e-01 4.274703422946001468e-05 -5.849726325802374199e-03 -4.156915219239923909e-01
3.570871712289376831e-01 1.396262251595971338e-01 2.106593401811887034e-01 -2.936003465948496438e-04 -5.815253116350633383e-03 -3.490826877138042961e-01
3.177170284230395603e-01 1.479508135515884837e-01 2.098009109182917831e-01 -7.401058496060980560e-04 -9.419622850815658269e-03 -4.411634438878842546e-01
3.405272540073507326e-01 1.055709752693893694e-01 2.100207633106199179e-01 -5.288005819625515597e-04 -9.389710143025201822e-03 -5.078364593459908649e-01
3.971351703841606851e-01 1.934095517465850567e-01 2.102354151365546930e-01 -9.829893583056931432e-04 -9.390622528321639420e-03 -4.722886379147271940e-01
3.862619544009288641e-01 1.700323440266399422e-01 2.104785650442083655e-01 -6.266662652527930444e-04 -9.393406101821117488e-03 -5.049887025469685931e-01
4.127374744304006526e-01 1.459246443387002268e-01 2.105794476621922207e-01 -7.317367724848848447e-04 -9.273507526617066204e-03 -2.907266028640930755e-01
4.373956181805343513e-01 1.867251894110167065e-01 2.107524203480358183e-01 -1.076718611150220004e-03 -9.446735422357688261e-03 -4.889797903122374834e-01
4.848460129328484025e-01 2.099046909553377027e-01 2.108960374064094423e-01 -5.559458970540116568e-04 -9.371125919623416595e-03 -6.316342728614066093e-01
4.569390728111024091e-01 2.508329843437527851e-01 2.108911163712061110e-01 -6.734749548376156277e-04 -9.237458365998294646e-03 -6.978176729732363803e-01
4.778477112581392960e-01 2.177216873817241771e-01 2.110006320344530728e-01 -3.936307451342328637e-04 -9.284710632593139168e-03 -4.508882746641868500e-01
4.616514548354973546e-01 1.128069000911371689e-01 2.111430797574160856e-01 -2.379110398213456494e-04 -9.477353887291085216e-03 -4.237125009504499884e-01
4.391129582934905073e-01 1.459762462163400470e-02 2.110900300608223867e-01 -4.712787357968924325e-04 -9.360445352837969135e-03 -1.831618362441659598e-01
4.507533020653456957e-01 -1.151380631923831603e-02 2.110395101149725727e-01 -4.668466840654306930e-04 -9.292983910263502914e-03 -2.725049510260079133e-01
4.783926463626993475e-01 6.066015104401638325e-02 2.109563187835309384e-01 -8.310835413481664196e-04 -9.157196061618974939e-03 -2.461911756548554875e-01
4.518455765611905650e-01 1.209329535194714755e-01 2.110297433205741147e-01 -8.543772175334838704e-04 -9.351563902709796039e-03 -3.798688185344036294e-01
4.551760492875195352e-01 1.914618863440030461e-01 2.110132610203890868e-01 -6.462649769318904369e-04 -9.240928452653687786e-03 -4.453624621841672515e-01
4.241488139140717761e-01 1.887910087635759626e-01 2.110751323615135955e-01 -6.131873736958318296e-04 -9.385966729946300380e-03 -4.169948535450979099e-01
4.138297458865031753e-01 1.035613959851267168e-01 2.111620073861699698e-01 -2.674730097682151051e-04 -9.477726676328601316e-03 -3.068510923926908163e-01
3.778629035249888024e-01 1.227915397435166145e-01 2.110576821864871278e-01 -5.502248648640011442e-04 -9.307165142135944563e-03 -3.943848996214179836e-01
3.933195418471133742e-01 1.051557330556637804e-01 2.110520695965279470e-01 -5.488775217850646150e-04 -9.305104616180547364e-03 -2.167689046116592910e-01
4.389726166696107379e-01 4.983161988310407658e-02 2.110751312093415710e-01 -5.384874647580922911e-04 -9.373551584744142795e-03 -3.506135800805314229e-02
3.772205646214247254e-01 3.113846590823300675e-02 2.111165289755997376e-01 -6.291869832698401182e-04 -9.453048029725966833e-03 -7.758307977533809852e-02
4.185189281039645715e-01 -1.308547110650857756e-02 2.110880956248155638e-01 -6.684691678112263807e-04 -9.391276833969078308e-03 -6.481450792227659574e-02
3.737443650644398652e-01 -4.640863141695933392e-02 2.110269142681155952e-01 -7.832079633358690401e-04 -9.318136419801767434e-03 -5.677564379658647797e-02
3.778952803659927362e-01 -3.989511945692995193e-02 2.110419488075249705e-01 -8.202635907990820773e-04 -9.317588052587413502e-03 -9.329169818023189120e-02
4.557774858829862219e-01 1.067673805390558298e-02 2.110324316194177041e-01 -9.819939141038180452e-04 -9.358727423296193948e-03 -1.528513785875429687e-01
4.541651811754691681e-01 1.662330482896091921e-02 2.110448332233734181e-01 -8.417932337774591649e-04 -9.363533380994611133e-03 -2.128024396532152973e-01
4.886166539924313157e-01 3.510095772852087417e-03 2.110392825054931976e-01 -9.439563587516662047e-04 -9.389406864193219904e-03 -1.613909675342523331e-01
4.876642410146809214e-01 3.371649852455435581e-02 2.109886001648641485e-01 -8.600338333588298167e-04 -9.226180404266419444e-03 -2.075321588266271500e-01
4.497213033029130447e-01 8.234062854881282756e-02 2.110209371062574113e-01 -9.093209859179916983e-04 -9.278722500999370126e-03 -2.268286838141261030e-01
4.468324359513833333e-01 6.408494899291344860e-02 2.111325633782857314e-01 -3.471841938268331661e-04 -9.421298643563577255e-03 -3.477670630232407301e-01
4.806710520200227488e-01 8.039372425760031582e-02 2.110290114764067915e-01 -8.189811696747815875e-04 -9.302811187408941904e-03 -2.809025338625271151e-01
4.743073336118927563e-01 3.998820643795282515e-02 2.110690907329118571e-01 -6.166262732792400589e-04 -9.308047749392421230e-03 -2.360767554944903091e-01
4.951461572528805810e-01 5.982496649379724640e-02 2.110513805090203920e-01 -6.720934458131058503e-04 -9.315249183861500082e-03 -3.237769348260059465e-01
4.505673441084698805e-01 1.385244220138303894e-01 2.109922040360688311e-01 -8.568436876771555986e-04 -9.230250808675961871e-03 -2.828806431549014122e-01
4.802784951947949299e-01 1.095011231717829547e-01 2.110589411510332414e-01 -8.171810690433831473e-04 -9.387767593239584180e-03 -3.939839237309814557e-01
4.122155608920317627e-01 6.119509434438746842e-02 2.110498104768000482e-01 -8.084231878605976918e-04 -9.326580826177002792e-03 -3.869734478750609941e-01
4.301919189005352639e-01 9.394340978842494194e-02 2.110892628979293972e-01 -4.940064750349672674e-04 -9.358617541484712601e-03 -2.868455071546557877e-01
4.319502973961097392e-01 8.881034618173001827e-02 2.110847629874782472e-01 -5.932242661054481668e-04 -9.407688931950009339e-03 -4.698307992061315774e-01
4.685106978342773454e-01 8.222509976086635197e-02 2.109971565170380980e-01 -6.117294460139494983e-04 -9.228019199707131540e-03 -4.034263152538624109e-01
4.705375359296053439e-01 6.055001201609918476e-02 2.110440712546957087e-01 -5.962232625670840693e-04 -9.310624000246925727e-03 -1.672925740680948348e-01
4.873597076800271211e-01 1.509697546092481080e-03 2.110881393675823059e-01 -6.294024362444188871e-04 -9.407023277948083420e-03 -1.582462703176518437e-01
4.494132687812499305e-01 7.741288303441051788e-02 2.110138978479780825e-01 -7.563091453212588636e-04 -9.269947840036830630e-03 -2.521113849190396716e-01
4.652871511493866796e-01 3.336738995258456408e-02 2.110332607451197995e-01 -5.646442094941240847e-04 -9.300553895363128723e-03 -1.771744520662592026e-01
4.392811640456670275e-01 1.780867352985381069e-02 2.110610313630505441e-01 -7.397083993871219525e-04 -9.323270739905192492e-03 -7.537709299676122188e-02
4.495859885388837074e-01 6.179864456694725283e-02 2.110355307303675709e-01 -8.903234738433063282e-04 -9.328191318892242040e-03 -2.617162675946209660e-01
4.785745748451024073e-01 1.417499582781498735e-01 2.109901922368435101e-01 -9.462367714987654109e-04 -9.275632425920977975e-03 -2.834132065464983752e-01
4.797616132134173705e-01 7.972548239330097541e-02 2.110820803187224981e-01 -5.448808393813982373e-04 -9.377468334696924604e-03 -2.602650453387017060e-01
4.686901479860128839e-01 8.566797821793263601e-02 2.110450863058969673e-01 -5.235873143931357113e-04 -9.287417972310446634e-03 -2.296005328181968119e-01
5.075954816077223875e-01 7.737274896633174193e-02 2.110930398320207679e-01 -5.203065893681898873e-04 -9.355225336149899582e-03 -1.986273933391910218e-01
4.595849055814385520e-01 6.532842360411149352e-02 2.111192364777741415e-01 -5.023332826199238725e-04 -9.370397907531387641e-03 -7.621518630550311313e-02
4.641352631880183433e-01 5.042720034959649600e-02 2.111534357988989474e-01 -8.047965594617919813e-04 -9.368469946030556772e-03 -1.319082779792243032e-01
4.529841986876090854e-01 -9.092360825156110826e-03 2.112518890472255828e-01 -6.937631139791636909e-04 -9.383319967763403477e-03 -1.869339179301762466e-01
4.922775628398238235e-01 -7.079799638754874502e-02 2.112832944524042911e-01 -8.778487279221142700e-04 -9.249033446571812769e-03 -1.684564836469476801e-01
4.656581284266035348e-01 5.516644835287153048e-03 2.100738180326441329e-01 -1.590031324167813032e-03 -1.350461216075631889e-02 -2.343061254770705260e-01
4.168596899974154057e-01 3.858721512305775952e-02 2.103147050679357588e-01 -1.526392037516303328e-03 -1.352771329158465423e-02 -2.621547502512769356e-01
4.505209903016639261e-01 1.803697391196130290e-02 2.104404041540181569e-01 -1.627870337139826701e-03 -1.340429125846854391e-02 -2.965530779518116278e-01
3.974118212082624613e-01 8.267106794311429585e-02 2.107796658913217991e-01 -1.337383864602293120e-03 -1.348169084764955748e-02 -3.505456695401667488e-01
4.002642243053106674e-01 4.348769568398110075e-02 2.111032607570767494e-01 -1.303929717167965534e-03 -1.327413234844607680e-02 -1.474155114186149473e-01
4.934103108259270121e-01 -3.609828885996270442e-02 2.114149987337039516e-01 -1.365071923161810270e-03 -1.271565630141063483e-02 -3.321612436137754143e-01
5.717202878264722177e-01 4.165840933484880187e-04 2.118942018418560336e-01 -1.372093073590849354e-03 -1.185719450927772214e-02 -2.773053000075258456e-01
4.574889253697850267e-01 -8.355557770798292816e-02 2.111789811518764437e-01 -2.181886155563452813e-03 -1.609045085126143901e-02 -3.161329206867972696e-01
4.109456616020298880e-01 -8.567986982984039657e-02 2.119377501958201737e-01 -1.685725708007805926e-03 -1.416542606182692038e-02 -3.611509252251836610e-01
3.557519736470995952e-01 -8.086097938251927963e-02 2.116250203200554236e-01 -2.105603240476924126e-03 -1.495927038674973314e-02 -2.000871867066951748e-01
4.054232597242384273e-01 6.851766893359799784e-03 2.112527445452986874e-01 -2.248698731521736778e-03 -1.530947021912607356e-02 -5.298113219735097745e-01
4.153240303806841616e-01 5.687983433681104845e-02 2.121897598680675401e-01 -1.255362571200593219e-03 -1.162038042407146851e-02 -4.684939655988464291e-01
5.042064844280405023e-01 4.863573096383699834e-02 2.119344537709854648e-01 -1.010599529331191555e-03 -1.063372631954377819e-02 -4.926508056695516613e-01
4.271988743813734946e-01 5.378921281649266806e-02 2.114616728418021174e-01 -5.867639064717057682e-04 -9.242875683406977932e-03 -3.967995248944774511e-01
4.098177161281872927e-01 2.476225795036222227e-02 2.109766415786764049e-01 -4.001628972986723438e-04 -6.836408272618590444e-03 -3.030919250286713273e-01
4.230257796587050811e-01 -2.320678020413720344e-02 2.119129779137664538e-01 1.043856908635498103e-04 -1.136532463843810577e-03 -2.872557330378131546e-01
3.678377653973728401e-01 -8.475995291111881880e-02 2.098609584236027503e-01 1.400614488850149499e-05 -1.464562837731672642e-03 -1.511948606096748804e-01
3.672133426681923329e-01 -1.355007103316700212e-01 2.094084997889095190e-01 -1.944894652914427253e-05 8.823528453178553031e-04 -2.305310811310493924e-01
2.782876610484075197e-01 -1.361150146065402133e-01 2.090777053416510989e-01 -1.381400315417217106e-04 3.131948261723545464e-03 -3.799075990495596189e-01
2.364669452637743197e-01 -1.786623101491669474e-01 2.088504394957981791e-01 -3.541997602960224030e-04 5.474990523317888047e-03 -2.595854440946768205e-01
2.810571244455328799e-01 -1.228257403625260119e-01 2.087490501596759307e-01 -5.099901934099603440e-04 7.008820524696875165e-03 -3.283002093597871540e-01
2.255962015217183592e-01 -1.498337769280757292e-01 2.087892634147786586e-01 -5.361777435826263396e-04 7.684073161272464599e-03 -2.467469806035827440e-01
2.439289121540846594e-01 -1.342518294994771433e-01 2.090087870302845263e-01 -5.448369463050632125e-04 7.482045108572062467e-03 -4.599748346945700672e-01
2.717880393893195023e-01 -1.555324389800197826e-01 2.093353500143965151e-01 -4.691790380064083115e-04 6.679605237330079118e-03 -4.210935719567137636e-01
2.148022216774574111e-01 -1.347683768383868275e-01 2.098935781127777567e-01 -2.333991293701710625e-04 4.832341785805108030e-03 -4.761247536311433159e-01
2.133954459729786313e-01 -2.031209971502131728e-01 2.104086951824700735e-01 1.446531944848186430e-04 3.255299863324017003e-03 -6.013920224295010719e-01
1.230706612943134048e-01 -1.174346347117281031e-01 2.093712155206242098e-01 -1.232202917657390706e-05 1.197913825355745440e-03 -5.095390454763016885e-01
2.118149466777349832e-01 -1.016994013888588427e-01 2.101238487816419198e-01 -4.049625383392632395e-05 1.154097881310171521e-03 -6.502569180666764037e-01
1.973623631636578502e-01 -4.544528467731347859e-02 2.092589141518390039e-01 -3.783969464603631808e-05 7.179694899658167762e-04 -6.509934780165840262e-01
2.438384556380755741e-01 -6.720844098900781438e-02 2.102030226055310314e-01 4.066193522933184808e-06 7.458014289363032890e-04 -6.684904959300033145e-01
1.169745585932556314e-01 -3.748765625341848179e-02 2.093397224769248388e-01 -1.184301852083821487e-04 1.100574746505870354e-03 -6.118857329560168923e-01
4.805371923334661455e-02 -3.936961658951225462e-02 2.098530500119057396e-01 9.270868544474755897e-05 1.442105192456050828e-03 -5.160849874465457399e-01
4.515740868872827191e-02 -9.689042342956276366e-04 2.106796868226166186e-01 -8.200187675416656499e-06 1.524655986294741168e-03 -5.685813653672303625e-01
-3.086800724038283456e-02 -1.177161726399931531e-02 2.094874481788633336e-01 -6.176973028041651294e-05 1.398749982616560947e-03 -6.114607005188206212e-01
-3.369167160574688957e-02 3.142542414692873348e-02 2.105039244248550490e-01 6.443094913633660113e-05 2.145646022981956367e-03 -4.611527245431477073e-01
-1.078011233861192603e-01 4.940115528409751849e-03 2.088324788809061139e-01 -5.057257369638692166e-04 8.741892316858813515e-04 -4.314723053516728024e-01
-6.694801682903132878e-02 8.684569888919446701e-02 2.098153832583893319e-01 -1.799062269408592746e-04 1.699826754304894572e-03 -3.457247738928360126e-01
-1.182775187369685399e-01 5.807509353857735063e-02 2.095415372214916583e-01 -1.206821826626912385e-03 2.177783212292503864e-03 -1.989416855057518085e-01
-1.103163106144655764e-01 1.229999922356222741e-01 2.092240606592613572e-01 -1.444603928119891358e-04 1.864985476356350409e-03 -3.306027700827295912e-01
-1.166200533687800633e-01 6.504389199651007536e-02 2.102150216327532961e-01 4.445536404721237928e-05 1.185788624989497992e-03 -2.921199150531845201e-01
-6.358268371600561686e-02 5.218579449504719137e-02 2.099235911704667723e-01 3.827121440084300767e-04 1.318396502995392624e-03 -2.994401679806644179e-01
-4.767763997519863794e-02 2.817713201083314051e-02 2.096614770682859730e-01 3.182227415963127370e-04 8.124245928625438472e-04 -1.310777422879477738e-01
1.896446972181557028e-02 3.351806175694854728e-02 2.102270316183991739e-01 1.077141875174230902e-04 1.225003783765826661e-03 -2.020737269012690684e-01
-8.615232180598016154e-03 1.091544674794034941e-01 2.098681423018162184e-01 8.664701108589763397e-05 1.039330308795416956e-03 -1.483718478556998455e-01
8.718010600849863956e-02 6.202421092730785873e-02 2.093984455859198013e-01 5.458142541468869011e-05 4.954147230914199762e-04 -9.326519617572916199e-02
9.101362166826146294e-02 5.660973189342786288e-02 2.103882810248050017e-01 3.710446856682149213e-04 2.800529889464760153e-04 -1.696334519920330575e-01
9.980422733970355925e-03 1.122439990507905078e-01 2.100774850079246692e-01 5.622754051487977500e-04 -6.278628102314827908e-04 -4.775151143980004287e-01
1.727958072941547518e-02 9.324507419693307819e-02 2.093389625579016311e-01 -2.984114791951111018e-05 1.187605385074455935e-04 -3.680065447217865660e-01
5.143785970723020740e-02 1.373777039531780542e-01 2.100896081180539943e-01 3.229379331006462984e-05 -2.948143975107347914e-04 -4.684092910685929700e-01
-1.447059927121373962e-02 8.087783081671004459e-02 2.097425135081697478e-01 8.501284242644471583e-05 -1.370596909265705014e-03 -3.830332096988336987e-01
6.000005458087491472e-02 1.440007890277405882e-02 2.104525083917848649e-01 1.583493840082050066e-05 -9.209905336516041379e-04 -3.455314749002159624e-01
1.148109865192314949e-01 5.301055176233463589e-02 2.098962440864668988e-01 1.422088438639118987e-05 -6.984182545831998110e-04 -5.467133893996027894e-01
8.128512770109296015e-02 7.217730076714591603e-03 2.096172577532621206e-01 1.480143261364892844e-04 -9.144203344151507259e-04 -4.080238672369336794e-01
3.830674196636289774e-02 6.154413349296153357e-02 2.104041832595246464e-01 -1.422376584183467659e-06 -4.348926396075431270e-04 -5.452124172848260564e-01
7.140202235645587425e-02 8.790520758956373026e-02 2.099617034290081619e-01 -2.232674357620165065e-04 1.004524117899493004e-04 -4.376653670841659793e-01
-1.364983591025788201e-02 1.165947060840017979e-01 2.098652979944670705e-01 -8.780594582324756630e-05 -5.204712268468947821e-04 -5.861951039534890606e-01
-2.476813774118440808e-02 1.261301059617161435e-01 2.095063756498318219e-01 9.772310079437188525e-05 6.170961066790592786e-04 -4.776658740220606769e-01
-1.175104330338781235e-02 1.310575571133052175e-01 2.094466727019567154e-01 3.486083005523016678e-04 6.725295046952605707e-04 -5.110520415406074601e-01
-1.599097825782566651e-02 1.190169430327248923e-01 2.103017699599680768e-01 -3.385274802768124401e-04 7.879899594378823391e-04 -6.683713110970717075e-01
-6.725206198316685535e-02 9.012890558907130090e-02 2.091769183290929091e-01 -1.050840796614813490e-04 1.203121920313637502e-03 -4.594636864119501785e-01
-6.474594992436961960e-02 8.169916709877544925e-02 2.100618261034474799e-01 1.141073088320124099e-04 1.300922465852865978e-03 -5.189220757450596633e-01
-9.056851770223506293e-02 1.102579952606132646e-01 2.090846341949099685e-01 1.065135412770643498e-04 1.388104150347565808e-03 -5.386927859932713059e-01
-8.963710674547969992e-02 1.310853790047270540e-01 2.099365091286435892e-01 3.346435841494411676e-05 1.311016887702917818e-03 -4.268131598002417593e-01
-1.185385064069985755e-01 2.701563731282688452e-02 2.092115181539073721e-01 4.794794363404171890e-04 1.378144056846867908e-03 -3.738315801024468255e-01
-4.828878650685582835e-02 -1.445436588364851747e-02 2.100272658254409563e-01 6.333346688545692961e-05 1.357582894355900292e-03 -3.265701371679003984e-01
-1.121847465264816934e-01 -3.977060306325724132e-02 2.094733885712803390e-01 7.249690126558145785e-05 1.066317915554637098e-03 -2.173188188081433547e-01
-1.055440815831434204e-01 -1.129604929471481577e-02 2.104040258566838295e-01 -2.101144551914082355e-04 7.057594495557378269e-04 -3.109395993100665945e-01
-1.686445397110881428e-01 -6.052651280293752656e-02 2.102933039537229765e-01 1.015522041925315553e-04 9.032348118030193848e-04 -3.226260882545476938e-01
-1.641235126483641948e-01 3.714653420989082883e-02 2.100172360426400542e-01 8.176225709026641454e-05 6.105556691227037895e-04 -2.671204851082102372e-01
-1.025920156138339541e-02 -7.419218113622690070e-02 2.096481585810423542e-01 -3.645868107241887596e-04 2.088038166019441210e-03 -3.353057231239043312e-01
-6.196987549488185837e-02 -7.840587573841086011e-02 2.104275741529009758e-01 3.222245841870821962e-04 -4.949020805273095106e-04 -4.665274291639784354e-01
-5.095821141855029490e-02 -1.591480742993983677e-02 2.102111432979198447e-01 1.923477050939782058e-05 6.470555989452502800e-04 -5.208275451264161582e-01
-1.011105682351244456e-01 2.994920409985367404e-02 2.098486345089060068e-01 1.281196334839632919e-05 3.907708144547233095e-04 -5.656753983322984070e-01
-1.096427193555780805e-01 2.935553721237393887e-02 2.095837769212873791e-01 -7.485241096706036613e-06 4.996701209012749043e-04 -3.708240070950485356e-01
-4.911521396066158285e-02 1.761661670197695734e-02 2.101642151301529871e-01 5.338362769043274598e-05 5.078019372061918840e-04 -4.580999289485561121e-01
-6.703657083694311569e-02 -5.128000857649203659e-02 2.095315522848369416e-01 3.822351312344983952e-04 1.675026615805099491e-04 -4.988702470802316435e-01
-2.413450210000709500e-02 -1.031681379054713577e-01 2.100659795895392090e-01 1.135677461282611774e-04 -5.286186164556005822e-05 -3.630858056042812754e-01
-4.037591674487066989e-03 -2.107908970849309283e-02 2.106733693812738450e-01 -2.366663351048874293e-04 1.629873433128265620e-04 -4.500705637197557341e-01
-4.073374349000826594e-02 -5.036152031802548779e-02 2.098007302536274987e-01 6.047342071230331486e-05 -6.169421715752636433e-04 -2.719990445602203932e-01
-5.124484626894246220e-02 -7.961127122191215266e-02 2.105197339660947464e-01 1.996034927825447161e-04 -1.179200920390407158e-03 -5.241261221426801731e-01
-1.450713491942111077e-01 -5.955519296973919852e-02 2.094794864934581002e-01 -4.018940179500831869e-06 -1.373755512056223753e-03 -1.339556384509809905e-01
-1.387805637483643939e-01 1.816049748089608451e-02 2.101673276656867984e-01 -9.897550002760397835e-05 -1.827971839645597474e-03 -6.580266060393268335e-01
-1.112919087342723601e-01 -2.583411515615580134e-02 2.091423837741540059e-01 -3.739362520820365521e-05 -1.700999562285337129e-03 -4.072431551215172085e-01
-2.849342903502097291e-02 -3.592227315903979978e-02 2.099278828572441746e-01 1.535012957492577995e-04 -1.408666555198492473e-03 -6.805813167393448548e-01
-8.464380553739516561e-03 -1.975856180430412071e-02 2.106997689570653254e-01 1.421817830634982262e-04 -7.710900129789101474e-04 -5.414235422665107933e-01
-5.313107079804415406e-02 4.559085591078004818e-02 2.093282934905241754e-01 -1.989965644685903355e-04 -3.846250633737366897e-04 -3.401632909236523838e-01
2.242053038903400394e-02 2.147687716297148885e-03 2.102422048535446120e-01 1.630353546286873506e-04 5.455817275238443974e-04 -1.431069771572691107e-01
2.998997111247434996e-02 -1.069590739689683587e-02 2.108570664419969209e-01 -1.299159698517540881e-04 1.350788140479587066e-03 -1.722717910296260313e-01
-5.774549015306985889e-02 -5.052202305212008526e-02 2.096664585971475536e-01 3.133976743227859588e-04 1.450971631920392434e-03 -3.067589811676491585e-01
-2.991333381819055726e-02 -8.772486497530432303e-02 2.102337832278859953e-01 1.428388177348753412e-04 2.070294685007309423e-03 -4.206592899137273633e-01
-1.480785672359207217e-01 -5.521065547640967297e-02 2.097987308569280174e-01 -2.281507018328289571e-05 1.259649929671966201e-03 -6.344489206062635667e-01
-8.619237373256499746e-02 -4.530650714358513964e-02 2.104169227438389411e-01 1.812243037927600299e-04 1.549326011118150196e-03 -3.647254653707733274e-01
-1.058742022341756794e-01 2.167063750049808696e-02 2.098466606590871364e-01 -9.113378177880554736e-05 1.278441613121763815e-03 -4.780286184566420737e-01
-5.530133895830854907e-02 9.416835802255707488e-02 2.098147772858951488e-01 3.190179735541469656e-04 6.386662470748598937e-04 -4.678736166008204966e-01
-1.175913863014137750e-01 9.525369246468042006e-02 2.094271999176812726e-01 1.021990994585269793e-03 4.543866019007105706e-04 -3.489587985418376448e-01
-9.526764482684678750e-03 1.145322230453859336e-01 2.102186422257876219e-01 -3.204762765710855179e-04 4.460791102832833695e-04 -4.872654444883489089e-01
4.553787436980746839e-05 1.132695854769940336e-01 2.100658670706909148e-01 1.540057253551682637e-04 1.684509614463851541e-04 -4.497165866519410304e-01
2.472112215763321019e-02 1.764326274535800987e-01 2.097501391725703490e-01 1.757610645640248349e-04 1.031957474051904217e-04 -3.208819949011417760e-01
2.252510950797782796e-02 1.210360611347651855e-01 2.096425429862650014e-01 1.677200807725513537e-04 -1.491442346089826660e-04 -3.273616116180554925e-01
-8.415831406194690389e-02 1.278233295831666672e-01 2.094231412802433079e-01 -5.393838005798676401e-04 -1.056498403555252916e-03 -1.422125111544437492e-01
-3.963408679639782162e-02 1.797829655260856918e-01 2.101395921950756085e-01 3.410402501551639589e-05 -9.635177572606564139e-04 -2.809817576382069859e-01
-6.639268209290061229e-03 1.981932457263616831e-01 2.098579093061650469e-01 6.401909341033706707e-05 -1.483734274687832384e-03 -3.381720192355154309e-01
1.489817995962413807e-02 1.476406212911719473e-01 2.096521029196691255e-01 7.737833618182109185e-04 -1.438903003144979776e-03 -3.481534327209408475e-01
2.371128030250923419e-03 7.085072057917371491e-02 2.093667390598107358e-01 8.165084605694533128e-04 -1.502721106115592490e-03 -5.338736527676262167e-01
-5.479228396802758583e-02 3.423686171485924856e-02 2.102140224404255298e-01 4.366213298581248566e-04 -1.923099134578460734e-03 -4.809194774610081602e-01
1.929250859287815617e-02 1.247967786211493652e-02 2.095446675535632131e-01 3.994267902922017774e-04 -6.786769479242255694e-04 -4.916148032097988896e-01
3.344163861850174557e-02 2.673584298855275973e-02 2.106015596670052226e-01 -4.044542302770662962e-04 -1.054869448573003340e-03 -5.316574380653149579e-01
-2.607926679725006830e-02 8.749523779374662399e-03 2.102249153824587435e-01 -1.599807895642526526e-04 -4.095985683589401568e-04 -4.485341844182554327e-01
-1.251025875083800476e-01 1.546971179610510949e-01 2.097967825067807990e-01 -2.323610132941317393e-04 1.952137100819896975e-04 -3.508286274156123818e-01
-8.793096842583299211e-02 9.543461607062368734e-02 2.094215731950511139e-01 2.021635156669021323e-04 2.239912289260891217e-04 -5.230336265657709038e-01
-8.006995610694603305e-02 1.972313950420269968e-01 2.102874433421371703e-01 8.588412245800312200e-05 2.970886746497120035e-04 -6.094745798107528145e-01
-7.372956614113526652e-02 1.435391059057217478e-01 2.101228544512192542e-01 2.325588870144541342e-04 1.134456585723162106e-04 -5.015710165823232813e-01
-2.311060466505511848e-02 1.217879532960073480e-01 2.097470562743846134e-01 8.383074919076090423e-05 1.831758471937460853e-04 -5.317932988175122500e-01
-7.752154946290981674e-02 7.747965700686061663e-02 2.093816961887909334e-01 -2.338002047985215500e-05 -2.372701016888915636e-05 -4.925530782661314277e-01
-5.677125715418559343e-03 1.295557095273073556e-01 2.102999004843958963e-01 -1.547910898520188535e-04 -8.689395672577111232e-05 -4.035827725911818042e-01
-6.494603447258869011e-02 1.230000132019194586e-01 2.098318367821246921e-01 3.840061226373717705e-04 1.395265797666977634e-04 -3.982569647303563221e-01
-7.642997323481984240e-02 9.690370732656339303e-02 2.095626943582873936e-01 -1.720002778788884445e-04 -8.215106637154614023e-04 -4.749692099125162326e-01
-1.108146305120912972e-01 8.306432103764972708e-02 2.102499350048852023e-01 2.143695659354836233e-04 -3.071954047915989648e-04 -5.606077955224555431e-01
-1.264033150113594017e-01 1.782007903772077351e-01 2.098139530238817274e-01 2.656685467276066398e-05 -7.679021267067353759e-04 -2.698385663084691410e-01
-1.060428083472541722e-01 1.386804425397682450e-01 2.094094521397299458e-01 1.012255906397839289e-04 -5.642251760355695978e-04 -3.933765271101870020e-01
-1.530785158527904755e-01 4.586365640700262175e-02 2.102529173627611381e-01 2.585003793875675264e-04 -2.378887572316674894e-04 -3.035480013121218956e-01
-1.348180578901502780e-01 7.465962243371865315e-02 2.098127845416398740e-01 2.223807175094576053e-04 3.420130801103486999e-04 -5.522529343325417450e-01
-1.264292931664989794e-01 1.269046741730524563e-01 2.092693484064660492e-01 9.832009258072461520e-05 7.554629952341711556e-04 -5.812296187167521611e-01
1.092592569597205729e-02 1.428831167856982609e-01 2.099740544380501728e-01 4.497308169210160144e-05 1.587932204115612232e-03 -5.007003283623631118e-01
6.709720149866160027e-03 1.459208863151714719e-01 2.096083777994055541e-01 9.603791077325417341e-06 6.579529715572652541e-04 -2.717830016401069915e-01
-4.661008027895986727e-02 1.021922714250402542e-01 2.091455565574636966e-01 7.730461689630662467e-05 6.355545732015980371e-04 -3.797812392153637195e-01
-5.451209416218281978e-02 1.411798929644456913e-01 2.098947593202256656e-01 -1.137886600319897723e-04 1.475019427757866828e-03 -2.529653768344612419e-01
-8.576477743477060184e-03 8.643327406446016381e-02 2.094084321296244000e-01 -3.189301131431866608e-06 1.042963312434522097e-03 -3.339390694577517582e-01
-4.552618069718141619e-02 1.341034621798214976e-01 2.100964610197009197e-01 -2.599262925894416662e-04 1.016575471755770763e-03 -3.939279292575681990e-01
-5.195741602290459421e-02 2.319793999536618745e-01 2.093962687363875586e-01 -1.596918552571955762e-04 1.026125510802523020e-03 -4.195752333099391218e-01
-7.254462289579720335e-02 2.110666117849231138e-01 2.101420204433938066e-01 3.048056698730417188e-06 1.434092156941015831e-03 -5.490313555827980307e-01
-8.776376180398280658e-02 2.329547433635662246e-01 2.095386304829812141e-01 -4.545810115462527406e-04 1.609973015921856284e-03 -3.504798271389931164e-01
-4.978508300956546728e-02 3.165131823616141871e-01 2.099930181764047554e-01 -8.205502547880674032e-05 6.084853474222322312e-04 -3.699735407838531387e-01
-8.037715721908381128e-02 3.266549978141761179e-01 2.093769855893912735e-01 -9.252563422000764681e-05 3.588992007158996645e-04 -3.408983344585611031e-01
-1.203017774487219888e-01 3.038893640001052443e-01 2.100810966721714523e-01 2.656987750770609395e-04 2.866426366721527537e-04 -4.438086244903047262e-01
-1.987561442509588605e-01 2.850039969795404859e-01 2.092078628727649381e-01 1.635824397985523467e-05 -7.926296733851245809e-06 -3.642643207647925374e-01
-2.614453629523624811e-01 2.937766505140605444e-01 2.097768078857774610e-01 5.119295232185251438e-05 -1.978903483079693445e-05 -5.903071631288038246e-01
-2.613568130199216966e-01 2.937765577237603232e-01 2.090310421252892792e-01 2.869365589726175468e-04 -2.754442536254101304e-04 -4.454852395506043172e-01
-1.867575048552398698e-01 3.461603980336968589e-01 2.095715303499173232e-01 1.263320137418405065e-04 -4.125792715652039128e-04 -2.885431620152937859e-01
-3.073877974937267582e-02 2.672097484306233395e-01 2.102171360397619981e-01 3.694511841358362686e-04 -5.887495115209318236e-05 -3.235848710109589521e-01
-5.728113442611379447e-02 2.479267955930247735e-01 2.093248490485962732e-01 -1.994268078002424868e-05 -1.191904954867643428e-03 -3.214881977544609692e-01
-4.046122102063306331e-02 2.829820359557740361e-01 2.099224698004114598e-01 1.781986371344430680e-04 -7.738521943051014174e-04 -3.753727949134484931e-01
2.527437997335412606e-02 1.321045136604275805e-01 2.092868755186465535e-01 9.016539854846111063e-04 -7.296759344413629878e-04 -2.158404296707857606e-01
1.168724604370940390e-01 1.059251370732766234e-01 2.097166917143608034e-01 8.511719126446354962e-04 -7.158932801187338707e-04 -1.816824470376167955e-01
4.447077501227923724e-02 1.588025797459625965e-02 2.102515868757759421e-01 8.739405790569664640e-04 -1.249326262674314413e-03 -7.398521153853632182e-02
-7.127143483191197837e-04 -1.259522671599538346e-01 2.108020508449792718e-01 4.522143496846167568e-04 -1.309919964552812722e-03 -2.933648547472804680e-01
-3.427382145665983093e-02 -3.672982337450930029e-02 2.101196495592418390e-01 -2.634933161057227344e-03 -1.449909060362996596e-03 -1.791750189231924306e-01
8.887198795540750262e-03 2.839164206668521456e-02 2.103858948676680662e-01 -3.639324066965157365e-04 -1.229101095096139101e-03 -2.927777271373552259e-01
-2.306025961565077304e-02 -3.379810566593005605e-02 2.093555760188001713e-01 -3.264694718736776318e-04 -9.186372283405406288e-04 -2.851866827899897094e-01
1.148224600860368178e-02 1.619959749434291690e-02 2.097676112770964219e-01 8.810522965338052489e-05 -2.865999163212408542e-05 -2.857305267827049966e-01
2.689267012845182256e-02 1.486428249040639554e-02 2.102857410940758287e-01 -2.899429510346675861e-04 -6.967806125345457971e-04 -1.903672946982059855e-01
-1.944175540633572702e-02 -2.023023583458002234e-02 2.093535515208620468e-01 4.801381475513533136e-04 1.209451096236330081e-04 -3.075051841785553242e-01
1.049489054419174699e-03 -3.238954380505801312e-02 2.097921294750177412e-01 1.380918423133049508e-03 5.422675235851270002e-04 -2.081006720843680546e-01
-9.685568028639337732e-03 2.496245017875022010e-02 2.102158393342275500e-01 1.489466534884059733e-04 8.314585090825479070e-05 -4.067694241954296075e-01
1.845286433833510237e-02 -4.462712206567574086e-02 2.107429393747227708e-01 -2.514460474240444595e-04 1.032220429504468951e-05 -2.687001239187184476e-01
