1.187781696928615349e-01 1.259624528556251011e-01 2.093302493262746977e-01 -7.282425005476386140e-05 1.587535141875743953e-03 -3.922780929066533862e-01
1.874277598424950453e-01 1.789274635015339898e-01 2.092843759764160261e-01 1.337698878547082270e-05 1.612531862293480273e-03 -3.266182900355062979e-01
1.495415066246833791e-01 1.595438928760499198e-01 2.091742748203063162e-01 -2.181652878343924858e-05 9.485948917791082189e-04 -3.402488914121308827e-01
9.678833890500072867e-02 2.029045594913202535e-02 2.093341632999643487e-01 2.554126384665812537e-04 2.039834818496025649e-04 -3.377193169295465980e-01
1.250557886295261545e-01 -6.098091382204300775e-02 2.091345773306527711e-01 2.902402375627938041e-04 -1.265115647246306606e-04 -2.399417989387323813e-01
2.364267492988172681e-01 -2.455971238587869448e-03 2.106756571020614310e-01 -1.774283385256151288e-04 -1.816905460442103234e-03 -6.569680549580722562e-02
1.973201768323060989e-01 -4.859609176626710630e-03 2.106698786966765269e-01 1.224900843775624199e-05 -2.637974549634856686e-03 -1.990890733507824639e-01
2.503207330075726822e-01 -4.109303974975012097e-02 2.107359477538409132e-01 2.417125091714176675e-04 -2.535419919457031039e-03 -1.406666608821500464e-01
2.312555265861661880e-01 -1.058291176830126884e-01 2.106304391060799253e-01 3.303680449612888073e-04 -2.667841953742858783e-03 -4.023256384856699341e-02
2.120389971219211189e-01 -7.219130259486408741e-02 2.105473222779044584e-01 4.190608463832146564e-05 -3.247773896255370073e-03 -1.706128353988454471e-01
3.833969778507563542e-02 -5.616816309560294235e-02 2.104428700489243131e-01 -5.051721177778886594e-05 -3.359839617313532638e-03 -1.828364289054677794e-01
8.347688701068497336e-03 -7.968959962840650724e-02 2.104762405010800475e-01 1.589811414338404029e-04 -4.034699098851136576e-03 -4.096479578540861421e-01
-1.340104345717319130e-02 -8.221685205468580449e-02 2.103498582286603691e-01 -1.069992694213934660e-05 -3.911152953649131223e-03 -6.095610877210889678e-01
-5.422177983758294517e-02 -6.394623179854322381e-02 2.103825066070113547e-01 -6.664750924060110432e-05 -3.429921359188067582e-03 -5.979011618976349807e-01
2.883451707862895105e-02 -2.959076444311781878e-02 2.104373061499409947e-01 -2.418288972511790653e-04 -3.557245498516046264e-03 -4.879967938557868146e-01
5.945557551341527913e-02 -6.504099249988438969e-03 2.090595683170127228e-01 -1.913784155369952172e-04 4.443690299838766152e-04 -3.339284476252583067e-01
9.010152995103110074e-02 -1.430065982424302655e-02 2.091395266994672264e-01 1.244684668455652184e-04 -4.447838740747894629e-04 -3.743608597166769858e-01
2.132064362308341843e-02 1.341316777854582691e-02 2.093197637248624399e-01 2.408571650778824360e-04 -1.231745173179144004e-03 -2.667087944927386545e-01
2.835170996377071179e-02 9.986704797527330701e-02 2.094834824153073982e-01 1.406122890775294123e-06 -1.655195299766430792e-03 -3.225496348938928781e-01
3.886405457785160195e-02 1.024104568176808783e-01 2.097156863388148218e-01 -1.380641645054909333e-04 -1.929927284873928818e-03 -1.968763116431366811e-01
6.934748261384654500e-02 1.267987803526893775e-01 2.099999825141239396e-01 2.298776659308844866e-04 -2.548216195700742353e-03 -4.757802725420502421e-01
6.374543928297296547e-02 8.228280037699284288e-02 2.102964965517955531e-01 1.745976669371668657e-04 -3.221843925091740033e-03 -5.337760262872531802e-01
-2.172849848292912611e-02 6.301838755473833376e-02 2.089576933708569006e-01 1.110318474469652780e-04 1.084661179531505116e-03 -1.032042285739273729e-01
2.584461844266177158e-02 5.538866821478304059e-02 2.092610203202051600e-01 3.301717557180441128e-04 4.002344685733887119e-04 -3.706276710217226156e-01
-4.999207326371607474e-02 5.406306561216499967e-02 2.095323814120653716e-01 1.845666072305461407e-04 2.246742399142692887e-04 -2.564258707051533248e-01
-1.335285609880466628e-01 6.116169257620029942e-02 2.097312626925137424e-01 4.962082822274558323e-05 6.861037355898976691e-04 -3.408889859912129366e-02
-1.173057616166326839e-01 1.079754175706191810e-01 2.100259398197894534e-01 -1.000382807333160629e-04 1.212145883420696164e-03 1.363770102842678904e-02
-1.216103949913348581e-01 8.650808787738469008e-02 2.103707430417657287e-01 8.327305462644717853e-05 1.155564643049516831e-03 6.418972107711397312e-02
-9.824543934742691054e-02 3.661608825383829563e-02 2.107690298200491918e-01 2.818166719212767562e-04 7.398350126323956655e-04 2.605297888576725909e-02
-1.298599736079125155e-01 -6.183669791849745467e-02 2.093320653305664747e-01 9.688630665468440277e-04 1.235675109256344521e-03 -1.161930028368896167e-01
-6.782671856358446494e-02 -8.891074280388883144e-02 2.095001452812269016e-01 2.124129199501380251e-04 8.990011796535018942e-04 -1.839183965112007046e-01
-6.280357942353857748e-02 -1.160126822917388750e-01 2.097299492070315852e-01 6.386217865478582270e-04 6.307906246710193350e-04 -2.429802405203898563e-02
-8.847323694303477204e-02 -5.875707830946066967e-02 2.100104819213716723e-01 1.902727492895456220e-04 4.246470956559290888e-04 -1.070905820738878994e-01
-1.219487894890256829e-01 -4.011012996610232445e-02 2.103024015418705206e-01 -4.306862958290147978e-05 4.499270359238559348e-04 -2.806050964348184573e-01
-8.872291299461820824e-02 -6.777645299550802416e-02 2.105949568523393101e-01 1.308426408622975746e-04 2.118673885851002641e-04 -5.334030322814102831e-01
-9.772657874901136132e-02 -5.221182584487059353e-02 2.108375857002848242e-01 -1.262419750270701770e-04 1.197658624864021926e-04 -3.560838429275824391e-01
-1.646433240907798357e-01 1.543181658826508346e-03 2.092885108614355172e-01 -3.252668607658534502e-04 -2.323359130378286556e-04 -2.039592593505386575e-01
-2.051752058617984376e-01 2.222175072741466514e-02 2.096005912060719956e-01 -7.823644212656562485e-05 -1.252996136594020961e-04 -1.088497078136744650e-01
-1.930570081852261144e-01 1.044665079296443720e-02 2.098355066302271532e-01 2.444374374007619158e-05 -1.716057113151522818e-04 -2.152344302638369011e-01
-5.271044549956863112e-02 1.671473080039954234e-02 2.102205804460741123e-01 2.866661262395145383e-04 -3.711069244133249884e-05 -2.060310654303080247e-01
6.933248311549688320e-03 -5.524776208972488958e-03 2.103603578603109314e-01 1.578882470661212951e-04 -5.123416024422835927e-04 -2.825012335476309033e-01
-6.814719631293396362e-02 -2.345348747541657619e-02 2.106479264231607140e-01 1.619416532876062490e-04 -1.022400822719772649e-03 -3.137488764499095639e-01
-1.562304662090523155e-01 -1.245701175545220474e-02 2.090381185608520265e-01 4.239791311610198715e-04 -8.214089380567022279e-04 -2.895231984231649847e-01
-1.631631645240897988e-01 -1.779834219386013799e-03 2.093195213363061580e-01 6.090606525260284360e-05 -9.744408635699506032e-04 -5.080463896504887611e-01
-1.140554916467671348e-01 1.718281083644832008e-02 2.095149806966590256e-01 -1.131217542408728302e-07 -2.606615632476145953e-04 -1.593840209563186505e-01
-2.451039361803694291e-02 3.289206245474363133e-02 2.098694563151818904e-01 7.638160617177472118e-05 -2.282633824263791448e-04 -1.381127750460396930e-01
-2.553897796544746246e-04 -9.677537679194762876e-03 2.102874566119570798e-01 1.114569945229663787e-04 -6.636942082474484115e-04 -2.255480976367501555e-01
1.525979114333235118e-02 -2.058168397138519096e-02 2.105818388856485202e-01 2.377450420562517185e-04 -5.052124606355273351e-04 -3.231314341913646970e-01
1.046253981565065452e-02 -2.929885441852031827e-02 2.094907501770291725e-01 2.041987682867865922e-04 1.760983964090299166e-03 5.698366886883673293e-02
2.683849035700172636e-02 -6.819545574517388298e-02 2.098717460350306152e-01 6.445772119025146242e-05 1.834140037998421196e-03 1.533961242528875946e-01
4.624117942647186508e-03 -7.732915231917428245e-02 2.101754436561730222e-01 9.400001694977317670e-05 1.434778630965418203e-03 1.546374182950568249e-02
-5.480807362008065231e-02 -3.331955290252613944e-02 2.104918723239287415e-01 -7.181863927547018874e-05 1.503580842909538196e-03 -9.770575433160197040e-03
-9.087707901359581841e-02 -5.962630584107483228e-02 2.107440792187437184e-01 -6.118229397958355382e-05 1.500224603941062830e-03 -8.705191462547916259e-02
-5.998530720771499958e-02 -5.828964912213083216e-02 2.097804430310096224e-01 6.753704247669456635e-05 4.584610627547139501e-03 -2.443287537743156212e-01
-1.299792021954532598e-02 -5.889624922120179074e-02 2.101102016472268241e-01 1.982112885200881412e-04 3.828847930374848583e-03 -1.656312449422605304e-01
1.088745931904555875e-01 1.995079422887955506e-02 2.102708907546845807e-01 -3.882632524933485145e-04 3.497653253059565363e-03 -3.199651420729799911e-01
8.598742582817613112e-02 2.985343936306524004e-02 2.104769922435095753e-01 -9.045840387322593953e-05 1.790722458334264872e-03 -3.899925393328231710e-02
1.183357328857880530e-01 -8.018722097548548061e-03 2.107962618610082495e-01 1.644664793268332099e-04 1.567650010491162919e-03 -1.079823554827902959e-02
8.338254672945169532e-02 3.268766043953166139e-02 2.095240846794939049e-01 -3.901149476546583034e-04 4.839459891020140431e-03 -1.080891445440856913e-01
6.741496605301224021e-02 3.354477773287650039e-02 2.098344301875743612e-01 -2.474804685651399715e-05 4.237953965874866231e-03 -6.979468469893609917e-02
7.355977745039053717e-02 2.571184400017695673e-02 2.099541268597665544e-01 1.187766921455527886e-04 3.428781636762800577e-03 6.452446998215869908e-03
9.648530668820776146e-02 9.377040799117568326e-02 2.099755006103145027e-01 -1.929762184029967277e-04 3.689276729898121557e-03 1.463446011832210125e-01
1.067831279387846527e-01 6.716169267458485526e-02 2.102216806872609922e-01 -6.902310188377066958e-06 3.251870747221179917e-03 -5.805424919530852157e-02
1.019871858927996755e-01 5.536219986227648715e-02 2.103183515396147563e-01 2.137008786964118194e-04 2.580596240391962951e-03 -2.828445094887815925e-01
1.143242218896014240e-01 5.538402457404442703e-02 2.103167848502993653e-01 -8.180868878093734220e-05 1.091932963010168456e-03 -2.114723446760523595e-01
6.143577463583724946e-02 7.493792181744229897e-02 2.104072333191598920e-01 -5.074666604139714982e-05 -3.527424039736933286e-04 -2.572557629068071283e-01
4.490538756374486129e-02 7.113515650522689304e-02 2.106788779894684938e-01 -1.148536147836759052e-04 -6.453030925323886098e-04 -3.123201003075807280e-01
-2.485200305659112513e-03 7.611428056055674629e-02 2.091128042731664194e-01 1.490435302601823776e-04 -8.462125698168320061e-04 -4.337610026227783910e-01
3.532167066498052843e-02 1.462050097544406180e-01 2.091952021910012949e-01 2.927708563076342846e-06 -2.378954549587221183e-03 -4.895962210795804515e-01
4.383723950427499683e-02 1.210262925655487820e-01 2.094273065267001077e-01 -8.276406971858135404e-05 -3.316081834777536829e-03 -4.740469279096844457e-01
5.303608883954467890e-02 -3.200670711052715917e-02 2.096931937734311524e-01 9.356736626829605466e-05 -3.855176301276763175e-03 -7.246146005597302597e-01
9.909641541702839118e-03 -2.775192855708139006e-02 2.098612221024646618e-01 4.762905504207726762e-05 -3.724723416865500548e-03 -4.970301561742335728e-01
3.098652095423872280e-02 -7.784213254431173942e-03 2.102392066307967600e-01 -3.084648180337980824e-05 -3.006664922993880582e-03 -4.580290554852994855e-01
-3.887815288952040094e-02 -5.392574091529853814e-03 2.104023099087926063e-01 1.750008008643459754e-04 -3.350800206794354776e-03 -5.268846598499585809e-01
-4.167742656443219895e-02 -2.146344766280666380e-02 2.107059022046428032e-01 1.989792477102023734e-04 -3.263658986451383696e-03 -4.200333251483449604e-01
-1.064017713874604032e-01 -6.526378197166803063e-03 2.091349619054053699e-01 1.142626680650155507e-04 -4.017155162839650302e-03 -4.641511746791244231e-01
-4.953628369616891458e-02 3.156123394357414347e-02 2.094045290930806602e-01 1.419447089169447005e-04 -3.070934345087569621e-03 -3.612637306935418402e-01
-5.340614172313108698e-02 6.312605959581875543e-03 2.098541031258980838e-01 -5.352223355017594371e-05 -3.529746397274631867e-03 -3.580363010211545793e-01
-1.807762050818448318e-02 -3.212149145956146035e-02 2.100874965856275312e-01 2.641831565558731116e-04 -2.749205785878627156e-03 -7.915762791773649221e-02
-1.690756411599276740e-02 -5.996954731947788664e-02 2.105028843231422919e-01 3.496710529713231355e-05 -2.072093449020526168e-03 -1.945724855828547262e-01
-5.902921370116587241e-02 1.403772215800383819e-02 2.107958666421508309e-01 -3.713161358522361924e-07 -2.248670714208783616e-03 -2.169536238938727934e-01
-4.508570646011107047e-02 -5.975304015737967905e-02 2.090841196536968316e-01 1.330593505164749365e-04 -3.008480611557477410e-03 -7.428646723186999035e-02
-1.183558186043980921e-02 -9.978781973753708678e-02 2.094506885242549687e-01 -3.980641557237494835e-06 -3.211208642205415700e-03 -1.019468316044955768e-02
1.577092995141747209e-02 -8.972590083800240091e-02 2.096452188850043141e-01 -4.275452757789612859e-04 -2.417694744867229274e-03 -6.935916205316845773e-02
7.645259175564850240e-02 -7.874860095852612152e-02 2.110511095381747415e-01 2.806683604471361449e-04 -1.141418632840885761e-03 -1.428178385629973457e-01
2.929273183126009442e-02 -1.060104260010035077e-01 2.093058696920662709e-01 -3.175996334598682252e-04 -2.132294077042454737e-03 4.448951927306493692e-02
5.840030429820863150e-02 -4.487467421948593271e-02 2.096519174126395546e-01 3.611243759590559949e-05 -1.335730897343732773e-03 -8.590949768209768522e-02
4.949491829978301671e-02 -7.887365604854412737e-02 2.099968987197954329e-01 5.795795867461278009e-04 -6.048193089572508801e-04 5.930200827476841963e-02
7.881274850739054816e-02 -2.537255028615663377e-02 2.092088606627633962e-01 -5.373300109310792097e-04 2.407413492172491576e-05 1.380589609014561403e-01
1.032245802584442484e-01 2.788329207392320139e-02 2.096389948529763236e-01 -5.852094565850145209e-05 -5.316702085520777716e-04 -1.776446356848122854e-01
6.191971416700528530e-02 7.913205824208260908e-02 2.100052736713672319e-01 -5.290209925872779956e-05 -7.323094313426878029e-04 -1.941081110396797871e-01
9.700340090074358046e-02 9.642817816133271436e-02 2.103221714710513668e-01 1.953792276487096712e-04 -6.583817968205604720e-04 -1.461045917118041770e-01
4.663780431069754900e-02 8.208445160907967830e-02 2.107172256557083845e-01 3.848646757694539381e-05 -8.642419077830424973e-04 -3.523740295858286964e-01
-4.593097133618969513e-02 7.205808649023534573e-02 2.093464147035709599e-01 -8.848228797459183189e-04 -1.349127617557731827e-03 -2.586630627920830650e-01
2.974262804113836367e-02 3.511350124611872098e-02 2.093468194909088309e-01 4.253083672058040679e-04 -9.953339431990463379e-05 -1.070166649592852459e-01
9.198408582800651767e-02 1.277242756778817698e-02 2.098349326617661159e-01 3.464902778955332701e-04 -1.314102239250597730e-04 -1.814373358979719519e-01
1.153411751032382138e-01 1.262384604786163933e-03 2.101527623225044605e-01 9.691169432500896716e-05 4.193285025920408552e-04 -1.297918599879956392e-01
1.298094383895609938e-01 2.733362195780907750e-02 2.103817276329068564e-01 4.727917020552075313e-06 7.594883361266873594e-04 -1.330357499587598580e-01
1.081481950923956908e-01 1.352209721468065548e-02 2.108528901276960354e-01 1.489419765195208335e-05 1.130709833115019821e-03 -1.242467596491791393e-01
1.325679421684348713e-01 3.793381291078216921e-02 2.090271356446840589e-01 -4.881580359449594494e-04 3.520247983120836695e-03 9.555857176854011537e-03
1.270389785842652997e-01 2.751491465927260321e-02 2.093947468082373864e-01 -1.510428312758537025e-04 2.741231198312651246e-03 -2.945222999582209900e-01
1.559125139884215694e-01 1.593377885426832535e-04 2.096998574170375051e-01 -1.125701990407034219e-04 4.132900641571002169e-03 -2.693060627950842334e-01
1.239902991875943411e-01 -3.924027604902372013e-02 2.099864481349204559e-01 1.621348814177138775e-05 3.063050179337678276e-03 -1.914702660910579113e-01
7.170845386547518296e-02 -8.748511260080847618e-02 2.100322601013352997e-01 -8.574226357742688613e-05 3.362314194012037700e-03 -1.315341248374303773e-01
1.663856326476224889e-01 -1.496474412473280391e-01 2.101226952884960864e-01 2.464562018920801885e-04 3.891479955592185881e-03 -9.113448778342742029e-02
1.870693395296834649e-01 -2.026637178343884405e-01 2.102386505928304783e-01 2.963136523765151479e-04 3.249287580600637888e-03 9.652895932218674702e-02
1.640112940206414904e-01 -1.511048418597979726e-01 2.104194831402464994e-01 -1.566118810009130594e-04 2.180007226178866733e-03 -3.755277422912851049e-01
1.171062806560331931e-01 -1.110476631732128794e-01 2.105005042401692505e-01 1.801416138712138529e-04 2.101798387074443018e-03 -2.499207369537151113e-01
6.279217588989882692e-02 -7.237211735787812961e-02 2.103843089412569256e-01 -4.316773267295874304e-05 1.444309569106295250e-03 -3.471542049464181323e-01
6.845652996806093210e-03 -3.595981789573449855e-02 2.106227975338123004e-01 1.527398420254477826e-04 1.034252866060113209e-03 -4.065215061644847361e-01
-1.962391188283167665e-02 -7.244852293473377780e-02 2.108678465269864244e-01 1.113026455716505119e-04 5.032281743387308302e-04 -6.539484005629578878e-01
-3.687508419799354065e-02 -4.530626102385663240e-02 2.096338323053084651e-01 7.523350447554237044e-05 6.117707321416370955e-03 -4.928719308740455718e-01
2.961925554356609550e-02 -1.446739900381582671e-02 2.097860078461767919e-01 3.788679576221745032e-07 4.173902107089235217e-03 -5.589525833467319238e-01
7.680139105111215281e-02 -5.553851133237839438e-03 2.099844610170954473e-01 3.256934682821247201e-04 3.658563964807055088e-03 -6.044036251970943407e-01
1.329941852895493437e-01 2.153216435680625762e-02 2.100929906822257554e-01 -4.814379279067393250e-05 2.378483997408531447e-03 -7.613807069737674738e-01
8.736915550905990924e-02 3.329672913855518529e-02 2.101872652488474547e-01 -1.201442262997155731e-04 1.314844714574381996e-03 -8.682084824084882468e-01
1.114941175296930292e-01 7.673916062293251183e-02 2.103498231312312394e-01 2.523052787160229556e-05 4.007975063109823349e-04 -6.476681941345904248e-01
8.576309445907880080e-02 8.262518675137825452e-02 2.105631139963499154e-01 -1.802775682706463415e-04 -4.760247016960404871e-04 -7.162933724249077594e-01
5.849813393800102485e-02 8.869998116167918112e-02 2.094722443313445925e-01 5.028583898633881165e-04 4.326181984732872625e-03 -3.612509246618632597e-01
1.564972072699180941e-02 6.845385461234057556e-02 2.095575995465360775e-01 1.337625475660159102e-04 2.899458144424474273e-03 -5.738233835517060344e-01
-2.973176914085570027e-02 1.118377743916413106e-03 2.097416812394208852e-01 8.737425877902414649e-06 2.397295688088574642e-03 -5.377197999267502304e-01
5.442263287688365453e-02 6.181553593116695389e-02 2.099135401184676897e-01 -4.532532920577256384e-05 2.075128307005153806e-03 -3.718605568577529885e-01
8.045132215003959059e-03 1.902627912084980943e-02 2.102493376104057621e-01 3.719022382171694244e-04 2.184944194051800532e-03 -6.032656165788321534e-01
9.652076192711803865e-03 1.991576067265814556e-02 2.103168417222275877e-01 -8.724175141880329237e-05 2.544177741674454388e-03 -5.459218466491585486e-01
-8.413874959107940643e-04 5.479571152599184425e-02 2.105751066894619439e-01 -8.359573230024162015e-05 2.398245739488465925e-03 -4.219224480111064546e-01
2.498374189140041557e-03 6.206164443503824762e-02 2.108566711944703242e-01 1.865800148569105076e-04 2.373862801749094652e-03 -3.544492312850776039e-01
-5.928406644039344031e-02 6.830023107972173213e-02 2.091337760220992603e-01 8.072694125448189430e-05 3.240568726207596322e-03 -2.515326490639083201e-01
-1.009305851010207922e-01 3.876477899523639997e-02 2.093584727658766576e-01 -7.262542887009850910e-05 1.730268919236035248e-03 -3.668584658063419601e-01
-1.793701858070039235e-01 5.286961568167972830e-02 2.094929218323731135e-01 -1.897044912612797418e-04 5.931021374573233838e-04 -4.376638997278861076e-01
-1.290980011554581919e-01 -5.077342657773513401e-02 2.095713828270223678e-01 7.315579383472048175e-04 1.516267140510235137e-03 -5.849032852556653728e-01
-7.879484385467570851e-02 -7.240132746352215265e-02 2.096788097256709338e-01 5.344180743729433965e-04 1.410422729974026039e-03 -5.610919299320967779e-01
-9.623148814056686762e-02 -4.740224048031328047e-02 2.099687334755795387e-01 -3.113248632181621144e-05 2.919209391284283541e-05 -4.393203056342723234e-01
-6.878104891235309326e-02 -1.241701213425764755e-01 2.102015092417895414e-01 5.089363951545128242e-04 -5.505303877268565103e-04 -3.710028935317606913e-01
-5.353240140627045507e-02 -9.658787087318729259e-02 2.101830517909404339e-01 -4.029362807843369222e-04 -1.223114519570791094e-03 -3.163243006742945118e-01
-1.233795804364601623e-01 -8.690393117397304801e-02 2.105810913283451269e-01 2.453443754015505987e-04 -1.897249109999682697e-03 -4.682337039568207349e-01
-1.300622113264341961e-01 -8.467686745348855515e-02 2.095377983658467946e-01 -2.335478103014596707e-05 -1.876200729376375012e-03 -5.686832793083320681e-01
-1.057405189464844519e-01 -4.193319037192191900e-02 2.096248808440636657e-01 6.687137555728748888e-05 -1.322877532545483703e-03 -5.219726650862607231e-01
-8.933235259895649927e-02 -2.125746177615716465e-02 2.099250347895142421e-01 1.728282193996698247e-04 -1.722232017794469430e-03 -4.978988441526050468e-01
-8.091766281077904244e-02 2.612516441652175392e-02 2.102916964234762265e-01 -1.234688085096876655e-03 -1.592163010740346501e-03 -1.549141622931465567e-01
-2.219991058391290045e-02 9.501310126762584074e-02 2.103437266882530743e-01 -2.703203566392200553e-04 -1.498529109763463473e-03 -3.997467879207923791e-01
-3.890239237291374247e-03 4.178992107647797744e-02 2.095316688108595504e-01 -1.699875166745613950e-04 -1.868537990437243263e-03 -3.464832753757924877e-01
5.214502253494818218e-02 9.300155278759771049e-02 2.098400085646711100e-01 1.814064735372433572e-04 -1.926689240881138479e-03 -3.518850645268621902e-01
9.754143010172067196e-02 1.322895314372679598e-01 2.101563218391215848e-01 2.128034302428408815e-04 -1.198158314376819664e-03 -4.223250792422184041e-01
1.097789510491666565e-01 3.566076654537779500e-02 2.093862259752446997e-01 1.667038934844759356e-03 -1.268306958969556402e-03 -4.815108681200148677e-01
4.264717411094791355e-02 4.573511235522777912e-02 2.095821156539982577e-01 -1.483611114146979814e-04 -1.056434500996791988e-03 -6.996384364695601432e-01
-5.874105075661530118e-03 -6.130579371025927232e-02 2.099371316387384501e-01 2.108079439312071266e-04 -9.766760134749317805e-04 -3.187346605771504970e-01
5.951727876742962664e-02 -4.476242182921133517e-02 2.100866708380073056e-01 1.048376025010367996e-04 -6.000991760095607556e-04 -1.766364849166300877e-01
3.428972405451681527e-02 -1.345854483064245523e-02 2.104374882827833582e-01 2.258863862514568833e-04 -1.242537497955973269e-03 -3.105926982379337287e-01
1.692528635252652652e-02 -2.403920323903480441e-02 2.094198542850169709e-01 -9.040105644823713408e-05 -1.794090474358301149e-04 -3.326956444924792367e-01
5.450911632438480703e-02 4.548496302126781021e-02 2.096269464846605701e-01 -2.696529642808051064e-04 4.584264845080315734e-05 -6.003168735396635647e-01
1.071595543933983180e-01 2.890404137464864381e-02 2.098171702357480295e-01 4.849472333732633179e-04 -2.011365281556320018e-04 -3.963561432711414367e-01
2.059905438336368660e-02 4.033701322454873867e-02 2.102468073544782046e-01 -2.342172300192208443e-04 -2.297081062034570702e-04 -3.345856147241840772e-01
1.049915286970884987e-01 2.423019285256470395e-02 2.102854919130666689e-01 1.646854307639181061e-04 5.542266363934580074e-04 -3.856005050716109772e-01
9.387469159915497185e-02 -7.019960597277365155e-04 2.096064818667345842e-01 9.228230977889094271e-05 9.625860470884195106e-04 -4.499297585487079254e-01
1.520789367765713884e-01 -2.239876062252882383e-02 2.108600159895211990e-01 1.175289056716039460e-04 6.745700992288217613e-04 -5.243555119968318357e-01
1.028190641053095267e-01 1.095690161398684415e-01 2.091063446305787554e-01 -5.624774308148961562e-04 2.152957798544240763e-03 -5.828033985569200937e-01
9.668573883092645982e-02 1.512349900012188997e-01 2.093267253290527208e-01 -2.186069347711294122e-04 1.810296114346636410e-03 -3.899209946914382607e-01
1.300764876660243097e-01 1.294828030799121676e-01 2.096397218559314934e-01 3.679437149059988990e-04 9.924079399718367493e-04 -4.505990160747632145e-01
1.569179167185622004e-01 1.082631984563586225e-01 2.099906861610181252e-01 -1.110285510377658267e-04 6.918880587939877855e-04 -2.934312442676176302e-01
2.330624423649625132e-01 1.073874819367010985e-01 2.102215830120165996e-01 2.724960739600176905e-04 -1.717512350794121701e-04 -2.741522412783319318e-01
1.133858485934193527e-01 1.040971184857153592e-01 2.105033087464095454e-01 -3.962566924935574333e-05 -8.484670137300462812e-04 -5.143058791930390505e-01
8.641011611072969834e-02 7.893789117442882863e-02 2.091706911633937072e-01 2.487051159751999278e-04 5.016388157579688761e-05 -5.471696318785235214e-01
1.692174233826188312e-01 1.949527602334706622e-02 2.093138992671443877e-01 6.341427146989358577e-04 -4.741329264783648856e-04 -5.637101922253887620e-01
1.837130691532023186e-01 -6.357737022425744011e-03 2.098285063140115647e-01 8.466112232575626268e-05 -5.670380414494624209e-04 -7.224645595160407163e-01
1.812159839442982479e-01 -1.142497313868027359e-02 2.100424964374928427e-01 4.670159420108662167e-05 -8.297281935841364139e-04 -4.304431948772731720e-01
1.255554678991053497e-01 4.957572073782150202e-02 2.101338197870311064e-01 -8.193480214090184276e-05 -7.499490301362589113e-04 -3.254805394732906421e-01
8.693091735897101602e-02 1.073381953356408215e-02 2.104757392103474567e-01 1.670259437110237222e-04 3.026464241415901244e-04 -4.885486034364326380e-01
7.594082719557962435e-02 6.453556708800914712e-03 2.092170300106009906e-01 7.713408103972591164e-05 1.109841277277526570e-04 -3.228805139504944410e-01
6.736084092419225566e-02 5.036032293709159086e-02 2.093335268754496492e-01 -4.122289123941373044e-05 4.381398379153770444e-04 -4.301591435277046793e-01
-2.034067123606444691e-02 5.198643467816233682e-02 2.096676026053611586e-01 3.749633694063321917e-05 2.424738063358058179e-04 -3.435814273417980846e-01
-7.251798540059049836e-03 7.797653806278564970e-02 2.098038141665721223e-01 -1.359650714123625754e-05 9.150926938865428959e-04 -4.406859676660866421e-01
-5.619425403305663980e-02 -1.676432339757085929e-02 2.099813479815472728e-01 1.932382617814551104e-04 6.924469191687304855e-04 -4.017728707215942330e-01
-1.137597295996232438e-01 2.163197616473162138e-02 2.100185268812999606e-01 -2.965525731852823688e-05 1.617615142601002386e-03 -2.454652637677107729e-01
2.356059784592639053e-02 -1.886238827064392470e-02 2.101128392528653355e-01 2.795328657724412396e-04 2.322569275094515766e-03 -3.042850984149244042e-01
3.350417454139912460e-02 -5.204784872232854492e-02 2.100832327522686449e-01 1.024216997788209769e-04 1.997395197596930471e-03 -2.946576211494540964e-01
-3.629475101594344111e-04 -7.687526996458765582e-02 2.100657278706906106e-01 -1.558236419050691669e-04 2.256967599241448911e-03 -3.022900063356711020e-01
4.347330889054250302e-03 -4.668071703114246018e-02 2.095640961430929594e-01 5.514437262765682494e-05 1.355365521472498081e-03 -2.661864120248524368e-01
6.215648472119722490e-02 -2.951239906930896301e-02 2.102534799405088028e-01 6.213191819722782344e-05 2.340131903929515509e-03 -3.841113658791565633e-01
1.605547807940860619e-02 1.599506898706935104e-02 2.098232035230765957e-01 -6.441421624306305780e-05 1.929347777218942944e-03 -5.645997957441200032e-01
-2.313591904165846272e-02 -2.308774290440817473e-02 2.093440187333976965e-01 -4.526044502990821258e-05 7.705653434876301227e-04 -3.347711111121044469e-01
6.958423973660657347e-03 -2.532629514572749818e-02 2.100329095480116259e-01 -1.683637513284957162e-04 2.225583684837550546e-03 -3.757248599847953230e-01
3.577647008538460682e-02 -5.277846788708450559e-02 2.096307370839319839e-01 1.918466546113924555e-04 1.483149124562898203e-03 -3.234693627981167219e-01
2.195980576136968149e-03 -6.642786771537721735e-02 2.101569837057293832e-01 1.393304848048035436e-04 2.636092959330572916e-03 -4.993111129387581282e-01
-6.404063525957970349e-02 -8.169504550042949731e-02 2.094429709423966668e-01 3.043374544946653696e-05 1.123909226796653699e-03 -4.528979449512345878e-01
-2.516976025077864026e-02 -9.726225722247071326e-02 2.097946757070919266e-01 1.761330016707622520e-05 1.987655875054760487e-03 -3.945875205247540429e-01
-4.907509667510387419e-02 -1.104980897320375077e-01 2.102756407582144771e-01 9.170832160367406764e-05 2.637386158733264624e-03 -3.454487139062111245e-01
-6.128212845561080424e-02 -1.166401505084306706e-01 2.094386694071306843e-01 -9.380820411735609475e-05 1.031430603565752996e-03 -3.110733785281386554e-01
3.709931638236643736e-03 -1.296581040645573002e-01 2.097286520361348328e-01 3.320277895004695957e-04 1.921466752881848808e-03 -3.025635885493329069e-01
-3.395704950460201599e-02 -1.267127570833220807e-01 2.098840340628657652e-01 8.314975734287035529e-05 2.056974129267309138e-03 -3.696890484055554427e-01
-8.193436073279376786e-02 -1.782045714337116282e-01 2.100464929943393066e-01 1.722943389880591001e-05 2.182191689316681851e-03 -3.463102107661565898e-01
-7.012519663582941765e-02 -1.236269264071144514e-01 2.102814311842933770e-01 -3.496012468903174917e-04 2.721299990106989392e-03 -3.385321678382805510e-01
-8.699810255540268988e-02 -1.718399710229814581e-01 2.103529721908340422e-01 2.851219110256841957e-04 2.985920198039929488e-03 -4.052932771650105126e-01
-7.388569309035482313e-02 -1.259319087470516518e-01 2.104083237879432189e-01 -4.914578787106581043e-04 3.027605381864612033e-03 -4.004288465967826838e-01
-7.473148037377543018e-02 -1.029586704703951694e-01 2.092727541153153736e-01 -2.857496045247081965e-04 2.850273299864930802e-04 -3.146475199668365419e-01
-4.969767037159655843e-02 -5.954948763454300659e-02 2.093269509473120182e-01 -5.013791300799731992e-04 8.499204619372190475e-05 -3.284841610510660370e-01
-4.400040535812539677e-02 -5.295449410265900408e-02 2.093264606027755992e-01 -2.478966071724001937e-04 9.345879773912010836e-05 -2.926124191397408425e-01
-2.579993743875441323e-02 -5.650942857953662052e-02 2.093474168033208072e-01 -1.818560156671521070e-04 1.583544895764654227e-04 -2.134225122263168906e-01
-1.411552861569723150e-02 -7.850028140968226542e-02 2.093464468698906233e-01 8.340242671775904045e-05 3.640362675917024676e-04 -1.576061061182831291e-01
-3.534838109673069106e-02 -6.606895413729624300e-02 2.093317121933888636e-01 -4.608904803443124217e-05 1.816993962550686708e-04 -1.585474085906786457e-01
-5.984441036304356809e-02 -9.980198993231026439e-02 2.093558743660787758e-01 5.117311086988022076e-04 4.825816209140603948e-04 -1.869175183248681094e-01
-7.865250277012483804e-02 -7.601026630236100423e-02 2.093390422771178039e-01 -1.061766958237921071e-04 1.668421665686303616e-04 -2.393512058992514346e-01
-4.975785375711100356e-02 -5.630697443276197478e-02 2.093399312702796111e-01 -1.286143187838456061e-04 4.494881558213601586e-04 -1.979316441550801886e-01
-4.544784611695228127e-02 -8.275270233127549058e-02 2.093329108141531725e-01 1.367079444357833129e-04 4.117028697128399502e-04 -1.710502713597918667e-01
-8.511583094702387942e-03 -8.641589008143726880e-02 2.093222492109621524e-01 -5.994571125801965387e-05 6.015550443673255376e-05 -1.834825969730276007e-01
-4.315035953292602200e-02 -6.664096240261942194e-02 2.093443744565816611e-01 3.671490847791408654e-05 3.288464697008468361e-04 -2.018810732406906561e-01
-6.177360331483136568e-02 -6.632920194735185404e-02 2.093374856365451397e-01 1.123376183086767114e-04 3.342816224543335396e-04 -2.153243140527313360e-01
-7.191874131853819019e-02 -7.238568992436067440e-02 2.092850734972733773e-01 1.183799761468924292e-04 2.748518646936295800e-04 -2.023723533833950150e-01
-5.249283487995123204e-02 -7.657067748317025746e-02 2.093077270259976475e-01 4.465744794667123426e-05 3.264254831398606172e-04 -2.707495295999186036e-01
-3.308067693338824500e-02 -7.316298090033865331e-02 2.092902893811263709e-01 -3.225045106772220140e-04 -6.804777237069220509e-05 -2.572188341433245817e-01
-2.924913494186056132e-02 -8.546110185852150154e-02 2.093340611061543788e-01 5.916753853945945089e-05 2.706662444296401840e-04 -2.359904397845184465e-01
-4.755716982264265869e-02 -9.509965375196109683e-02 2.093034576932337187e-01 3.159096987215211940e-04 4.962981325618747233e-04 -2.171016496261437556e-01
-3.615546693322387040e-02 -1.102077713857196606e-01 2.093297936905791357e-01 6.059179018888101274e-05 2.019560126023412785e-04 -1.833027272628484083e-01
-6.297281289944972604e-02 -8.068635374121607695e-02 2.092914515555501787e-01 -3.399748329217557312e-05 2.909135781015408247e-04 -2.148392701997201004e-01
-3.919071199245176274e-02 -9.995592671739100821e-02 2.093278535128219042e-01 1.369074426689826827e-04 4.350413474570461510e-04 -1.634124847746050990e-01
-5.566481063699073306e-02 -9.473871236973580023e-02 2.093197355940298876e-01 6.578000680605464536e-05 4.073323610598673841e-04 -1.217999842931475063e-01
-4.599309845616655901e-02 -9.172209825156660279e-02 2.093130675336568602e-01 1.497927118640668442e-04 4.762260447335212531e-04 -1.857275425940508318e-01
-4.459118828175054339e-02 -1.103340310850678407e-01 2.093148953600277862e-01 2.686069844155668674e-04 4.947771870290077964e-04 -2.449919568251234803e-01
-2.757379364822555926e-02 -9.079173316527294757e-02 2.093006089963658778e-01 -2.339623001269992830e-04 2.832220165942877588e-04 -1.793417182841701707e-01
-2.232610106895172725e-02 -1.024229476149009777e-01 2.092836700410403705e-01 -1.447721771543203091e-05 2.281837111983460854e-04 -1.873069453398878703e-01
-3.577771880526388337e-02 -1.091864527932153023e-01 2.093040921904918972e-01 9.334314548302633245e-05 2.642565140589103875e-04 -1.567966646232023809e-01
-5.337934826298958157e-02 -6.266935850571728195e-02 2.092895888702012708e-01 -2.297572723515001875e-04 2.034949096320057868e-04 -2.488123892081454680e-01
-3.150003633620197807e-02 -5.567981750039787542e-02 2.093080730592196681e-01 3.095700792627663459e-05 5.472864146526956611e-04 -2.534574514701893877e-01
-4.965643328281177382e-02 -6.964720740024656076e-02 2.093213690095942492e-01 5.600277464749959893e-05 -1.671179259150250033e-05 -2.700415271034931064e-01
-2.959144599027338160e-02 -7.598928893248037275e-02 2.093249265735352971e-01 1.462247447625868895e-04 5.006497738988660356e-04 -3.034634252199723270e-01
-4.256376074964246525e-02 -5.712914412874497971e-02 2.093426290742581575e-01 -2.496791813462469309e-04 -7.216873219152972793e-05 -2.235938450756419782e-01
-3.565081039504734012e-02 -5.963037845339302923e-02 2.093215875227562583e-01 -6.645499495152782082e-05 2.408107290541004221e-04 -2.114139552045316006e-01
-6.965688203486161689e-02 -8.522202281832542969e-02 2.093312715545385672e-01 6.935260756433827254e-05 -1.034215364802251948e-05 -2.720129421869215691e-01
-7.082899477189510962e-02 -9.422271253018005277e-02 2.093332821382675735e-01 1.355539643032164956e-05 2.123950265411620245e-04 -2.179001381082122935e-01
-7.432935240001045663e-02 -7.180464563420960178e-02 2.093405307663727677e-01 -8.068260086583747067e-05 4.836290649045207370e-04 -2.375671307202863181e-01
-6.368845662234998151e-02 -8.200136928834499128e-02 2.093204193833034799e-01 -3.809306988665661804e-05 9.795518776658273846e-05 -1.823551260814029740e-01
-4.634006480938081263e-02 -8.762443451401109862e-02 2.093311450043778832e-01 3.065434919372702933e-05 3.771097842203410475e-04 -1.984505910398152162e-01
-4.677801179929109987e-02 -7.565159961768548602e-02 2.093120990445109242e-01 -2.783056121152176974e-05 3.771740782983769823e-04 -2.076525787775597987e-01
-4.405189809798586847e-02 -7.692618125763231451e-02 2.093450110977744250e-01 1.490914662388461006e-04 3.111398707077131683e-04 -1.970916845765826597e-01
-3.977954189495716553e-03 -9.453216758363393313e-02 2.093211549196697940e-01 -8.628826382666257124e-06 4.211114643424096840e-04 -1.728250396277608292e-01
-1.508777967607784209e-02 -8.858851725393053489e-02 2.093361997355010495e-01 1.588087426163165862e-04 5.476618565467024488e-04 -2.015883734505867497e-01
-2.684779091821123606e-02 -5.564911510789991023e-02 2.093622165129179757e-01 -2.163842338077575451e-04 3.450970437420289262e-04 -1.880572133425569281e-01
-4.202038412591014432e-02 -6.343858870256779969e-02 2.093527644518589637e-01 -1.374524801392474538e-05 1.452813829127896721e-04 -2.545295007402741394e-01
-2.744607766839276403e-02 -6.634638523226328577e-02 2.093307558282397896e-01 1.894191385694967756e-04 5.953011244070749311e-04 -2.146720307214414480e-01
-1.609021053030396803e-02 -3.564230826637489191e-02 2.093484481776502482e-01 -4.787360185384370668e-04 -2.136335838934332027e-05 -1.838226323670092976e-01
-1.268784398533275536e-02 -2.672946189970992759e-02 2.093612959500459891e-01 8.418609351514205134e-05 1.786620950511493835e-04 -2.285778338741003557e-01
-5.027879932052465445e-03 -4.683359015275297133e-02 2.093522742068683606e-01 -1.240850090130614716e-04 1.792547849677411187e-04 -1.829287998046102426e-01
-3.281459116817765642e-02 -4.185257339433346574e-02 2.093659260340610118e-01 3.881982296284750879e-05 2.196990402335711795e-04 -1.844698879364930766e-01
-2.909909748803632054e-02 -3.193966741223207284e-02 2.093435918783119187e-01 -1.389502779567946687e-04 1.408499438345388918e-04 -2.358152275798087172e-01
-3.229790894491085806e-02 -6.113830915199683358e-02 2.093532743666887130e-01 3.157673166742885180e-04 4.716909662378889942e-04 -2.022023076149720155e-01
-3.289782303313283640e-02 -6.448982515807756555e-02 2.093274944741055910e-01 2.264275908658340612e-06 4.084630548618468590e-04 -2.275338915991135802e-01
-1.046436388734010500e-02 -6.314660133513029516e-02 2.093467980748996426e-01 1.135132203111152802e-04 2.872314096988323024e-04 -2.540190126496821854e-01
-1.976834306524823809e-02 -7.939413023863625685e-02 2.093390943394943804e-01 3.910158660376236093e-05 3.819261912751345544e-04 -1.146004022528987615e-01
-1.128215348935496416e-02 -3.257268056006686757e-02 2.093307432292411674e-01 -3.788409362302937286e-04 -6.661726835550555465e-06 -2.894237010066299520e-01
-2.496770111226257263e-02 -3.286755325750193024e-02 2.093377291067176627e-01 -2.510214132989534727e-04 1.263326025403775058e-04 -2.561462778420289244e-01
-4.861333731295368332e-02 -5.591863886021554431e-02 2.093466365457101741e-01 1.792125251791666120e-04 3.060027582829335569e-04 -1.883104309634138218e-01
-5.744386968586098763e-02 -4.641451049972997178e-02 2.093566138187751280e-01 -3.215111687077706459e-05 2.408709681138951916e-04 -1.547589771843007889e-01
-4.183660696891770142e-02 -5.671689396133820782e-02 2.093788649271645097e-01 1.044891949286919032e-04 2.987784598578926282e-04 -2.043374825379046245e-01
-2.657777100521927643e-02 -5.671385042565110779e-02 2.093452033127654044e-01 -2.387469963927048560e-04 1.994287641052615691e-04 -2.033094702328454018e-01
-3.008248873228330442e-02 -5.095828284582396006e-02 2.094182146035062364e-01 -6.124402259985567399e-05 5.801666229892858250e-04 -2.234390773514021988e-01
-3.761155403442999201e-02 -3.219786109840281491e-02 2.095159670635185489e-01 2.323917181755994529e-04 7.564557260346336251e-04 -2.257643447986850960e-01
-3.934046658330743462e-02 -1.620432152139823778e-02 2.097011224593998135e-01 6.207703681674344267e-05 8.036865569191542014e-04 -2.913593546025614045e-01
-2.533221015086173020e-02 -4.229014313536186287e-02 2.099981255268411617e-01 2.711733930829604827e-04 1.489726617829046848e-03 -2.520225149106177787e-01
-7.632818456936422274e-03 -3.552565724762429822e-02 2.103368769751438050e-01 -1.851508329048707525e-04 2.478874667773855144e-03 -2.341404580684818548e-01
1.667970080350578144e-03 -3.533356543795155430e-02 2.097783723025871128e-01 2.668111358527759118e-05 -6.463709781285310310e-04 -2.692025294415424375e-01
2.985057420020943014e-02 -6.614382975330689030e-02 2.104792278176675913e-01 4.779803237797492421e-04 4.428460020076693078e-04 -2.871223015580642302e-01
-6.816081343780708290e-02 -8.259748294242814926e-02 2.098705157363542906e-01 -1.081629987229686520e-06 -5.585876522468602272e-03 -3.022262349709079476e-01
-3.738901541516405358e-02 -7.218086417542743383e-02 2.106374018254584257e-01 -4.200776735290018683e-04 -3.423700710475090225e-03 -1.953322011033780392e-01
-6.389215827246717827e-02 -1.039742620478407709e-01 2.103969097714660785e-01 -4.595582747372260182e-04 -8.098537987217355877e-03 -1.218969968990002012e-01
-4.269413563238216858e-02 -4.408936740946942101e-02 2.100796324780068725e-01 -1.048319225036313182e-03 -1.007061214485120877e-02 -2.293207502588278657e-01
5.116461238620261670e-03 -1.193587278895381736e-02 2.112321984554105248e-01 -2.975960132706261495e-04 -4.680569745387250062e-03 -1.473795355858409650e-01
-4.426930074666138304e-02 -2.466316018370594276e-02 2.109736043927635252e-01 -2.722867754171393539e-04 -5.719364786569897975e-03 -1.604446060300252497e-01
-3.584903206039090351e-02 3.178143883378442905e-03 2.110564294032930555e-01 -1.326720184132430098e-04 -3.814802525078448119e-03 -1.688401970373084315e-01
-9.031896324210113292e-02 1.389879129973441672e-02 2.109925583303753349e-01 1.479239813691319541e-04 -1.494504601780148514e-03 -2.517867702666984342e-01
-9.152405591513548822e-02 7.580505824657045311e-02 2.109759777668275271e-01 -3.019033521960512532e-04 5.370523216184424839e-04 -1.915853772709656677e-01
-1.632730800554501038e-01 1.411160301605519085e-01 2.097880096491495094e-01 -1.959952329921741071e-04 -3.731581013955414389e-03 -2.377665262432795135e-01
-1.841653788350375021e-01 5.833653160191550752e-02 2.098671946876896066e-01 2.667974936690077322e-04 -1.311268060678005137e-03 -1.169592173130709345e-01
-1.829865860166732805e-01 5.491165163802148863e-02 2.096697900206528908e-01 -1.048625527766149004e-04 3.742582366244334604e-04 -1.139092522607389607e-01
-1.701171223674244060e-01 1.304412164794837570e-01 2.096183111003444566e-01 -1.139682294194822491e-04 1.857977735866553478e-03 -1.994217533822374155e-01
-1.257728440911840551e-01 1.161702944862162828e-01 2.096925764441621154e-01 7.062626699561981114e-05 2.301613945001279582e-03 -9.403678609516417930e-02
-1.385014441583656553e-01 1.126069425600344232e-01 2.096551187592936571e-01 -6.746135385747937987e-05 2.221173222449881329e-03 -1.660741269121027708e-01
-1.269298001263206299e-01 1.452003726205041145e-01 2.096520829534676555e-01 -1.126927624059432934e-04 1.503011266153239699e-03 -3.064251135591807285e-01
-9.700920113188897520e-02 1.319405027378069695e-01 2.097910760141181719e-01 1.058952327077834104e-04 2.425489781561111693e-03 -2.890380964698554545e-01
-8.122243949753099601e-02 1.021573836515513867e-01 2.099249383577486139e-01 3.478971918981613762e-04 2.743492847743821909e-03 -2.653656583433525173e-01
-9.156664876404987941e-02 3.342173782402421689e-02 2.101800309645614484e-01 6.400397365778899518e-04 2.616518617579226876e-03 -2.566120227742473836e-01
-6.284924812895104074e-02 2.729068255836906640e-03 2.102752950075877370e-01 7.675031062837275062e-05 2.409950573408359970e-03 -1.344555220033439857e-01
-1.021641402394764392e-01 -2.592178736114634716e-02 2.104734302470359641e-01 -1.182808411217350904e-05 2.337831793569780485e-03 -2.019440941991185179e-01
-4.592148914792695824e-02 -7.300424131624017043e-02 2.106369337279980214e-01 -6.349973246828233980e-05 2.419043977416475942e-03 -2.346505171294938352e-01
-1.363930350481313836e-01 -1.081798628848004151e-01 2.092140684080404101e-01 2.066938796579992279e-04 1.307520989604430252e-03 -2.590952458544802939e-01
-1.684042376724206591e-01 -6.056319061777289126e-02 2.093946119024481245e-01 -2.634579076858475813e-04 1.413446982046098364e-03 -1.130333566876824125e-01
-1.390588259058565257e-01 4.797867844485190214e-02 2.097419303703396687e-01 -2.053312524003758849e-04 9.957912283658863078e-04 -2.301099696705839054e-02
-1.776603395548375930e-01 -1.112399566870965126e-02 2.100649263741887207e-01 -6.734779196863152119e-05 9.345317702218746162e-04 -8.685054689024782060e-02
-1.668815534208885898e-01 -1.961385641483558845e-02 2.104044604305191912e-01 1.646676579803542167e-04 9.952634427610428103e-04 -2.626593016377022985e-02
-1.158412038400803701e-01 -9.807749319863135265e-03 2.105558301722011971e-01 -1.182026607601087555e-04 1.116023721233913579e-03 -1.369218917285643794e-02
-1.482888629888594323e-01 -3.076889049490025285e-02 2.094328154353800042e-01 3.420847382709527669e-04 9.192918828594003099e-04 1.670827735090843827e-02
-1.274168778374600020e-01 1.491502510311551802e-02 2.095141138059913866e-01 -2.015792145378196679e-05 1.309115940736530577e-03 -1.419406332125809633e-01
-7.598410430068539001e-02 1.243448796723814129e-02 2.097325612480848145e-01 3.947447522249961191e-05 1.650121372203765258e-03 -1.575928249221732469e-01
-8.473202483563663234e-02 4.280095089709193279e-02 2.100019925519934771e-01 -2.785254983439193065e-04 8.278517445772539101e-04 -1.919444120976811219e-01
-1.222858502669082609e-01 -1.264991819181229653e-02 2.102283085382258276e-01 4.710070166768365866e-05 6.722683511305206638e-04 -1.693988473969459119e-01
-1.023397127122826211e-01 -2.456798731719437093e-02 2.103739537566675089e-01 -3.300035304899677545e-04 6.942276758023115243e-04 -2.491313541989755298e-01
-7.257290799197051168e-02 -1.053411681118938403e-01 2.096096007933619942e-01 1.606710265858661167e-03 7.944671672762830842e-04 -2.132642630644788206e-01
-6.360462740153857708e-02 -1.213250420693676862e-01 2.106498886666994252e-01 1.052388895904019179e-03 6.890858691614006005e-04 -3.266257438009522174e-01
-6.457970862837453252e-02 -1.332788811422869202e-01 2.102799837394722648e-01 4.297908305587087125e-04 6.955123228574540059e-04 -3.198082839492731866e-01
-5.879487733984335718e-02 -1.708519545381721738e-01 2.099423990476239066e-01 8.140383602365165348e-05 8.086475985954389616e-04 -3.632924668366838139e-01
-3.989662826094907133e-02 -1.008430271428445713e-01 2.095868914883127765e-01 -3.612855400806344787e-05 9.537760733546033539e-04 -3.743105830263738776e-01
-1.435429558029697843e-02 -8.507037679050338808e-02 2.104796689157095724e-01 3.330648548904234204e-04 8.550234355917938657e-04 -3.432109844099271445e-01
-2.038894328220468982e-02 -1.046833893749150451e-01 2.098175958469978286e-01 6.163722607473900018e-05 1.303971211044048246e-03 -4.697627621127281605e-01
1.018015680482248567e-02 -1.041884309040125300e-01 2.103363625278678040e-01 1.855140185630040184e-05 1.075020923451789527e-03 -4.364134762754734997e-01
-1.304544823002944283e-02 -1.404647608597164032e-01 2.096137069422068788e-01 8.462748572995658326e-05 1.416331022912406621e-03 -3.390784000850868840e-01
1.409171562876627287e-02 -1.290625784951365262e-01 2.099646595540142213e-01 6.312359337290374855e-05 1.114386522271503801e-03 -3.961189046121680324e-01
2.436639835871631452e-02 -1.358684654639094880e-01 2.100403389714417535e-01 1.978324640340782786e-04 1.446663362300694162e-03 -3.505673074462919425e-01
1.898650053513426320e-02 -1.915463138270162013e-01 2.102697654627911916e-01 3.431897196967515049e-04 1.325933087891718485e-03 -2.579521322354583202e-01
3.215913039163513509e-02 -1.866122955139860318e-01 2.104543898136856384e-01 1.271783288158823534e-04 1.296113576147714819e-03 -1.771815879213036460e-01
1.148631165272286439e-02 -1.704735594949336186e-01 2.096533833228912957e-01 3.909250216506752188e-05 1.119786014894566051e-03 -1.324025337502828803e-01
1.850143734201426318e-02 -1.437846670656440784e-01 2.099334980192666400e-01 -1.978009403063202580e-04 1.209953680183976574e-03 -1.209941502743180491e-01
-1.862083650619754047e-02 -2.014725489756556132e-01 2.101793784003511134e-01 1.115465607809220164e-04 8.335154748159178707e-04 -3.098941141528189711e-02
-4.485903183690503893e-02 -1.723676632078285920e-01 2.096997302048891898e-01 5.837315955073121349e-05 1.114281439207866426e-03 -5.443968932664068790e-03
2.358375824257858897e-02 -1.295763416368989063e-01 2.101937714058473294e-01 2.513669443332616446e-04 1.112162435899397180e-03 -1.107158537137164084e-01
9.708886283109535720e-03 -1.162565712112257899e-01 2.098362436948351117e-01 1.722466486613905554e-04 8.858372199906179491e-04 -2.070524443218458577e-01
