-5.420414139726978386e-02 2.989808241144673029e-02 -7.120362642462685354e-03 2.129937801036813072e-01 3.926318732535558631e-01 -9.257829845508968800e-03
-3.336618128280707807e-02 3.247167535069413191e-02 -8.033611071333490727e-03 6.031405028668732071e-02 2.422054600817709624e-01 -3.315595499958045624e-03
-2.367147376915993209e-02 3.302108633574599855e-02 -3.021292565601346736e-02 -2.023895851656944411e-01 3.170990145124832210e-02 -3.755317334518676418e-03
-3.782809869244894985e-02 3.308437740212264583e-02 -1.740066430256653751e-02 3.965694359771197719e-02 4.196436674731218730e-01 -1.098491327938688235e-02
-1.995753935348054328e-02 3.334935763709585138e-02 -1.577296673557027074e-02 1.107807005583308912e-01 4.892615011422136728e-01 -5.199515532897441492e-03
-4.176758987348039298e-02 3.096321552986736753e-02 -4.491769356533226176e-03 1.685891776963905631e-01 6.752306251927575609e-01 -1.982411251739612731e-02
-2.496891296997869047e-02 2.854770360200376694e-02 -5.618162465381104642e-03 1.270129346425900863e-01 6.596078484559575461e-01 -1.289390373180615036e-02
-4.663073293145494902e-02 2.450469114251276059e-02 6.001268371196522011e-03 1.957671977970071864e-01 5.486053120248525206e-01 -1.093689360733830253e-02
-3.082417881938751686e-02 2.658740044921537038e-02 3.248605592575115608e-04 8.741267942161702609e-02 5.359503973758016349e-01 -5.989321793266804382e-03
-1.833215081090503948e-02 2.799590749376094923e-02 1.037888999113001365e-03 1.156083669264917763e-01 6.314647029120613597e-01 -1.291165276375552326e-02
-4.091512963682706477e-02 2.862364056284209812e-02 9.397940451197406286e-03 9.832817992728003220e-02 7.277175290101154381e-01 -1.199627063277710314e-02
-2.589232319633352417e-02 2.917559570409444109e-02 4.473463247311015856e-03 1.732174095111244927e-01 7.004514777167448747e-01 -1.184659881676974197e-02
-4.633217163089146245e-02 3.125189097207615313e-02 9.416519768347231256e-03 1.609698000499702047e-02 9.430672276613948357e-01 -1.501293577282769229e-02
-2.950331781104767806e-02 3.129661937239372471e-02 3.316957831881905960e-03 2.554343688798380030e-02 9.307250791462616801e-01 -1.389902062110249213e-02
-1.649004846632083632e-02 3.114556838569839878e-02 7.971652193844935841e-03 2.690251157656430719e-02 8.773199105149853683e-01 -1.840615917451259367e-02
-3.057720158233772148e-02 2.684129393879953682e-02 1.810964519144986351e-02 8.557596449786071535e-02 1.158260929100981551e+00 -1.270844508034666559e-02
-1.870492750450601996e-02 2.823396231361546826e-02 3.329530740380948206e-03 2.272186971588171234e-01 1.310721987277591927e+00 -2.302711033555352935e-02
-4.260309279473344091e-02 2.440821173374473768e-02 1.630596271497575245e-02 1.494420752980239187e-01 1.350643562316063528e+00 -1.828428366785054410e-02
-2.850671479941579295e-02 2.950326801987911141e-02 7.413755661496101990e-03 1.227235165008361273e-01 1.321601206558213226e+00 -2.003479272961312604e-02
-4.638341271125016874e-02 3.620004727119949250e-02 1.137357024662988270e-02 2.741704283322614691e-02 1.282139372962802559e+00 -1.020930125410288505e-02
-3.124306200422560797e-02 3.795723622388402080e-02 7.955818542386972059e-03 -2.356725659567572052e-03 1.364777173457023540e+00 -1.085778540284208261e-02
-1.166241961749865316e-02 3.199703959304162071e-02 8.631028200148160856e-03 5.178303097411268707e-02 1.417362161388885156e+00 -6.773796506967331293e-03
-3.910504647854820548e-02 3.201526269190330121e-02 1.700423259555616795e-02 1.017419476284147500e-01 1.449523179133908490e+00 -2.808529465865339074e-03
-2.519121757146981430e-02 2.979685113522638484e-02 1.126715955366602850e-02 6.224207113521467577e-02 1.408021069557782612e+00 -3.566748435902017834e-03
-4.530147200505961480e-02 3.958118539823260451e-02 1.807280613910600131e-02 -4.700582204737160930e-02 1.514402946527461102e+00 -5.784633909228746075e-03
-3.446922879248236898e-02 3.907562836370283288e-02 1.310385486915838227e-02 -2.537199517867295695e-01 1.465652253274308148e+00 -3.436603762359137938e-03
-2.176457160075237485e-02 3.810053704033003474e-02 -5.092308282523050345e-03 -3.514665635904831165e-01 1.405934544139088027e+00 3.032019300273519971e-03
-4.632362941202007589e-02 3.815028166785203179e-02 8.034025187383164734e-03 -3.160786653457241524e-01 1.325158636180047145e+00 4.721842862378310655e-03
-3.103968589081883278e-02 3.697786672316293044e-02 1.113094860634883387e-02 8.331831201936282238e-02 1.345986416294888466e+00 1.331901772872654682e-03
-5.008301842041944923e-02 3.948387070700795642e-02 3.751080198295320134e-02 2.938441153617089574e-01 1.336166820728311277e+00 2.202072216818091923e-03
-3.204731116928932755e-02 3.712375734886488171e-02 4.588159336046332415e-02 4.458862170516830759e-01 1.371604572440449532e+00 4.566702682120573308e-03
-1.727856135622691386e-02 3.664385134391680982e-02 4.470483185621793032e-02 2.758512325151972755e-01 1.366554183290452196e+00 7.471803538640419762e-04
-4.254536402195911726e-02 4.027007765834774572e-02 1.978714554126370651e-02 1.468958768134047688e-01 1.348109694616203003e+00 9.294552838494756462e-04
-2.536935969519906603e-02 3.818952152808779976e-02 1.334403927262667322e-02 1.340574192731662506e-02 1.374523079693375394e+00 -5.863740209506931866e-04
-4.817302044491343638e-02 4.837095826535053184e-02 2.162758219106347690e-02 -5.853707782921078323e-02 1.277367396130910437e+00 -5.053054926829646416e-03
-3.455947442481706322e-02 4.899182810793927673e-02 1.284657890850987583e-02 2.574165864817765104e-02 1.386792927047536539e+00 -3.831190521340086929e-03
-1.811165390389576219e-02 4.781555126276482853e-02 1.708848011427571700e-02 1.302381126513613985e-01 1.399464493975721702e+00 -1.929457104686730512e-03
-4.750662373862898913e-02 4.834247496433576041e-02 1.334659655242381726e-02 -1.146610223657833737e-02 1.363637400129045663e+00 -1.786697958875549126e-03
-3.544886708231784200e-02 4.862588795173342776e-02 1.770261646017945445e-02 5.703425442667524325e-02 1.343572169967243157e+00 -6.481508857698471682e-03
-6.233482797903637518e-02 4.893400339183891917e-02 1.307515982049034520e-02 -2.292512257180650062e-02 1.285740512265406421e+00 -6.810619785975400610e-03
-5.408344128751504942e-02 4.957998639746474812e-02 1.757783360282799690e-02 1.685826883709548932e-02 1.216066347736994402e+00 -3.929658513298658722e-03
-4.095450917931546531e-02 5.057218214843278714e-02 1.456827555252093731e-02 7.388422757650335571e-02 1.155531299760975905e+00 -4.397672345724808196e-03
-6.191068518431534773e-02 4.867236523301035622e-02 1.647787490267194066e-02 -2.521050152909899700e-02 1.164751196248012599e+00 -1.045642411343340392e-02
-4.948667369367852620e-02 4.914683895381169454e-02 1.519369397162689816e-02 -2.397521788112606106e-02 1.160825049691100563e+00 -1.595117294578539402e-02
-7.369625745154061158e-02 4.734792900397254145e-02 2.277751430390778653e-02 -1.064426993722416559e-01 1.183822169599901386e+00 -2.285426764676078484e-02
-5.612867135757777098e-02 4.367389695236748720e-02 9.735250703652165161e-03 -1.175098541495755121e-02 1.037905108608984772e+00 -2.471087773160576123e-02
-3.692440223196205573e-02 4.307531744652772637e-02 1.884640298664996827e-02 5.704215831609085047e-02 9.562827077087762140e-01 -2.987548385070727328e-02
-5.899715864106590268e-02 4.402054194759306982e-02 1.566240171151794813e-02 -1.245565007365517611e-02 1.021198757273769964e+00 -2.622620870902003451e-02
-4.593710860537345009e-02 4.329744631253341913e-02 2.479218354849727080e-02 -6.022001496636624623e-02 9.360706890797372282e-01 -2.955574410152183099e-02
-6.665930600990137289e-02 4.239103335248785992e-02 1.045042499568576977e-02 7.350744324566308927e-03 1.009094073180190954e+00 -2.116047295694313199e-02
-5.637603357339513593e-02 4.218336241784800128e-02 4.277390983714601802e-03 -3.609192394983475050e-02 9.102935357790671311e-01 -2.334379500591304141e-02
-4.225544279365415351e-02 4.218270827012821078e-02 -1.379609431709505341e-03 -4.839620614570903229e-02 7.627956443036041367e-01 -2.131159226518645339e-02
-7.171718489312688127e-02 3.657706091604738530e-02 -1.085545125219244955e-03 -1.463624885235675632e-01 6.073191907259166689e-01 -2.204159761170677856e-02
-6.043122933468408897e-02 3.516104791454200545e-02 -1.404649133111440795e-02 -1.531748580596287990e-01 3.581729156268431691e-01 -2.666269697929667462e-02
-8.579244978907082930e-02 3.439682517846092552e-02 1.459500383106215882e-03 -2.365216750052343275e-01 2.348043827475432832e-01 -2.463259317144161215e-02
-6.731335884432063099e-02 3.385808179899756076e-02 -5.289972667819720087e-03 -1.647406280612719043e-01 1.724165322722395199e-01 -2.446866679681008322e-02
-9.537825681361766783e-02 3.421434069203484196e-02 -6.934610646384120614e-04 4.597613323547305314e-02 2.085093025449798743e-01 -1.031754709192851758e-03
-8.572316466626868359e-02 3.375679311680315764e-02 3.216945646070223930e-03 5.939426553020393795e-02 1.356085217675548071e-01 2.558491604878088566e-04
-7.010619789296224091e-02 3.591711695931196907e-02 7.573834397709422461e-04 -9.333467390293855850e-04 -2.406096055479353679e-02 -1.044439057467477783e-02
-9.277466111996932052e-02 3.425599633824520651e-02 1.195896102913873715e-02 -3.389642235614421378e-02 2.062348749431630254e-02 -1.124719274059281064e-03
-7.898439940171082807e-02 3.281258865314053141e-02 1.187832662217408464e-02 -1.590547984459049491e-02 1.280584726785746474e-01 -5.612264305432492287e-03
-9.639176297455215314e-02 2.795679947895262502e-02 -2.853327531690874608e-03 -1.759436022307137304e-01 -8.306928185346448834e-02 -4.676861928619524197e-03
-8.062778382144825118e-02 2.605619485006577252e-02 -1.808458080779395960e-03 -1.022464221684941804e-01 -6.327170514262653311e-02 -7.469640311562488963e-03
-1.036864828519336729e-01 1.854554685527212005e-02 -1.809111378208705379e-02 -5.177755720170490461e-02 -1.245844028108553103e-01 -6.277379298831466115e-03
-8.691085029549909524e-02 1.614345820202783138e-02 -1.330468358664699258e-02 -2.091737128887050656e-01 -9.494115061865415761e-02 -1.032963141175668141e-02
-1.023567534497167308e-01 8.814436741111254109e-03 7.026115400025512159e-03 8.939325432992546727e-02 -4.365191374534217045e-02 -5.843964224156093963e-03
-9.074740276440143583e-02 7.863706807733326226e-03 1.037436117592760443e-02 -2.455679369054899336e-02 4.793593168660322326e-03 -5.508442797016084753e-03
-7.757181883758576535e-02 8.996743953762908683e-03 1.509705261190180670e-02 1.139957171474185738e-01 -1.604820677120293304e-01 6.312840864789992501e-05
-9.570421246729760023e-02 2.723324358303837178e-03 -2.715453730577965796e-03 9.896832219362303174e-02 -1.251114117389438285e-01 -3.813717438776583098e-03
-8.219796864260082991e-02 8.642315384133052864e-04 -1.293212709965185780e-03 3.661769627457380216e-01 -1.092213813692908264e-01 -8.595809488347681132e-03
-9.411840675240887300e-02 -3.599449967298161066e-03 -2.220479814084608261e-02 3.392426559325363578e-02 -9.902747059203795277e-02 -1.359117799924786964e-02
-8.309381163928339364e-02 -2.364416404418277773e-03 -1.189808436278222414e-02 -2.282702805144583291e-02 -1.092261041121563303e-01 -1.679899475882869198e-02
-9.765450385928822752e-02 -1.272478453307777056e-02 -2.069943604374774315e-02 5.715979979403891520e-02 -1.567431492371460788e-01 -7.218644027464106265e-03
-8.626129387855543951e-02 -1.169808879203316880e-02 -1.532900850263102521e-02 -8.603574704898928061e-02 -7.228476891979578045e-02 -1.544020900643997864e-03
-1.031412247766265999e-01 -1.979965825832094226e-02 -1.452652734490411657e-02 6.806027593744327919e-02 -1.478991947441175570e-01 4.545629104829087934e-03
-8.976519434203016068e-02 -2.054909188206731005e-02 -1.740573570303244333e-02 1.976477843247404290e-02 -5.529986231215738152e-02 1.773936621190972404e-03
-1.020687383821417271e-01 -3.250169890515775678e-02 -1.544414503808189121e-02 5.777237495821457153e-02 -1.526219373254997930e-02 2.961237145542040469e-03
-8.829823464922223475e-02 -3.222612549851874841e-02 -1.803785372455646296e-02 -5.703150556631815526e-02 -1.385576180758961717e-01 2.122434334829424903e-03
-1.039908225540089326e-01 -4.078065842758257786e-02 -2.215577465863549644e-02 6.563459786838640730e-02 -9.772330634353852945e-04 -8.444258731059741882e-03
-8.873791916177883876e-02 -4.259402228076296371e-02 -2.462509166820708861e-02 3.456874181973727117e-02 -9.922512542445353911e-02 -2.546664781169703708e-03
-1.000888990414181140e-01 -5.115026458322921576e-02 -1.137251955752138777e-02 2.622492139190505528e-02 -3.544497897479034071e-02 -3.241623976609990694e-03
-8.312394837137278281e-02 -5.160468940105442104e-02 -1.452259256790555675e-02 4.871879360871251424e-02 -6.855688362023901194e-02 1.364250514365790206e-03
-9.159826331467757488e-02 -5.827521755047431612e-02 -6.274094026749610364e-03 9.205941336047562817e-02 1.867701455233854863e-02 -2.060854509674546909e-03
-7.814516708510804710e-02 -5.985885760506189091e-02 -1.439748788140776670e-02 -7.982322288230525587e-02 -1.318706607300657307e-01 -4.825964345857776741e-03
-6.471957872139642853e-02 -6.457103922941506702e-02 -2.391316505563800821e-02 -2.533530712788411576e-01 -3.625074649334999455e-01 -6.402270528977722572e-03
-7.900049330280892179e-02 -6.926469336642428198e-02 -2.497072025836333253e-02 -1.509927586902414243e-01 -6.443181903918514530e-01 -9.791117196138444251e-03
-7.131328103431930354e-02 -6.883178852570219497e-02 -4.926976429518226119e-03 2.129133714431221541e-02 -9.790156411368875489e-01 -8.290618961883215038e-03
-8.272332414725658278e-02 -7.510014427705576090e-02 -1.020569696779616287e-02 -3.833658176461331862e-02 -8.404701654609539885e-01 -5.516501531214886359e-03
-6.879714431932409946e-02 -7.157954001818986334e-02 -1.188829281475289879e-03 3.604292494582600481e-02 -7.560395462254128063e-01 -1.316483442682590994e-02
-8.187094765706745547e-02 -7.895800935959954026e-02 -8.725822980026165521e-03 -1.927287196993521246e-01 -9.572168408906350789e-01 -1.302947116272269203e-02
-6.506694239268330515e-02 -7.525411508387730430e-02 -1.452374227464514611e-02 -2.759993325120153052e-01 -6.944143682706747089e-01 -2.264067873384376442e-02
-7.884769556754199493e-02 -7.706750851647781175e-02 -1.472972351140461322e-02 -9.820567960702281107e-02 -6.902051104515090074e-01 -1.955817754044263460e-02
-6.285819574045919955e-02 -7.487980039910355212e-02 -2.089215940257133086e-02 8.264547234768266151e-03 -5.802537193364970536e-01 -1.605601217109618381e-02
-7.820663937493815832e-02 -7.787509653337586213e-02 -7.993375693640059065e-03 1.587828474161951109e-01 -6.041844168769195944e-01 -1.653605331721241453e-02
-6.637270414770959914e-02 -8.219987181422860889e-02 -2.438351962659207617e-02 4.848470019686555027e-02 -5.667558641488760207e-01 -2.284178311069854847e-02
-7.790721374538403521e-02 -8.135696234938478988e-02 1.919959469124599138e-03 1.185373927761048662e-01 -5.665757957176129622e-01 -1.517554892648993042e-02
-6.415167356615730787e-02 -8.341766931394714590e-02 -4.131949085153296952e-03 6.314954970998731820e-02 -5.596058383230430033e-01 -1.438784090959484806e-02
-8.343550492495993565e-02 -8.620977824834764880e-02 -6.234196570981620500e-03 1.170190921814569796e-01 -5.566891369523785382e-01 -9.461550618577386357e-03
-6.954311600813310734e-02 -8.398792521183706672e-02 -1.025914037974040571e-02 1.194739419175367690e-01 -5.784107556416420159e-01 -1.272341942823993974e-02
-8.111889110959194515e-02 -8.426424245076735708e-02 3.559963950032163371e-03 1.193954951678819626e-01 -6.637088501358818782e-01 -1.344234202616893976e-02
-6.234611911443911636e-02 -8.442815414751539405e-02 -5.253794246266374479e-03 5.491813806565046946e-02 -6.953593842940898329e-01 -1.677784142128403710e-02
-8.671331010475008538e-02 -8.039039414242479809e-02 -4.001738511216768046e-05 -1.760116850851207171e-01 -6.957581066058913244e-01 -2.435092388491400320e-02
-6.654946924964157129e-02 -7.782498074370748642e-02 -4.649855864390206595e-03 -9.160291715824937786e-02 -7.267442182027483710e-01 -2.686915431877777774e-02
-8.159593824217187263e-02 -7.906626205420355658e-02 -2.189791868251411699e-03 -1.583082525804507812e-01 -6.245081711029597527e-01 -1.137891849803668483e-02
-6.529796277061583609e-02 -7.766627372073819924e-02 -1.795546198594122345e-03 1.207363335195204140e-01 -5.547208366221012543e-01 -1.778286369643049605e-02
-8.680966889883846849e-02 -7.475483128572249503e-02 2.512728391830698627e-03 1.974334604678253113e-01 -4.623233307302364592e-01 -1.522494489193423201e-02
-7.428612041843177249e-02 -7.199204053203493714e-02 3.738780008926967380e-03 1.523163061454755052e-01 -4.082644376527331254e-01 -2.074064025083379587e-02
-8.769514186459914651e-02 -7.210913505368647669e-02 -6.136008368919088074e-03 1.062247534655995085e-01 -3.279710744186505877e-01 -2.256699554021213486e-02
-7.068985644521080802e-02 -7.129829967523716727e-02 -1.811936807967645668e-02 -3.404850792117669611e-02 -3.210616913754519297e-01 -2.368120538315426557e-02
-5.479904232594562385e-02 -7.318895025042743141e-02 -1.678596113828639824e-02 -5.305095660487354342e-02 -3.597082856440623200e-01 -1.647080799192418912e-02
-7.515555678667024120e-02 -6.763938823134972578e-02 -1.015953465591323823e-02 2.748524601388177904e-02 -4.275867669623379386e-01 -1.770239340675058490e-02
-5.353623746562639896e-02 -6.670400682081173427e-02 -1.213352838906611719e-02 -9.950395764468043455e-03 -3.442421991203450382e-01 -1.864347707682495817e-02
-7.804524661290469789e-02 -6.228948408599424558e-02 -3.358830171951876498e-03 6.585849202216945142e-02 -4.419624567156340000e-01 -1.612848615594729071e-02
-6.277602370539317467e-02 -6.206836886929113783e-02 -1.561778108245781560e-02 -4.471438018608628329e-02 -3.303588421420445287e-01 -8.737233284409742784e-03
-8.425750005436383194e-02 -5.449364608068864302e-02 -5.755897954791089344e-03 2.865525245506699709e-02 -4.805691491647471336e-01 -3.044879517982166609e-03
-6.554181272227836696e-02 -5.483336771647583791e-02 -1.105602858049042903e-02 1.447021234050729476e-03 -5.110461862178863335e-01 3.030575517118128028e-03
-8.549957338007642405e-02 -4.843303928224693133e-02 -1.499379626159674794e-02 3.538310789216491531e-02 -6.659189774818755625e-01 5.730302228830082105e-03
-7.108893077557879026e-02 -4.711248002810050628e-02 -6.230304412784992696e-03 6.415138682697188455e-02 -7.262400210058133077e-01 1.202626830199161716e-02
-8.103387908373485549e-02 -4.058613928435041152e-02 -8.937701137500031479e-03 1.901630152260145104e-02 -7.729722336300295371e-01 2.603511305178704549e-02
-6.619932862035196597e-02 -4.452558002002212495e-02 -1.104135682394891127e-02 3.598522424556197669e-02 -7.604461435483453879e-01 2.491355357472749624e-02
-8.745852961788551372e-02 -4.661763187159227717e-02 -7.560793898648332512e-03 6.210961313794124972e-02 -7.089204131958728450e-01 1.272206073704468428e-02
-7.579383694317992637e-02 -4.828360664305431788e-02 -1.417118188024291126e-02 8.893127810329669314e-02 -7.763818313536816618e-01 1.569162701218951295e-02
-8.664466869367233592e-02 -4.522081540482422723e-02 -6.660564461880735809e-03 1.233122701751362613e-02 -7.234550247493932718e-01 1.429162118024433423e-02
-7.479725991251656714e-02 -4.239883414341200779e-02 -4.016643164859445836e-03 4.175230728061785079e-02 -7.423919883040966949e-01 9.599209961549563103e-03
-9.126758390968355006e-02 -4.034948886241182531e-02 -1.425182737224400809e-02 -6.127122437321217557e-02 -7.445846585975991472e-01 2.577484854252881652e-03
-7.390458468825822358e-02 -3.921384927077877641e-02 -1.129413625985498104e-02 -2.700494248988318663e-02 -7.866927736109499136e-01 3.306574602943420076e-03
-8.554685743900118655e-02 -3.642070649406738830e-02 -1.121922568839184287e-02 -2.841968445703812671e-02 -7.818575778276378729e-01 -7.469958555457918009e-03
-6.562195611563066688e-02 -4.193803322109830589e-02 -2.409931009389787437e-02 -6.586745491067842739e-02 -8.673881358872116420e-01 -1.041252191140100598e-02
-4.894902607067559697e-02 -4.207137334674212331e-02 -1.500790015052688720e-02 -1.100872099547983429e-01 -8.506858724667724081e-01 -9.319547416475934543e-03
-6.988140236598325283e-02 -3.570285169736087116e-02 -1.615271604326368182e-02 -8.940894301566838787e-02 -8.553203249832936894e-01 -1.800820414527521188e-02
-5.492527286368473899e-02 -3.656761762677593341e-02 -9.505747983932610889e-03 -8.765405752542379525e-02 -8.999328901827596816e-01 -1.820262187558614742e-02
-7.658727006524307379e-02 -3.664730706550214240e-02 -1.411399504748706013e-02 -9.434271768633513411e-02 -9.407895285998570944e-01 -3.140081284157258956e-02
-6.287122886303000979e-02 -4.271518673348721762e-02 -1.734582274645174449e-02 -9.788294188683281660e-02 -9.963478818590035813e-01 -2.632856872517884764e-02
-8.091272553872003170e-02 -4.070457171280233988e-02 -1.641091120512166990e-02 -1.209474141711044254e-01 -1.109288026460232279e+00 -4.133844912436544089e-02
-6.297003636553447081e-02 -3.686289955734227408e-02 -1.903688921048568572e-02 -1.471021137686688574e-01 -1.105650956235248339e+00 -3.379231311199970555e-02
-7.346740663487605350e-02 -3.720987050010321484e-02 -1.121702269797048013e-02 -1.748393661427601609e-01 -1.234415077682965656e+00 -4.459951715522942478e-02
-5.781764352129416945e-02 -3.760239056864162627e-02 -7.166372929679587500e-03 -6.511434833472477812e-02 -1.187694777008395874e+00 -4.074655273635535008e-02
-7.590655743727739435e-02 -3.828725829401736364e-02 -5.202271607074260285e-03 -8.826252329317613166e-02 -1.262372514264709089e+00 -2.233471797633284142e-02
-5.854661938012311467e-02 -3.501237916576416254e-02 -9.537002027244501079e-03 -1.458468581814370835e-01 -1.264306857074383839e+00 -2.326426557625182329e-02
-7.034440528309571228e-02 -3.973081449459391762e-02 -2.071509197450066564e-02 -8.082303691234940524e-02 -1.102483034851942323e+00 -1.496570287471402430e-02
-5.782430581698419503e-02 -4.209934915929362809e-02 -1.619120063246937136e-02 -2.056089379635767794e-02 -1.142658064957015496e+00 -1.728135701474733596e-02
-7.183191522465465217e-02 -4.067269866430631847e-02 -1.427483675868251867e-02 -5.929383026022526371e-02 -9.221055530960348134e-01 -1.065207150478192713e-02
-5.346556584687708197e-02 -3.871442776945031861e-02 -1.353095492591938065e-02 -3.380138715491082246e-02 -8.623539032051514841e-01 -2.879744418890881237e-03
-6.962147489638093045e-02 -3.345454732520018737e-02 -1.369763654537614617e-02 2.359613130077656273e-02 -6.378908493044738170e-01 4.719511011793791656e-03
-5.684309438483287069e-02 -3.183876713649871210e-02 -1.276565673465562822e-02 -1.939780961248142865e-02 -6.464284873988784819e-01 4.790054359897669145e-03
-7.065974138812097793e-02 -3.488964343135367296e-02 -2.508030396703492260e-02 1.461829602674353246e-01 -4.049068348709354837e-01 2.609362219273597162e-03
-6.402000467046328747e-02 -3.701144214711966918e-02 -3.059313375253697176e-02 2.994149664369861741e-01 -5.046975943124537567e-01 7.032231087336583177e-03
-6.773045304805856703e-02 -4.059223693214017437e-02 -3.627552996640093230e-02 1.080458474257185442e-01 -2.213673036130728577e-01 6.141870643079064621e-03
-5.810877046392957934e-02 -4.105947887613942138e-02 -3.452566144684526828e-02 1.781961165668217162e-01 -2.854588189758388017e-01 6.886630965795816073e-03
-6.733128847093526603e-02 -4.201244240744059222e-02 -3.083199645022816071e-02 2.164792179213535436e-02 -1.892181810946378384e-01 1.120513457765469519e-02
-5.265575906701248921e-02 -3.971479392960122062e-02 -2.525438689411135806e-02 -1.270465748541843853e-01 -1.781595064677400642e-01 3.461506530312929032e-03
-6.713302174258277411e-02 -4.360003474331807655e-02 -1.387001697986983695e-02 -2.857685560072632108e-02 -3.871004338789428567e-02 1.658887964556688592e-03
-5.280508043880295654e-02 -3.940075390335703864e-02 -1.784661735848203090e-02 -5.544971344972753763e-02 -6.639180101074587670e-02 9.511021348331997289e-05
-6.211633307781894153e-02 -4.313273078383913356e-02 -2.034863390745828005e-02 8.436686724910802057e-03 -1.965452159079739830e-02 3.353560931273021593e-03
-4.751071164174593131e-02 -4.326278688306685327e-02 -1.407514169711587826e-02 1.559830389058462496e-01 -4.953090049729097499e-02 -2.771245291000880816e-03
-4.847075184516979468e-02 -4.312433786045724582e-02 -2.806446730564238212e-02 -2.830261867403588340e-03 -4.491369751806791044e-02 -7.716329771281818864e-03
-3.309559685508492444e-02 -3.867548189533939751e-02 -1.644819590532231590e-02 -2.791076114796487914e-02 4.907713259364637759e-02 -3.227553477015377478e-03
-4.854528325816731549e-02 -4.005484785331736575e-02 -1.983371199569261556e-02 -7.805901853251775990e-02 7.444030075759233700e-02 -1.317831509501003057e-02
-3.375967980542111946e-02 -4.060493643889011295e-02 -2.103227709140514934e-02 -3.348252123121164825e-01 4.732951277938842599e-02 -2.576456067192558694e-02
-4.323550947490124169e-02 -4.490145813032753869e-02 -1.713617516042709177e-02 -1.131183301905574340e-01 -9.146896291825849790e-02 -1.587852529617634484e-02
-2.888865485605364436e-02 -4.266514858533703575e-02 -2.430137248237107528e-02 -2.891162818318997463e-01 -2.760093462824423360e-01 -2.194208606512818016e-02
-3.612406553932170916e-02 -4.211091456844286846e-02 -1.607398076163030209e-02 -1.147604941598094341e-01 -2.390840517272505572e-01 -2.206949650393829135e-02
-2.539417038671481011e-02 -4.292311746369253250e-02 -1.846715458748088290e-02 -6.967528155004419632e-02 -3.118906759842626220e-01 -1.978947880410049376e-02
-3.480194423823490535e-02 -4.988544849912446982e-02 -3.439560564862831349e-03 -4.166794673719215192e-02 -1.195058313197898403e-01 -1.056130095663001568e-02
-2.131484549101202511e-02 -5.018935984442885606e-02 1.142431092792201008e-02 -6.252751140712155264e-02 -9.887229532947448829e-02 -1.366506862139112502e-02
-3.737900007707879724e-02 -4.929471689994499584e-02 -3.900635057222379132e-04 6.193306923274828624e-02 -3.908584779896336764e-02 -1.030969320124129965e-03
-2.754783402918448490e-02 -4.610524226130428144e-02 2.184880761968988061e-04 -8.847297890615989438e-03 -4.834971462257197511e-02 7.607024586584947706e-03
-3.278262277641224437e-02 -4.708527188005880160e-02 7.314752156004800110e-03 1.160303341561556012e-01 -6.804726034779354227e-02 5.080510581191051769e-03
-2.110594186565079716e-02 -4.828641135691870423e-02 5.324599076755864857e-03 1.049484219477827135e-01 -6.131133479636793199e-02 1.445870209593731227e-02
-3.256643947997855948e-02 -4.617642004461456479e-02 5.362841188170930362e-03 1.936885032537381812e-01 -1.424178492472303048e-01 1.144127531249345721e-02
-2.047034281135887840e-02 -4.574562094169488252e-02 -5.426679285676083708e-04 1.321859701963693234e-01 -7.981868376522215092e-02 1.203177782148724846e-02
-3.057835709188603743e-02 -4.540638142966009483e-02 1.704746377920840494e-02 2.041422943483328090e-01 -1.214852020344183575e-01 1.647720049578637810e-02
-1.699952486756879655e-02 -4.535848634442556093e-02 8.641803805018277718e-03 1.363750968224722304e-01 -1.431410642210450279e-01 1.926218148527268290e-02
-7.166199006903323232e-03 -4.236483762543027942e-02 6.888030610293971456e-03 1.422484208461567978e-01 -1.609075016507106881e-01 1.968376344587254717e-02
-2.127236715630572567e-02 -4.049302408099703099e-02 7.338187850441935112e-04 1.418223901992842206e-01 -4.926237873737657202e-02 1.215729184213659893e-02
-8.716763748447237115e-03 -3.862874722273384326e-02 1.688528435148273221e-03 1.799897562045399690e-01 1.095316663334820889e-01 1.728641088717926266e-02
-2.511550388497792510e-02 -3.258338918058471811e-02 4.402253981055981313e-03 7.377626143214448262e-02 6.000046172756609009e-01 1.242292443721438114e-02
-1.246381619445280364e-02 -3.244487321084896236e-02 4.426225550542950415e-03 1.725696155806412113e-01 7.972473589782734793e-01 1.282161445158013814e-02
-4.073177292814310346e-02 -3.159903723300452882e-02 1.844015181496916345e-02 2.046675077870494242e-01 1.111937355748241263e+00 9.669641308349683981e-03
-2.483254742422847869e-02 -2.874384764330045056e-02 9.626512299725276112e-03 3.478317295214392035e-01 1.290875550999700305e+00 7.790596327522540665e-03
-3.899224494411138164e-02 -2.352140515272727744e-02 2.509162826204935914e-02 2.346832450971538531e-01 1.631401926101920585e+00 1.143518010386216158e-02
-2.669315960613757865e-02 -2.339227871393426833e-02 9.304474092972969679e-03 3.181204332396453394e-01 1.780677268106715561e+00 9.006849982504294000e-03
-4.427696804658655394e-02 -2.048196116158094993e-02 5.997277984230942049e-03 1.593020154910283759e-01 1.712922477627160323e+00 4.198240837318338581e-03
-2.842058633999528655e-02 -1.657013407114096143e-02 9.548774037666851733e-03 1.172103628538271602e-01 1.791015465553570385e+00 1.131653394219009345e-02
-1.468015013981660045e-02 -1.538613755368363478e-02 -3.595303584853104528e-03 -4.500096698005658785e-02 1.820245568449432083e+00 1.357271711906397026e-02
-3.292150637641967637e-02 -1.773002185932686520e-02 3.364247411102583296e-03 1.275876945175616339e-01 1.882388678805844595e+00 1.492488943698412618e-02
-1.793527146788860202e-02 -1.630175339935600876e-02 -5.459872193108117333e-03 2.496110828174070723e-03 1.837711474068825179e+00 8.821661916176767870e-03
-3.556658206990651050e-02 -1.531296894528633504e-02 -1.085679985471599274e-03 1.260766488579130318e-01 2.070166118685635492e+00 1.049031846105981207e-02
-1.994886697929913397e-02 -1.622856115912775510e-02 -1.203396814344526167e-02 1.961812899447504532e-01 2.011226392946753094e+00 1.276513271059457819e-02
-4.143403148600435792e-02 -1.597216791151872053e-02 5.650794999019548293e-03 1.082152667892416209e-01 1.846928491567291220e+00 9.736692602059492455e-03
-2.597445417052100802e-02 -1.869994168884387548e-02 3.031581836777708094e-03 1.566123380929552167e-01 1.735839646969460803e+00 7.495663784508272212e-03
-4.638018939455210154e-02 -1.697342918246792787e-02 2.552703354029295379e-03 1.551906325406144649e-01 1.708165105910483428e+00 3.705221669920634453e-03
-3.349714580030858924e-02 -1.674255100979932243e-02 2.511003862423866195e-03 1.259184407155497509e-01 1.603304641530189478e+00 8.701886711103984113e-04
-4.317667461869705708e-02 -1.707146876994067308e-02 1.926161017288541277e-03 1.444465338659656206e-01 1.506227048653614009e+00 3.709078673501598118e-04
-2.629697856979047038e-02 -2.234714430545019226e-02 -1.287867501221795496e-02 1.771899414359723313e-01 1.347561405677366819e+00 6.535451511965732242e-03
-5.115971809991474994e-02 -2.222826879258042038e-02 -5.449927791465358773e-03 2.619682799796692330e-02 1.084221335687980403e+00 -1.308715784004372065e-04
-3.252854884733270141e-02 -2.056117352043038138e-02 -1.212751877240003662e-02 4.348363882591910201e-02 1.032476622084406825e+00 -7.161423110547633425e-04
-5.481711686024727526e-02 -1.468671927536642323e-02 -5.399195389109490151e-03 2.023040998811777031e-03 9.448977326800528376e-01 1.226871619612263618e-02
-3.535072799346102024e-02 -1.708184431604758968e-02 -1.316698014025480257e-02 -6.788641088251287647e-02 8.297312858990614215e-01 4.706236826423999473e-03
-1.795966859449050004e-02 -1.801729520397452738e-02 -2.174902282994067848e-02 -1.261736492614767002e-01 7.121992415533378029e-01 7.845175786782312283e-03
-3.627564955430218063e-02 -1.938674097448107869e-02 -7.474980455253410483e-03 -6.894205306969571068e-02 6.202703535483022890e-01 2.710560696689854991e-03
-1.761420215508729958e-02 -2.088188609159579920e-02 -1.564316988565356281e-02 -1.971490863399210369e-01 5.448265576387768538e-01 4.689997326493675414e-03
-3.937363928568791971e-02 -1.778782606017322715e-02 -2.260976069697051560e-03 -8.757781943462245033e-02 5.742048228351972483e-01 -7.440415085874985644e-03
-2.454192094550093281e-02 -1.939099564572054069e-02 -1.439877069095951700e-02 1.359471028633242873e-01 5.454761398864566013e-01 2.969434746737915388e-03
-4.347174090589887158e-02 -1.772061143449613768e-02 -2.225729990835645378e-02 -1.595690930732404297e-02 3.818428939627331875e-01 -2.725439905620346149e-03
-2.684178945445611295e-02 -1.493018437232695832e-02 -3.048933705842188369e-02 -2.477822772360053494e-01 2.372943234333269868e-01 -1.934409557110732545e-03
-4.087765653178625225e-02 -1.919527058893224711e-02 2.272210844873390201e-03 -8.315516899542330087e-02 6.446076117228047297e-02 9.093521690945498975e-03
-2.410428969358004506e-02 -2.129659212188179593e-02 -2.598474893413804665e-03 -7.347640191494365924e-02 3.008474638576219204e-02 5.655146772291551674e-03
-4.018511332152427395e-02 -2.102475763427901975e-02 -1.473596986907893536e-02 -1.091123598992663341e-01 -2.237203300837201786e-02 -4.083478364510683876e-04
-2.094572886495654415e-02 -2.694711797424937175e-02 -2.170338120041404029e-02 -4.550694291434998623e-02 -4.310454411461114854e-02 -5.694929242126645606e-03
-4.278443068386465070e-02 -2.673604026262420968e-02 -1.345215923505654887e-02 -1.308577486506729559e-01 -2.213927154699093514e-01 -6.154108249652142856e-03
-2.244412183896579358e-02 -3.077528569309951473e-02 -2.198205580156908923e-02 -4.659044050987215524e-02 -2.025685125826414135e-01 -5.234606313674666257e-03
-4.155016778847979431e-02 -3.387526179987128405e-02 -1.146658427510172107e-02 -6.879102079119975288e-02 -4.223221378498037137e-01 -1.754138270526392485e-02
-2.637461236629868450e-02 -3.257980742842778860e-02 -1.893014619552041422e-02 -9.093636282921509217e-02 -4.428142918662082983e-01 -1.862610345615975729e-02
-4.404495995110696560e-02 -3.280712106945655321e-02 -6.336409065378356686e-03 -3.655653259036447528e-02 -6.172036513117835632e-01 -1.099574846260836791e-02
-3.058230601904094251e-02 -3.505003361881205148e-02 -1.332076375633378662e-02 4.529005497771020766e-02 -6.786876433048227852e-01 -1.290069157378797085e-02
-4.898958503984256890e-02 -3.846943195118843195e-02 -9.202064064253112630e-03 -7.915820396683734272e-02 -7.842849820162436369e-01 -8.733684705807901946e-03
-3.788290785765904833e-02 -4.043239913932146490e-02 -1.341575955045626323e-02 1.224798314269528489e-02 -9.166712665445837516e-01 -1.814025871138024576e-02
-4.859741194598894698e-02 -2.923521064960596730e-02 6.017544618218517716e-03 -1.577256576400321714e-02 -1.048007685360194952e+00 -1.801456757205881914e-02
-3.206428265311170311e-02 -2.764160794269640217e-02 2.952350582880569618e-03 4.679680092985002982e-02 -1.059724589206425094e+00 -7.320571372175080360e-03
-5.340322932805648820e-02 -2.772913580484719434e-02 8.965300766844097602e-03 -1.491688005991374244e-01 -1.121538515476712794e+00 -5.950390534106535755e-03
-2.916959907476989605e-02 -2.922280730315824498e-02 1.756572981569726188e-03 -1.132418017957632916e-01 -1.140449600828883803e+00 -8.532402748996095743e-03
-4.365553606318200996e-02 -3.328539133255265653e-02 1.850792980560156398e-02 1.628893854237786487e-01 -1.268606175473073527e+00 3.600201867533149840e-03
-2.241380762776341851e-02 -3.218975879056501510e-02 7.839362031730578995e-03 -1.479899859890745351e-01 -1.300819919623378729e+00 -1.570380745120412980e-03
-3.574511139556414002e-03 -3.373338942220829861e-02 -3.281983983323077947e-03 -4.585895772404079418e-01 -1.449083241044267112e+00 1.199461218600753141e-03
-2.632773139466875953e-02 -3.733231014126401487e-02 -4.488145665960729946e-03 3.613273024309059805e-02 -1.454672883348471002e+00 5.740335231511664929e-03
-3.046566038035618262e-02 -3.881030170017391034e-02 8.664684926537935539e-03 6.343575689854236838e-03 -1.574699790847662983e+00 1.164355411195437673e-02
-3.601621009254230010e-02 -4.079882097197841395e-02 1.009225840997002299e-02 -8.370646730987335582e-02 -1.711873365637633704e+00 1.512216670950395324e-02
-3.613322228752775811e-02 -4.084400589100312812e-02 1.989925491111282918e-02 -2.182147092657772403e-01 -1.868384998702478317e+00 9.067276228973970842e-03
-2.147881872402967324e-02 -4.267335385887163074e-02 1.920576842562021769e-02 -5.590665721238413655e-02 -1.859870802731067529e+00 1.175925779493603753e-02
-3.525659608978377879e-02 -4.115236029232984677e-02 8.862465434910649087e-04 -2.026880096932246189e-01 -1.998978375512772132e+00 1.282071694948801882e-02
-2.030094370140244145e-02 -4.220288734828667176e-02 -1.793992384371889681e-03 -2.369678414921451426e-01 -1.910439691630884784e+00 8.521675644120390095e-03
-4.310454406918031584e-02 -3.998221955695549501e-02 1.369942131794693596e-02 -7.598970336996086448e-03 -1.790374908560166123e+00 4.567558181871204069e-03
-2.364437829544435363e-02 -3.801526076578599922e-02 1.745258944414740387e-03 -1.816333088395931106e-01 -1.590499797652462854e+00 4.414675417821434418e-03
-3.572187010724641593e-02 -3.831905282214930625e-02 2.474142448677241202e-02 -1.341091776213882703e-01 -1.813238920171928115e+00 8.704445281409445984e-03
-3.434927420048362878e-02 -4.334746948072818601e-02 1.442614298964434161e-02 -1.644043290093321619e-01 -2.165461963562109737e+00 9.067321322521134947e-04
-3.105243045417760764e-02 -4.710386116253773015e-02 1.300246115705960825e-02 -1.409431007781629663e-01 -2.191260651446176322e+00 -9.317665913083934132e-03
-2.828621284173131814e-02 -4.644373335657691476e-02 -4.758190868094758219e-03 -1.811434968735220752e-01 -2.165803060143928871e+00 -2.039800881334215277e-02
-7.926342793498013239e-03 -4.738447213754794912e-02 -2.303185806724117324e-03 -1.845761428484873345e-01 -2.133489345642335167e+00 -1.811466945670194700e-02
-3.443169816380388382e-02 -5.333236501534147772e-02 5.425656165977676970e-03 -3.790304250099181538e-02 -2.148188460212823614e+00 -3.627992284149878649e-02
-1.386339219921924742e-02 -5.296291775378338118e-02 6.813638389740583889e-03 -3.161430811263198082e-02 -2.068066462880324252e+00 -3.312409802036565126e-02
-4.352532992017389690e-02 -6.326163956048970471e-02 5.297149809977419466e-03 7.662492402441753447e-02 -1.992357774016688232e+00 -3.831992795156653059e-02
-2.678681681182710009e-02 -6.271670824984508508e-02 8.586243773027024684e-03 5.138027104354061375e-02 -1.984382552776819741e+00 -3.128350573513832139e-02
-5.160481940239833309e-02 -5.917585099411564603e-02 4.232820988599117484e-03 -7.364147377440902198e-02 -2.235183870953421970e+00 -2.524180049208653992e-02
-3.342807735675380060e-02 -6.004156096443549750e-02 -1.128235863796595018e-02 -2.001631044551124006e-01 -2.194731399619380685e+00 -2.556171134969333070e-02
-4.684985205160425992e-02 -5.973893610493261064e-02 8.470685638349795266e-03 -1.877182101904612821e-01 -2.385264816272497423e+00 -8.216370014609255396e-03
-2.881773295573978461e-02 -5.847796563977253337e-02 1.586914995103771986e-03 -1.188824505092808820e-01 -2.362877101099842392e+00 -8.659199917704354585e-03
-4.645209141279515314e-02 -6.481583690290251831e-02 5.145222034230845232e-03 -2.256969409340377763e-01 -2.517861848132212810e+00 -8.981594511065437228e-03
-2.828429960534112331e-02 -6.674200952200660952e-02 -1.950466887347568345e-03 -1.284666464787606044e-01 -2.412616615711739243e+00 -5.559667976532072127e-03
-3.885880639817912430e-02 -6.922428254415081972e-02 2.715208219459586125e-03 -2.428629459577167637e-01 -2.556703147838775170e+00 4.567415020989154008e-03
-1.902761507065222485e-02 -7.258711679109561277e-02 7.469636626536324542e-03 -2.790503048876778469e-01 -2.549291396273344557e+00 2.752465423647316393e-03
-4.241321648148279472e-02 -7.513426251924112953e-02 3.460428413885829890e-03 6.928486404450806546e-02 -2.494948814929897285e+00 6.373500493602144443e-04
-2.517092468934223684e-02 -7.666303067917500103e-02 1.877596038765305675e-03 2.123312873819811417e-02 -2.521386066799303993e+00 1.644083441645164409e-04
-4.794057732542020278e-02 -7.603148925958150284e-02 -5.754641938140958590e-03 -5.978857582796459624e-02 -2.326675096195868431e+00 6.097395460197961581e-03
-3.404404254263675156e-02 -7.600406987730275177e-02 -1.458676425840721436e-02 2.008430583072922521e-02 -2.297445416142433583e+00 1.119493630677159419e-03
-5.907104309707924411e-02 -7.109738882794058856e-02 -9.483497434538912252e-03 -3.094592391845340726e-02 -2.183783207453468211e+00 1.471898921850130042e-02
-4.102329992264898417e-02 -7.037435357400091684e-02 -1.800988888622584438e-02 -7.118876904616179557e-02 -2.135885581913083531e+00 1.292066220343100931e-02
-5.703368754288316161e-02 -6.982643454605491629e-02 -3.990829115432414920e-03 -9.186731410303561329e-02 -2.049467823488925422e+00 1.357343247686203583e-02
-3.711477392087983440e-02 -6.641567008700914598e-02 -8.962073313142748798e-03 -1.408609614908891694e-01 -1.931733700315138025e+00 1.657307411848508993e-02
-2.192187843857200391e-02 -6.535971925832473328e-02 -4.879378327076799859e-03 -5.810394391219734361e-02 -1.838364860995769012e+00 1.554460996091478441e-02
-3.362614595579986598e-02 -6.542281526588103469e-02 -4.511589902877255476e-03 -8.977904236740986976e-02 -1.683858265118738595e+00 2.385850111739915361e-02
-1.958647486391196235e-02 -6.375492793060560937e-02 -9.499145979789069827e-03 -2.389461733955533865e-02 -1.574302640264686248e+00 1.877673120145959690e-02
-2.909157506334516738e-02 -6.713303097931130892e-02 -1.309786699765197460e-02 -4.775293383414769277e-02 -1.706202093988899549e+00 8.953222254022443968e-03
-1.123370587526567946e-02 -6.430256590995588051e-02 -1.922333005493798153e-02 -1.791899316544143250e-01 -1.725610152383952212e+00 1.895693802088659757e-02
-2.800728837178866407e-02 -6.746165455629463126e-02 -1.109827709738298029e-02 8.042989063168644315e-02 -1.708031281634875276e+00 -1.233181521997028579e-03
-1.328183917316075324e-02 -6.924524392535154338e-02 -1.459475386697067778e-02 6.979742803938132623e-02 -1.679682498107672339e+00 -9.345414368425274468e-03
-2.824676904170876982e-02 -7.285529880651502033e-02 -1.876123708749449781e-02 5.067541000119284850e-03 -1.661002680057285241e+00 -1.197217670708133896e-02
-1.421535338067292376e-02 -7.310830130638575064e-02 -2.100461901213207527e-02 7.797183701902531128e-02 -1.581676463874598815e+00 -2.373219686861961775e-02
-4.307288552453823055e-02 -7.183720986743551140e-02 -1.364605305483018727e-02 -4.089950192960890504e-03 -1.634156279879735107e+00 -2.826862572782364372e-02
-2.584836712463507366e-02 -7.286149523987510424e-02 -1.497698812764741705e-02 2.527658639953823949e-02 -1.550817228733094577e+00 -2.955614696459868060e-02
-4.459164458004758608e-02 -6.794161355915007139e-02 -2.636946895231967458e-02 1.036365956754390916e-01 -1.511345041948278567e+00 -3.137554006475942736e-02
-3.406546257364288788e-02 -6.599481186203669247e-02 -3.124684670744098947e-02 9.673737340501956106e-02 -1.425038862428424702e+00 -2.891584658339615976e-02
-4.636991043826629855e-02 -6.711983660378234573e-02 -3.414055233175089521e-02 1.567840159187251434e-02 -1.466253297677327261e+00 -3.253773582031672940e-02
-2.951677093930052745e-02 -6.463761516280965014e-02 -3.816309738331569168e-02 1.017871637197237805e-01 -1.415433877017868936e+00 -3.559451146212696399e-02
-3.859563786833083987e-02 -6.766069195794258140e-02 -2.516042293470899249e-02 -4.152143988802855850e-04 -1.538035958932994385e+00 -1.545638401848737319e-02
-2.446411098280547314e-02 -6.803522108321924389e-02 -2.738430003572644988e-02 8.380165184757719377e-02 -1.451616748077513952e+00 -1.462064689259193716e-02
-1.368277307074841978e-02 -6.403698797034088064e-02 -2.935129173915790313e-02 1.440554985853348957e-01 -1.388913733236460724e+00 -1.056587998090485064e-02
-2.923122692470668874e-02 -6.868684780943354329e-02 -3.602518551088490506e-02 1.698248027479643332e-02 -1.536265988098181268e+00 3.594691075852157140e-03
-1.333931372987485348e-02 -6.965758205153815830e-02 -3.620170538788475278e-02 4.413634567501061728e-02 -1.550664623787173735e+00 1.900464410153242028e-03
-2.271360355505348122e-02 -7.087767878919967734e-02 -2.936399007911671966e-02 2.409250981407197630e-03 -1.280804266972407790e+00 1.149680695288038922e-02
-1.228992961767459702e-02 -7.037271223988063318e-02 -2.589475576597571882e-02 -1.941187949846801333e-02 -1.424253019780117313e+00 7.603153456852257928e-03
-3.678626312079869010e-02 -7.257935425343742253e-02 -3.842775800940378961e-02 1.163674780748155252e-01 -1.012948045003557729e+00 -1.053881673474113892e-02
-2.605695938793384930e-02 -7.262592451750243816e-02 -3.552039413433222270e-02 5.144617993318904847e-02 -1.090637576109057871e+00 -7.409270609265663880e-03
-8.506848741856434803e-03 -7.180265709021607656e-02 -3.979306541591154378e-02 2.753212332623124550e-02 -1.252157669709140331e+00 -7.840301881089658739e-03
-3.526405864343751945e-02 -6.570859230722733701e-02 -3.512011958515420806e-02 -4.536573071789571504e-02 -9.648124054027855667e-01 -1.116618727895690895e-02
-2.096660041902472654e-02 -6.568698817150443736e-02 -3.174265061865422233e-02 2.630387922249501076e-02 -1.083148300014110221e+00 -7.222093735832893491e-03
-3.744514144911247067e-02 -6.442310352859684230e-02 -3.706431341552540726e-02 3.781203346199143306e-02 -6.795257965957458568e-01 3.079903663206272173e-04
-2.268640347845266719e-02 -6.287386677231759924e-02 -4.066220737339643065e-02 -8.189575766835266012e-04 -7.488551863249358620e-01 2.860216432258823414e-03
-2.786307297300654254e-02 -6.528589271671367267e-02 -2.901083649456476232e-02 -1.153459928286550001e-01 -3.961199608735906375e-01 -5.206470253927271072e-03
-1.481445053229729462e-02 -6.435138268612711210e-02 -3.594348064338581672e-02 3.421140493690443679e-02 -3.792283559031072171e-01 -1.622596134581757304e-02
-2.485523997118691680e-02 -6.059434721002617680e-02 -5.278294724697174534e-02 -2.099868132877390769e-01 -2.565345945019040785e-01 -1.467469564536689509e-02
-1.389518181764209069e-02 -5.873523333443336769e-02 -5.847740386240601884e-02 -2.659805773980461474e-01 -2.077938396986801495e-01 -1.286793248993420291e-02
-7.734125582536988813e-03 -5.910957739822164658e-02 -5.656856281877908899e-02 -5.939560365575455858e-01 -3.353542021103634446e-02 -3.043939611811399999e-03
-1.355838308053396689e-02 -6.511714783526002803e-02 -4.098088864682958299e-02 -2.968650121088119431e-01 -2.101513323517373022e-01 -1.872528947733584706e-02
1.998972740998618269e-03 -6.335077880198572431e-02 -4.057642666572364165e-02 -5.046010427459014513e-01 -1.718932350706368628e-01 -2.417054720946836335e-02
-1.735729684498390699e-02 -6.422054726281227477e-02 -2.846867046329326634e-02 -5.002263624202586689e-02 8.626949985974580182e-02 -1.568204654131975101e-02
-6.736192409261619607e-03 -6.535701234061432052e-02 -2.548337397624150791e-02 -1.269514503435679176e-01 1.078109539071965689e-01 -3.327670887374338960e-03
-2.089088513812474221e-02 -6.523207558814186902e-02 -3.374200325494453034e-02 -5.961807970575130899e-02 1.313645219600045599e-01 -1.200893344458049163e-02
-2.813074612093131865e-03 -6.606045195537890713e-02 -2.713222737393344852e-02 -2.472424123180260724e-01 1.753628819993747479e-01 -1.630922038892606077e-02
-1.524001478775398322e-02 -6.409753172913765229e-02 -3.315475041561505298e-02 -7.521131354742403852e-02 -8.097393782619852209e-03 -1.828106940010131021e-02
-5.614015800182430710e-03 -6.112890413907864917e-02 -2.868244959212279399e-02 -1.585594277917025674e-01 -1.767508207973702422e-02 -1.399802980162103035e-02
-1.863766085365762756e-02 -6.203064346806498597e-02 -3.009739004214273539e-02 -7.649158986114205916e-02 -1.185473611411827499e-01 -1.522381414761233426e-02
-5.657294014940413701e-03 -6.103409607355370775e-02 -3.832327259940476738e-02 -1.003565819308084028e-01 1.183147915992127652e-02 -1.540154774453422921e-02
-1.711176701593584981e-02 -6.227382942036735480e-02 -2.242241437380410041e-02 -1.417158512879174992e-01 1.220270031557066093e-01 -1.701682065340440241e-03
-1.896144627406209232e-03 -6.317200769336116239e-02 -2.759041617558799508e-02 -1.124594000003114047e-01 4.460974808614927983e-02 5.937459277177794571e-03
-7.343930693285660033e-03 -6.652034863664438302e-02 -2.310412749917339914e-02 -4.285822932034569904e-02 2.552065152917524712e-02 -4.520972584015111283e-03
1.055037942663220388e-02 -6.030813837551338152e-02 -2.131055408132170870e-02 -1.656958779618415145e-01 5.732170369612061417e-02 -1.064774540077986081e-02
2.573123952562523034e-02 -5.911112653331625916e-02 -3.021835621892760004e-02 -1.668181603611765262e-01 1.279380482537390562e-01 -2.012077943636265617e-02
1.052308329178672230e-02 -5.580099641728265836e-02 -2.967613559666143486e-02 -6.394137332023006569e-03 3.820769873737049627e-02 1.599498803505283989e-03
2.381608339313884271e-02 -5.578111236371247061e-02 -3.578964859629024664e-02 3.379602689828661299e-01 -8.791140369980266281e-03 -4.367410526937778523e-03
3.452840738828594214e-03 -5.603927534398202986e-02 -1.744246276044758570e-02 -3.015533544993482737e-02 -6.256917389776678329e-02 -3.765269331232520486e-03
