5.887772486196662935e-02 -2.221864730793573356e-02 8.706196501087060113e-04 -7.701818518263181534e-02 -3.028576243542030477e-01 1.978312039710126979e-02
2.923966461441410494e-02 -1.697665961013689745e-02 1.870567709228942999e-03 -7.318105227589942474e-02 -4.995866647580866071e-01 6.448842201534812045e-03
4.008382787035050243e-02 -1.549895742549764303e-02 2.151533712865860704e-03 -1.672108967791983147e-01 -4.577361529591240652e-01 -2.384027445848586196e-02
2.205909776929304220e-02 -1.308198465195683363e-02 -1.319100134002954006e-02 -5.305267080738212265e-02 -1.177457219765583735e-01 -8.168027946196830535e-03
4.562117223988178261e-02 -5.331413164938949775e-03 -4.954556827149458886e-03 -6.680285566221239035e-02 -8.382220515004161834e-03 -1.483998718142870259e-02
1.649997938587495147e-02 -1.451456164447330159e-02 -7.842689301604532925e-03 2.124517146650381147e-02 2.339058116354050532e-01 -2.907813622293429871e-03
4.265238292401363207e-02 -1.813444459198236547e-02 -7.281172057422125032e-03 -7.253024009875105871e-02 4.064568454964565675e-02 -4.715677991080825630e-03
2.064403884588008123e-02 -7.969246152511913830e-03 4.867381200932163754e-03 -4.693812204319326720e-02 1.101206986055311560e-01 -8.107244604739910487e-03
3.362733704655104794e-02 -2.142074058120252075e-02 -2.653476261123832725e-02 -4.473428754239922034e-02 3.592831461480803790e-01 -3.216875232370765281e-02
1.521099419770920516e-02 -1.262737600966415408e-02 1.373258350340084144e-02 -1.023458858707645275e-01 1.663054500965398252e-01 1.633700159548397840e-02
4.161161105606092647e-02 -1.710336867598093169e-02 -5.381477306109438974e-03 -3.969193699653622565e-02 2.185293858645856457e-01 6.184450820334297209e-03
7.684771636228056313e-03 -1.393873057322347203e-02 -2.060382544060962440e-02 -1.459430411721342469e-01 1.737409063773138335e-02 -3.030363204323246323e-02
2.366833677328345625e-02 -1.322434646516900368e-02 -3.105822381710371394e-02 -1.806012645292144614e-01 1.116326610877494824e-01 -1.176439739454554836e-02
2.628995519472957648e-02 -2.429798249506653907e-02 -1.196302051625564022e-02 -1.144725280946578411e-01 9.310222334186933624e-02 -1.557884926841167882e-02
5.310234920601437231e-02 -2.342216095576811485e-02 -1.889730711808357277e-02 -1.698072669150084701e-01 1.168273611709800541e-01 -3.459873461274816375e-02
1.794779430348679428e-02 -9.336456746089776687e-03 -1.592267574133304775e-02 -2.726147499643703509e-01 -1.247166919001623936e-01 -1.082939491885145933e-02
4.510342557809850217e-02 -1.396254970217415507e-02 -7.389427985752650141e-03 -2.380048398653994146e-01 -2.178593402992354822e-01 -5.269372923664353801e-03
1.972054115139620922e-02 -1.318103344505032470e-02 6.869804509984256402e-03 -4.179408298365737129e-01 -6.349618722947751870e-01 -6.194722548655836637e-03
3.603143832446295547e-02 -1.362460273935529702e-02 -3.764348170711195873e-03 -2.740455980989426332e-01 -7.167652842251369671e-01 -2.227082263011335994e-02
1.394886653854389078e-02 -1.616553383276189346e-02 3.701271434329245213e-03 -1.525436598951078193e-01 -1.067181566672434023e+00 -1.270887395315118545e-02
2.763462901702209637e-02 -1.556107470895774433e-02 -1.080011184009355141e-03 -2.996182475705982950e-01 -1.092134501907009003e+00 -9.752431864871820635e-03
2.411069352697221835e-02 -7.873499287419210776e-03 1.140875468025892570e-02 -2.928942294401065682e-01 -1.458366895414515030e+00 -2.738100393514998968e-02
3.495507657266780366e-02 -1.667941176255332419e-02 -9.818750135918707933e-04 -2.722153543720042812e-01 -1.470739222185626138e+00 -3.404990878591086095e-02
1.875863851712854941e-02 -1.797156520507585398e-02 3.337947326665358094e-02 -5.229826064928334572e-01 -1.999007523391856278e+00 2.233940709132410662e-02
1.377982159408693702e-02 -1.866206100029286011e-02 1.316246065481624372e-02 -3.494935217220271340e-01 -2.601414098260646401e+00 1.969084484033211888e-02
3.457097628166956593e-02 -2.260217867407376263e-02 4.819143997086289266e-02 -4.387958651719578440e-01 -2.611921891693931297e+00 2.077715673060715959e-02
1.827057554970231562e-02 -8.640190174485015695e-03 1.833686943818529924e-02 -1.487968988477427756e-01 -2.712890339459484768e+00 1.181527840964729723e-02
3.127384409161573786e-02 -8.330241009145493772e-03 2.085300907328435649e-02 -3.801130413285432885e-01 -2.606696450912838969e+00 2.750203208452840081e-02
1.928353551724700660e-02 -1.064265225534058792e-02 1.507129896633646604e-02 -4.898399981840135253e-01 -2.411633700440309447e+00 -1.552152352562827589e-02
3.844811593466199856e-02 -9.146876473492731099e-03 2.597409618458462743e-02 -3.390926143876005772e-01 -2.337760003755382510e+00 -2.572570920884177312e-02
2.841352227194416519e-02 -2.474715065161125355e-02 2.780835422595695494e-02 -1.952590211535374654e-01 -2.088340323219056049e+00 -1.204692449268334256e-02
8.779418459980120604e-03 -1.523424918940985244e-02 3.589833296186001332e-02 -5.633140607244551540e-02 -1.923709557948735993e+00 -2.009235335222141552e-02
3.059378103060938353e-02 -1.550618791852797010e-02 2.596448924765715205e-02 -1.869467088999133830e-01 -1.982373256938616546e+00 5.795647515492123938e-03
5.040757901801591612e-03 -2.117888514889981755e-02 2.551356373869306804e-02 -2.550949802351196727e-01 -1.947436952357714413e+00 -7.701876555459908832e-03
2.011659078371420134e-02 -2.069234473663511542e-02 1.983395342970156738e-02 -1.795775791850836300e-01 -1.933258353713417366e+00 -1.675581337597154344e-02
1.706252471761415118e-02 -2.964183789806886654e-02 4.351038367481652180e-02 -7.874184041242481003e-03 -1.916261472124569876e+00 -7.826256491410429894e-03
3.462603330204862967e-02 -2.469538842664919728e-02 3.705188100166567633e-02 -1.813684501888241513e-02 -1.820182963031146128e+00 2.598296804548626444e-03
1.419868589355122168e-02 -1.685410947446931706e-02 3.559164390260838307e-02 -5.018821002241577456e-02 -2.079972701542429192e+00 -1.055986551024690884e-02
3.819869782952056009e-02 -2.032491273438842561e-02 3.746183308980521875e-02 -2.008359430794543210e-01 -2.208644787277378008e+00 1.345565559539178314e-02
3.873619719221916419e-02 -1.359310637235374222e-02 9.374573800616398112e-02 -2.200167129315006020e-01 -2.703093620725423030e+00 1.988594606448055094e-02
2.890075925658336375e-02 -1.079256649009676522e-02 6.005023811436310810e-02 -2.392395146371258385e-01 -2.775608835077040926e+00 2.145844542292879228e-02
5.400153103299190627e-02 -1.242043063125858673e-02 5.027366664835558607e-02 6.986893143564691655e-02 -2.771053177776824139e+00 -5.822654279563200738e-03
2.988256204842529296e-02 -3.857615950069715610e-03 8.480623539136666889e-02 3.304048489839702119e-01 -3.197275254037823977e+00 -1.544286923238774242e-02
4.673730020867978424e-02 -1.216184002285521440e-02 6.459384188113403980e-02 1.557284667391272970e-01 -3.176674399810858862e+00 -1.007088698231462312e-02
4.249909163247610894e-02 -8.872788139651898928e-03 7.640758934472369202e-02 1.679291677748236677e-01 -3.274002224457612797e+00 9.534746323188150047e-03
5.341673119379364287e-02 -1.155555590272960842e-02 8.822497872757301129e-02 1.103781019545037184e-01 -3.313839968766501443e+00 2.883896480875720696e-03
4.132316161412564332e-02 -1.127079623087261749e-02 7.351617467905846581e-02 2.212261154821541440e-02 -3.231276584809183561e+00 2.326522896995302306e-02
5.637547322212710377e-02 -1.299688834337274501e-02 6.506909760465123815e-02 1.602070745488831105e-01 -3.176438230987875588e+00 1.168798354584487699e-02
4.074044685948277622e-02 -1.264862542465849601e-02 9.450230467300513304e-02 1.248721882548210621e-01 -3.195785561619542747e+00 -6.648466900921154096e-03
6.109422154303117275e-02 -1.694468675470924349e-02 7.751009142465903334e-02 1.443951251946339887e-01 -3.250849279199431230e+00 -7.430780843573634234e-03
2.579973886376348002e-02 -9.795763074284443914e-03 7.194442312398913186e-02 1.758785660657079530e-01 -2.941114493922945883e+00 6.436483408734348238e-03
4.666098859779761049e-02 -1.407311887118620902e-02 7.554626449996032500e-02 3.949959572695493221e-02 -2.999971726080054690e+00 6.919315118975821917e-03
1.842554810282759359e-02 -1.263066994392122305e-02 7.005118390655068472e-02 9.712949964321253293e-02 -3.064320364681812237e+00 -1.063363797301890117e-02
4.436852364428114232e-02 -1.630377474545191552e-02 6.706451872427710015e-02 2.340902603069723309e-01 -3.161810975524163680e+00 -2.570824377236725564e-03
2.793287677840026323e-02 -1.820009162860354579e-02 5.085020264522888134e-02 2.550636279926006833e-01 -2.954298511459462873e+00 -5.555265903424468250e-03
3.955826119972909866e-02 -1.493751934655369179e-02 5.133242175413299524e-02 2.908100663139158715e-01 -3.020189319511006332e+00 -1.828918125668293690e-02
2.755447224072967577e-02 -1.738536094418445185e-02 6.327174549553055138e-02 2.292942032900262828e-01 -2.694307326488533771e+00 9.303331750232167810e-03
-8.345228588321276786e-04 -1.488547646054864428e-02 5.812107793415938195e-02 1.908165260088072468e-01 -2.084667679530102014e+00 -2.679018154899696566e-02
1.554810692951311829e-02 -1.153989937241914517e-02 4.752046993835912225e-02 1.268262757147241848e-01 -2.049263558960735310e+00 -2.587208578336875828e-02
1.232178518728265643e-02 -2.721197203623500552e-02 3.196614891863724939e-02 -5.930762886168145648e-02 -1.371778154317509157e+00 2.141389033378494899e-03
2.569669621847212038e-02 -2.794604457149531263e-02 2.434426617172052998e-02 -2.488186021632499134e-02 -1.269222894365457321e+00 4.628831555572549689e-03
5.649630202982560551e-03 -2.608312842129910034e-02 5.432068942617662710e-03 -2.754652593974189490e-01 -8.460093120873467543e-01 -1.003343467042675831e-02
2.552382739791006841e-02 -2.177858010914242651e-02 1.043569083824286148e-02 -2.779515995033927933e-02 -8.143925642153502231e-01 -1.206419056281175101e-02
2.341434843517885972e-02 -2.362259477908110195e-02 2.938738431404791518e-02 3.241045357898052898e-02 -6.743192822880367254e-01 -1.624861332789841878e-02
3.446518200002283983e-02 -2.178978020127276399e-02 2.951875819281374325e-02 -8.665367368761063560e-02 -5.472928338086107125e-01 -1.398571175511739186e-02
9.174149682036218667e-03 -1.733427243225267936e-02 1.533582346827810916e-02 -2.299818889881762585e-01 -8.214878125926270425e-01 -1.027743351695702308e-02
2.573564042494228682e-02 -1.945595665684710790e-02 4.698955918672531595e-03 -3.737543816177877343e-01 -8.571954636555958462e-01 -1.966630507147106716e-02
8.316547147258934736e-03 -1.240896422777463745e-02 4.906381373650831046e-02 -5.186383784897202753e-01 -9.856808105050351987e-01 -2.779863242450902883e-02
2.494863505567834067e-02 -1.763802043895834615e-02 5.458703928419078588e-02 -3.972799947775983165e-02 -6.445266364571506923e-01 -3.243710334655313526e-02
9.858281486293727497e-03 -2.048988612246934252e-02 3.183681841259161649e-02 2.127325041140160425e-02 2.756344250201890334e-01 -9.484732868429842853e-04
3.597900656651431550e-02 -2.645518848284202779e-03 5.751028643514100036e-02 1.687066657474034503e-02 4.454706530393292424e-02 1.261775955236854943e-02
1.746330188561581731e-02 -2.305535504096162952e-02 1.849480966416727767e-02 5.502986389366604225e-02 1.449955578686327740e-01 -1.449890477544523056e-02
2.702710040096746244e-02 -2.127108594349774728e-02 8.596443787603491593e-04 -3.884511645674921382e-02 -6.352008958374169567e-02 -2.217588531670130689e-02
1.610252682306829997e-02 -1.552412024793998688e-02 3.937436708234082205e-02 -1.794653053737001736e-01 -3.365147048422034715e-01 1.058477618400630385e-02
4.704820079651073766e-02 -1.700797368947804672e-02 2.907055687297704916e-02 1.462126492799967759e-01 -2.559002167813616557e-01 -2.103916534804627786e-02
2.122112777870093642e-02 -9.166459904244663587e-03 1.105086631405427511e-02 -2.576427619668473779e-01 -5.497117000927111974e-01 -2.734865581731161024e-02
3.430155859688904102e-03 -1.154002201058021253e-02 3.123304286699501997e-02 -1.708842442864829114e-01 -8.906677669786099427e-01 -3.342005665000331166e-03
2.256574699871762013e-02 -1.669006911613001021e-02 5.916938320874620683e-02 -2.751970981053066811e-01 -6.098487288052215627e-01 -1.858894562452976726e-02
-1.444928486844312965e-04 -2.549920598702959743e-02 2.976216112356278032e-02 -1.416978405091488258e-01 -4.962453324421295386e-01 -2.733229389213332958e-02
1.696386096293105855e-02 -2.164903455970640031e-02 3.456627584346988469e-02 -1.306382558092333002e-01 -2.852670679050994251e-01 -2.121253366519503664e-02
1.645948135809186322e-02 -2.483467108704328491e-02 1.025778969824275855e-01 3.510069998139125902e-01 -1.946654310636981022e-01 -1.584486567385356634e-02
2.675729213857076100e-02 -2.819080626475784987e-02 1.146466339049672101e-01 1.787475938735197389e-01 -7.689997022031519469e-02 -3.915512926106845537e-02
1.418198635513695169e-02 -2.313826334292346659e-02 4.034513332454198187e-02 -2.807031024311144526e-02 -2.012684229723607499e-01 -2.786950973586673971e-02
3.094112327399860252e-02 -1.944481368990756687e-02 5.785781535031053746e-02 1.267970315394986724e-01 -3.880291009155786286e-01 -9.157837257618291552e-03
9.449495670176659423e-03 -1.976864111564844914e-02 7.602898715209033265e-02 -1.070251441339500065e-01 -8.249737771429140054e-02 -2.674752355074705781e-02
2.920699926873789043e-02 -2.428939675701954209e-02 5.477111025687103618e-02 8.964639566406973348e-02 -2.663223164684525579e-01 -1.079066713959850668e-02
1.804720041684491211e-02 -2.694435071335948839e-02 6.531345737324406597e-02 1.326598593317586949e-01 -2.110439200956561734e-01 -1.725899922378739543e-02
7.390961624186374174e-03 -1.771457658098724020e-02 5.311135972523595150e-02 2.031957643144432224e-01 -8.116611280044751242e-02 -1.556132540076271206e-02
1.966141464002801875e-02 -2.259017586815001075e-02 4.062737179081332695e-02 7.281294599402367285e-02 -1.416187292907861439e-01 -1.065164986563094454e-02
5.833156944547137485e-03 -2.925468251048967544e-02 4.391770728225224962e-02 7.041952863297669396e-02 -2.212981553586083616e-01 -1.503615017866932226e-02
1.885665761230160067e-02 -3.009757242153004650e-02 1.802257255686623427e-02 1.085214634680215368e-01 -1.964074880534154577e-01 -1.964028983142794907e-02
1.089995658493179281e-02 -2.833186670809494101e-02 3.236232277641926114e-02 2.964326576956353709e-01 -2.256648843793920556e-01 -4.658339564504837896e-03
2.245054228178514771e-02 -2.629012339263089165e-02 3.022027103784147295e-02 1.922717700829797427e-01 -2.946622323112667585e-01 -1.774084841560543248e-03
3.819343460484611597e-04 -3.014222600745108255e-02 5.261186610355184090e-03 2.640471203701199032e-01 -3.781526168070560301e-01 -4.377558948540112051e-03
1.479036606321706623e-02 -3.554174406515978740e-02 2.396083577546431753e-02 2.712321343874043444e-01 -6.188032032127851467e-01 1.189683877632488141e-03
3.745149803943862571e-03 -4.000792230081796907e-02 1.269966595349658611e-02 1.794719393392819884e-01 -4.848807267667124554e-01 -8.541171942779391194e-03
2.187226701931999431e-02 -4.019654066823946659e-02 2.356085944663605103e-02 3.577239813862568840e-01 -5.067260642382807045e-01 -7.583986878035959937e-03
-9.358711816689423146e-03 -4.020820222258657956e-02 4.253158287774344570e-02 2.352041769765437773e-01 -2.294428873738606489e-01 -9.141962468952411630e-03
7.932660075190996890e-03 -3.961084934242015826e-02 3.542170802184219092e-02 2.782085953955151791e-01 -3.204017854341091598e-02 -1.068545297892493223e-02
-5.043134194505163176e-03 -3.631871748175088260e-02 2.321832721025712809e-02 3.351459208235828546e-01 1.463620737683120898e-01 -1.945879531295046554e-03
1.107942421372022299e-02 -3.620329088087857056e-02 1.565864999109878308e-02 3.021779020716799935e-01 3.809691737231112874e-01 -3.365379344963535541e-03
-1.044786249693011038e-02 -4.490110597429339268e-02 2.046966891889268059e-02 3.584756962241278377e-01 7.573655309917247391e-02 4.823945444970971150e-03
7.753036334735764756e-03 -4.084704049732296172e-02 2.017791688538822514e-02 3.332896508097163979e-01 1.016542335365826916e-01 -2.358723144824758158e-03
-2.035451492791582120e-02 -4.415162920694701287e-02 2.093384788626129200e-02 4.210611888550613857e-01 -6.009975746359364629e-02 -1.209757215391584276e-02
-3.309325112648062867e-03 -4.822193223004303531e-02 5.677577838941294530e-03 3.899018430812308811e-01 -2.066055532208740109e-01 -1.669610567921731362e-02
1.533274616757027836e-02 -3.883807728604126569e-02 2.535622744397370010e-02 4.345383909874965811e-01 -2.750957506481511716e-01 -2.108612897801756883e-02
-2.391797569902317372e-03 -4.797964984048605497e-02 1.870482154704555811e-02 3.301970464715829889e-01 -2.460366444004107866e-01 -1.391353003412921022e-02
1.728889880367319443e-02 -4.461475700855470350e-02 1.461129804727334669e-02 5.708496811740865207e-01 -3.329994258828547493e-01 -9.466275991617123173e-03
-8.264216060290093674e-03 -4.243310286671042597e-02 2.217988164272194362e-02 3.633883789274910958e-01 -5.157462930181864191e-01 -2.522347027329121735e-02
6.904702965601920012e-03 -3.579308537245980831e-02 3.093365784828899789e-02 7.579613101037165068e-02 -3.829199385986949977e-01 -3.828098043726674282e-02
4.086473174568540367e-04 -3.238485073151163574e-02 6.324786589874675791e-04 1.155969413441828159e-01 -6.094420582540301945e-01 -2.888880921835390234e-02
-2.083470702163518762e-03 -4.331718544276123156e-02 2.876944331083430839e-02 3.954808937688059634e-01 -6.768256255095240759e-01 -8.009129019415032330e-03
-2.280430098109194337e-03 -3.890597647014717303e-02 2.934785667748374127e-02 4.785469712817837507e-01 -6.775820726537356009e-01 -2.079432008966744863e-02
-4.059431847891314948e-03 -4.307582218495449589e-02 1.391933640087716917e-02 4.405522679840731537e-01 -6.617457734804511604e-01 -1.715873073866108073e-02
-6.284799157998007674e-03 -5.220877140074729750e-02 -1.154943219388882003e-02 4.147612235295142780e-01 -6.907778587972372986e-01 -8.739235074785816140e-03
1.359775011820275534e-02 -5.003351912421720449e-02 -3.130473360010471717e-02 2.301582639553743370e-01 -8.636549308239245271e-01 -8.937976047497084645e-03
7.098087577525499098e-03 -3.274611873272531559e-02 -1.500843285575248487e-02 1.064756665365623467e-01 -5.745739893538829302e-01 8.710276685695366242e-03
1.959298758415783243e-03 -2.770480108800064956e-02 4.281079536652304673e-02 7.144193910483459531e-02 -6.951540842438171941e-01 -3.015225597978564778e-02
3.809541554411488562e-05 -1.500069931089204230e-02 8.046969096929645904e-03 1.839342854259172766e-01 -5.432523475140690339e-01 -3.486925376805780769e-02
-2.375649135396739470e-03 -2.077019138045225338e-02 2.218688732100942973e-02 3.629410119144959590e-01 -5.859677910120990596e-01 -6.859065510084400193e-03
-9.382223951949365121e-03 -3.680757049896463823e-02 5.068998778776345748e-02 3.626302719651108841e-01 -4.536481056235835974e-01 -2.746589332119400706e-02
8.885919452846304661e-03 -2.784337876693914610e-02 7.998231183100201758e-02 5.603975798798208618e-01 -5.775955111797729247e-01 -3.671730669708995337e-02
2.101601031940052849e-03 -2.952341964757989462e-02 2.202792322267449476e-02 2.423238996877573881e-01 -3.942361524565077824e-01 -2.152263847485059306e-02
-2.017462753146934823e-03 -2.617845165287024239e-02 1.663028349250977866e-02 1.090783446218578090e-01 -3.562649429148732061e-01 -2.909038551659067287e-02
-7.270092542823521076e-03 -4.229153092385565943e-02 1.522077121814302547e-02 1.313407433976249150e-01 -3.120728397388658482e-01 -1.955796369432293708e-02
1.100494317729390492e-02 -4.367648128701907134e-02 -1.735620183654806858e-02 1.941116754472147488e-01 -2.625530694455825986e-01 -1.987326216923344588e-02
6.103964363407803767e-03 -4.455789250261788653e-02 1.387591848102254222e-02 4.203974461153981435e-01 -4.023566371481719917e-01 -2.807943113440967975e-02
-1.742348743698166752e-03 -4.790431718520422183e-02 -8.185139537381092012e-03 3.368306637282647009e-01 -4.175295751859846582e-01 -1.772756208798209956e-02
-1.067738620630382176e-02 -3.854324979146506180e-02 8.834240353548239444e-03 5.129417948144760625e-02 -5.183791902345822322e-01 -2.068625514466541915e-02
6.649001890762590294e-03 -4.019963849265549560e-02 -2.144682243885420725e-03 1.611236149359941139e-01 -5.472158401267882555e-01 -2.471649773933035782e-02
6.527863502996420625e-03 -4.026863705585177755e-02 1.767107755906832667e-02 -1.611613965176923458e-01 -3.500700332269516268e-01 -3.334936627075539561e-02
8.220133670360327272e-03 -3.547436535952595144e-02 1.428161321454274324e-02 -1.529000553687273889e-01 -3.143545141344658012e-01 -2.645036175345118895e-02
2.180444310062444602e-03 -3.458895808254699306e-02 -3.738267377016263326e-02 4.788664304486340423e-02 -2.917597970964421195e-01 -2.590406204246948479e-02
-2.188804436180039059e-03 -3.397004043560741815e-02 -2.414072622967833315e-03 2.431657903115989894e-01 -7.568059472651751662e-02 -1.636037400955353202e-02
1.728244885160490352e-02 -3.417405298783667000e-02 -5.276839518990245059e-02 4.514497758961040219e-01 -1.668083373441558437e-01 -2.080806353160138608e-02
1.584147487432213675e-03 -3.972995152620717452e-02 3.787988473217185348e-02 2.007186742014576697e-01 -8.184566809091204515e-03 1.048891154765974054e-02
-1.453100965007440848e-04 -4.167896259888818900e-02 3.011284404381009416e-02 1.222245178714137168e-02 2.894005771146540562e-02 -1.634217532035596443e-02
-1.200296193007353157e-02 -3.393632748141973271e-02 4.660690195816163950e-02 -6.702957172292338395e-02 9.427966455101187415e-02 -1.991356825327521979e-02
1.026271874376828361e-02 -3.539302536108846625e-02 3.323889415163355787e-02 4.571306645726617990e-02 7.361414377632610750e-02 -2.904641477187591692e-02
7.839440244879907621e-03 -3.966613774348527049e-02 9.697626740785947330e-03 8.039000781588861999e-02 1.156976439383950034e-01 -2.838962399038488446e-02
-6.854958764969502211e-03 -4.103042797770815875e-02 2.763041185084685880e-02 5.818199737946731093e-02 1.868474375662225462e-01 -2.456491904725552344e-02
1.462709126891860445e-02 -3.895858474264603244e-02 3.620853740474383464e-02 -4.080117552701141570e-02 1.000413826658373695e-01 -1.923159813572158580e-02
1.050534797386580219e-02 -3.487248840218242635e-02 1.590903766137291564e-02 -2.590918005947138655e-02 3.816482991953228099e-02 5.218669328998715856e-03
3.635737688609818469e-03 -4.176777929334504758e-02 3.084116608085218925e-03 5.632753856842089013e-02 6.086214274006362945e-02 -1.247616556413999080e-02
-3.234941391325362597e-03 -3.635796939320776883e-02 1.087315118276305226e-02 3.740271794755465479e-02 1.104376963980085585e-01 -1.868649761880027127e-02
1.286029570172210132e-02 -2.903230675964851154e-02 1.222044838809299705e-02 7.587699253374316499e-02 -4.664804769613372509e-02 -2.405866538044208747e-02
5.766616354409729445e-03 -2.473226226311577708e-02 2.907660904578751593e-02 9.318291434216015301e-02 1.442090062411967855e-01 -2.075088464184041137e-02
9.668776705613561090e-03 -2.201684934118241371e-02 1.438434981933567336e-02 -6.617744784318690780e-03 3.392007202555260004e-01 -1.119516000901223801e-02
-2.191593775830537327e-03 -3.743481997388217047e-02 -1.084955861914149722e-03 -8.665395931829655840e-02 2.756075677643790023e-01 2.962950081774658011e-03
1.455249354681628290e-02 -3.820253648319577727e-02 -2.435999934494059715e-03 -1.501295242037386235e-01 2.117399068868517642e-01 5.070415566111322742e-03
3.215180333638132520e-03 -3.412010350705788064e-02 2.843435615158468321e-02 -5.726230906387110887e-03 2.028876838740275301e-01 -7.329401962176635386e-03
5.631517823014388358e-03 -3.744343680840819116e-02 1.480632000289766603e-02 7.835241408413710917e-02 2.143336754058503268e-01 -6.031421218129637100e-03
8.408046554452194843e-04 -4.323797853796829127e-02 7.190262711935346829e-03 1.591743288806118373e-01 1.936329525269847029e-01 1.173389646393917067e-03
1.488004174405988325e-02 -4.155057467656732978e-02 1.162145887464938188e-02 3.584033141544011591e-02 1.832068000543790043e-01 1.200709126430732007e-02
1.585477202514959036e-02 -4.054507278476354726e-02 1.007843231085164826e-02 4.039334551531207317e-03 1.743762571689415619e-01 7.956644967442806984e-03
8.641203040876052621e-03 -4.453966834535070390e-02 1.378533025514766530e-02 5.365041674760807899e-02 1.226662537632390304e-01 1.339384035986740037e-02
2.233101498742105437e-02 -4.745445288119396615e-02 3.131585238255524262e-02 3.815638006337432886e-01 1.495334550327263520e-02 2.463806013585797400e-02
2.627998830045027295e-02 -4.452262092781771041e-02 -5.715724961755558331e-02 3.763239951696800145e-01 -1.917136288742114503e-01 2.910427125282700339e-02
2.086086920253359470e-02 -4.058606735399783449e-02 -3.008199532507499496e-02 2.138753721841505917e-01 -4.909203163921074808e-01 9.793431183656362699e-03
3.148991670831757794e-02 -4.683297371156930344e-02 -1.999650937536207040e-02 -6.488072356518433115e-02 -3.754887335031058537e-01 1.214975944423697099e-03
2.602530244134000637e-02 -3.695117964900573870e-02 -2.597675952588135440e-02 -3.449173724823476062e-01 -5.633003718528147852e-01 1.614654771377857512e-02
2.026106633419561681e-02 -3.264327786241388168e-02 -8.766464795083361849e-03 -2.445965910458302028e-01 -7.988230311709274556e-01 7.507606838476425445e-03
3.582907399380660940e-02 -4.359861793415940878e-02 -7.053904637977392866e-03 -1.243386705212197602e-01 -9.945913303691090723e-01 1.082386147965103303e-02
2.797369033112100806e-02 -4.512417842951586822e-02 -1.769596639059117793e-02 1.298269495916185567e-01 -1.295472590896072695e+00 4.941863271870948829e-03
2.847305082227404027e-02 -4.033152344119853017e-02 -4.009106939942730374e-02 -2.983577570306943441e-03 -1.376582581528988491e+00 -1.840008054608009355e-02
3.136446989109177574e-02 -4.757153313796608912e-02 -1.800449609700294218e-02 -1.885895290876480890e-01 -1.060849430477818878e+00 -1.542319250944477159e-02
3.368796843222112564e-02 -3.930736077760161457e-02 -4.045825842538114392e-02 -3.034092095096980191e-01 -7.122527014900091880e-01 1.549595267587255444e-02
4.657877061907959165e-02 -4.369157540940728224e-02 3.891752583765673013e-03 -5.579714144791703134e-01 -1.251682424279822792e+00 -1.073836841030983459e-03
4.853732701538308880e-02 -4.883825880004295100e-02 2.876771834667474215e-02 -5.727411878440250570e-01 -1.483747034158960032e+00 -7.616546466969187357e-03
5.033764866245861447e-02 -4.603647495329003803e-02 2.948718354883672621e-02 -8.208456617469470640e-01 -1.282140124775974499e+00 -1.662496323474123641e-02
2.493782949192425991e-02 -5.144048664853360930e-02 -1.560687519167247572e-02 -3.450006675444768911e-01 -1.209880639149379045e+00 -3.550832589240470512e-03
3.903187220140476310e-02 -4.957618305623134880e-02 -1.696900719559579773e-02 -2.659984030420193823e-01 -1.131224266024965841e+00 -1.008902666102478619e-03
4.776098334749377672e-02 -5.798438208655425086e-02 -7.342679063476020840e-03 4.549600054947113004e-02 -1.536175337999887702e+00 7.739229913857505541e-03
2.067939669212734421e-02 -5.891252099247838714e-02 4.912326019587537340e-02 -4.340334204932573270e-01 -1.529418401241143366e+00 -2.554622475798620437e-02
3.381480991471793457e-02 -6.708936061093180581e-02 3.023449334550842860e-02 -7.387672003973035952e-03 -1.359830966146939435e+00 -1.849536993593196149e-03
4.901815114424439707e-02 -5.862913241725061647e-02 4.807869279515836203e-02 2.977503644388412168e-02 -1.244665100053252704e+00 -1.220748034471574048e-03
5.115001117730356983e-02 -6.779180090510808498e-02 1.912123094845319393e-02 -1.184274509522421359e-01 -1.093710020556316387e+00 -5.787538561248726371e-03
2.881199293444509230e-02 -4.982216699348950006e-02 8.628755176720243059e-02 -4.816913807719507279e-01 -1.359122258012473772e+00 -1.167378888422736932e-02
3.768094741828840327e-02 -5.159291434708774410e-02 7.147118847351618953e-02 -7.054293860497520274e-01 -1.827946691794620770e+00 -1.822196852661710220e-02
4.278050179853867124e-02 -4.426329556672882470e-02 1.155841532621141865e-01 -7.151170347865510868e-01 -1.913493907334609112e+00 -2.566965440590328329e-02
2.179365245363661108e-02 -5.081419728978404243e-02 3.665233793252370420e-02 4.162236574177899384e-03 -1.265364654062760774e+00 1.380402779917714456e-02
2.334710443769751412e-02 -4.533155917522967149e-02 4.769276745755851588e-02 -3.239384018212210226e-02 -1.088921685778166282e+00 5.474287382845604601e-03
3.667478932336416114e-02 -4.559300947246811703e-02 3.628232743675136041e-02 -2.060921828750758578e-01 -8.490704873854724166e-01 3.986296316107949995e-03
3.958884903575488057e-02 -4.305643164671246054e-02 4.738972093107607364e-02 -4.189495077837784853e-01 -9.059250141962383873e-01 -1.546404464598903454e-02
2.428365978445113510e-02 -2.879937613983258454e-02 5.233790409527966370e-02 -9.088711760744199175e-01 -2.266267592273156328e+00 8.649301760235083084e-03
3.484331873387428585e-02 -3.300206639679356679e-02 3.834357092703077896e-02 -8.006391476325460665e-01 -2.899278191628372525e+00 1.182159471248512769e-02
4.490958774841598278e-02 -3.794373414424465074e-02 3.144177174608286940e-02 -5.594598609096295139e-01 -3.006125048301097280e+00 4.126761339076527764e-03
2.179825733248302866e-02 -2.483325249581474700e-02 3.958701122382501936e-03 -9.721453328523289583e-01 -1.500190093220215015e+00 -1.860856664236772498e-02
2.960858081028774902e-02 -3.319548509266593422e-02 -1.268341655459509498e-02 -3.965525389475764162e-01 -8.152264101839508115e-01 -2.481528363423180991e-02
3.377195957477735488e-02 -3.661321889232888038e-02 1.009341417209369540e-02 2.110446616873381254e-01 -5.423593611696682082e-01 -3.302953579904325393e-02
4.184387702236812279e-02 -3.672393361283449176e-02 3.245019124755499362e-03 5.089146202310861344e-01 -1.101505037942210441e+00 -2.568456250211976349e-02
2.965644525061646164e-02 -4.049356918315970971e-02 -1.369117407507014494e-02 1.190805783543415375e+00 -1.310472370455037838e+00 -5.042379790538750392e-03
4.647029858595371626e-02 -4.151319404840793370e-02 5.909859219854429746e-03 1.167920090792269550e+00 -1.961371936623315104e+00 6.130288436512120950e-03
5.806353709737002017e-02 -3.817450228959372305e-02 1.092852809051636509e-02 9.933731329159524170e-01 -2.268920763846333788e+00 -6.615569967959615202e-04
6.592021223695487819e-02 -3.767455394993489415e-02 1.949204727927222880e-02 6.572427105285194582e-01 -2.168688763530434382e+00 4.684206118814378153e-04
6.265236319193573378e-02 -3.763430063831770672e-02 -9.155730065667500028e-04 2.023401107674633603e-01 -1.806106595991703090e+00 -7.524784556846983094e-03
6.251154938480152357e-02 -3.225696135300179512e-02 -1.108678400210211246e-02 -2.070546344263929361e-01 -1.339868240235934094e+00 -1.006884245250123759e-02
4.095294609119345952e-02 -3.456928743289298944e-02 2.230530150030329839e-03 5.743781220713671809e-01 -1.616247778541813229e+00 -2.005260191995953886e-02
5.154310879665847944e-02 -3.860551661297997872e-02 8.672707593640305301e-03 4.565249686183102118e-01 -1.772344468776733351e+00 -2.162485253466659221e-02
5.650678814303981140e-02 -2.985366578252975078e-02 3.488352714249182140e-02 3.466467291554712338e-01 -2.016093844026253024e+00 -1.613294613310279138e-02
5.961244338567631834e-02 -3.233387707684930862e-02 2.585452995253284536e-02 1.106988944730374069e-01 -1.940889128699151644e+00 -2.600100740895062990e-02
6.171243396693001926e-02 -3.113542341347142958e-02 1.439789678560648989e-02 -2.521418197614742063e-01 -1.727972275931318746e+00 -2.108082560762133961e-02
6.379634402032394180e-02 -3.111644063658291354e-02 -3.123449860041138670e-02 -5.649487681382794335e-01 -1.297707863119149430e+00 -2.236519247610556371e-02
6.160100924178822657e-02 -2.784622413410671807e-02 -4.736019354865045328e-02 -7.401195233418241815e-01 -1.094510081890013531e+00 -2.515596634226388920e-02
5.272072281238655844e-02 -2.521256823530060309e-02 -5.375847654490489846e-02 -1.113185733175662273e+00 -5.256383384479162979e-01 -7.661746651678589225e-03
5.550882735306889026e-02 -2.275476082611519596e-02 -5.050617694578485306e-02 -1.218099960178398389e+00 -7.304625042585066730e-01 -1.128971385008466395e-02
5.618647047054908805e-02 -2.864126855952721026e-02 -4.318323420042624594e-02 -1.271648332340771681e+00 -8.929074093334049556e-01 -1.472321907347711074e-02
5.691180195991582536e-02 -2.912068000856720892e-02 -4.461017006178769062e-02 -1.315222075921182121e+00 -9.157384110141817413e-01 4.615494698645255731e-03
5.812834919325637895e-02 -2.770329551321598638e-02 -4.809497976580706657e-02 -1.353042798581521877e+00 -7.736351074650309467e-01 -1.214832113991093018e-02
6.196551148586858238e-02 -2.994861860057593597e-02 -5.002522865976910538e-02 -1.372584963355246934e+00 -6.022394942949553798e-01 -1.194352392120087356e-02
6.531585239078510630e-02 -2.627414868466667816e-02 -5.134485603105876095e-02 -1.406695059431997574e+00 -5.435890379494460189e-01 -2.474967997820125276e-02
6.465686547431992448e-02 -2.490066467870879000e-02 -5.685309028527874009e-02 -1.436203545183053709e+00 -5.717342618350743644e-01 -1.869704437881657827e-02
6.477359269464041946e-02 -2.832839787303601323e-02 -4.344827970190678901e-02 -1.507701998292105383e+00 -5.858572792668436113e-01 -2.509045693799363819e-02
6.860494365530886429e-02 -2.731938922385448998e-02 -4.868465542019606573e-02 -1.584769778439034660e+00 -5.616278991146441690e-01 -3.713758234908996064e-02
7.362080943860188631e-02 -2.870466107823327340e-02 -5.268821492576669652e-02 -1.596709044652563581e+00 -4.745731686988962639e-01 -3.002948582829515281e-02
7.309257627953336112e-02 -2.872404225963719887e-02 -4.907688467000248522e-02 -1.594645603047725180e+00 -3.935186642599939333e-01 -4.220081171119664798e-02
7.466323256095966365e-02 -2.550659680413946279e-02 -5.307147390187955116e-02 -1.620586789719648202e+00 -3.710355938270719078e-01 -3.408539842818582993e-02
7.311157030395147582e-02 -2.341303168123524958e-02 -5.489146354745094714e-02 -1.697017449729541605e+00 -3.946409947078781122e-01 -3.585533748731324633e-02
7.980430693423384847e-02 -2.444704863061612776e-02 -5.305532864498663237e-02 -1.750638115117892246e+00 -4.400159071468805472e-01 -3.662896898174666793e-02
7.536707024090992524e-02 -2.386781902462631333e-02 -4.937927235091832401e-02 -1.784640383621705739e+00 -4.611838404235448774e-01 -3.816080966939307262e-02
7.851208315458782505e-02 -2.351288694360560011e-02 -5.657977445973361164e-02 -1.828267073682660504e+00 -4.592904163389401329e-01 -3.924248117911017381e-02
8.158096444799997626e-02 -3.155140349336021249e-02 -5.878230788040117449e-02 -1.854034472550273094e+00 -4.292036263120690420e-01 -3.826810863596391554e-02
8.389043003919141595e-02 -2.510575223395227970e-02 -6.369013073184653928e-02 -1.853009374197268411e+00 -4.349405965403839724e-01 -3.793957823261626117e-02
7.796777372861082855e-02 -2.576742145393141892e-02 -5.825734607508525897e-02 -1.842779131171436990e+00 -4.076598034531827008e-01 -3.900581924398040939e-02
8.352814737011308999e-02 -2.341337433936849233e-02 -5.612583875444254744e-02 -1.842791885376876770e+00 -4.080716658849763423e-01 -3.877843432905669213e-02
8.525250118143654077e-02 -2.133639753517448459e-02 -6.019962833347181075e-02 -1.854133004875107460e+00 -4.081181943068140083e-01 -3.165966761297431264e-02
8.643061277781785567e-02 -2.318153445056140086e-02 -5.350458314377060098e-02 -1.835663443117762528e+00 -4.073614782423070069e-01 -3.460174354463312063e-02
8.354520716771406119e-02 -2.265809969330095236e-02 -5.670860367224500598e-02 -1.874085245928911014e+00 -3.926399058286728638e-01 -4.406567910994756837e-02
8.241285424837377360e-02 -2.554075688895810978e-02 -5.410644693556293516e-02 -1.912677325266410655e+00 -3.891974067782489333e-01 -3.699439201419720685e-02
8.400298664865812892e-02 -2.296450367991823699e-02 -5.427698939306480064e-02 -1.936054510053283551e+00 -4.030279216883223548e-01 -2.555730603196016207e-02
8.468801064912047372e-02 -2.699018055617109085e-02 -4.882772228960752248e-02 -1.921098213261143384e+00 -4.011468387341847186e-01 -2.391390642811417125e-02
8.326265070762431386e-02 -2.540858523737733743e-02 -5.585447576676810799e-02 -1.913966410014327879e+00 -3.780987973466310437e-01 -2.572632201885880626e-02
7.575022414592277875e-02 -2.410384486106315408e-02 -5.451223848617708923e-02 -1.901785128235549571e+00 -3.781168676260922568e-01 -2.864094670756393846e-02
8.403759811436559146e-02 -2.247836575201828113e-02 -5.432854182240964835e-02 -1.910214856491593949e+00 -3.803846143155991122e-01 -2.499522870626283422e-02
7.075426435590440044e-02 -2.745077173888003236e-02 -4.821986797260946478e-02 -1.912358232124629298e+00 -3.891759231841906419e-01 -3.453465351663275590e-02
7.465393309412485245e-02 -2.711939106649920855e-02 -4.831201584258004722e-02 -1.916388327935742764e+00 -3.968211285398063337e-01 -2.939818387540179753e-02
7.993730041049347534e-02 -3.236575708688402275e-02 -4.872408662642435662e-02 -1.914010977495158583e+00 -3.911417578640491999e-01 -3.157675626407839553e-02
7.562214433510573708e-02 -3.142217024043190976e-02 -4.811246649533934550e-02 -1.904559777879269999e+00 -3.770273144093536088e-01 -3.382885019974735119e-02
7.834456238374139236e-02 -3.053861976346862461e-02 -4.650057466688595209e-02 -1.913585845444731648e+00 -3.865159794865837273e-01 -3.356594059117527090e-02
7.958842190674322858e-02 -2.473069809387958007e-02 -5.598722043539572368e-02 -1.900224176733457782e+00 -3.786160232451022400e-01 -3.767103600596625329e-02
8.166677150475069868e-02 -2.855238235589236187e-02 -5.439210108149128420e-02 -1.901166961653197651e+00 -3.806768972182804078e-01 -3.334864121767158046e-02
8.650575743216833147e-02 -2.547886864346375624e-02 -5.212504678330781571e-02 -1.904225807783648028e+00 -3.972803941798480620e-01 -2.567524435141214575e-02
8.553613998357623149e-02 -2.647136734404985717e-02 -4.977145617363459840e-02 -1.907211796912255508e+00 -3.823201815391685798e-01 -2.932829100144457302e-02
8.560664813357196645e-02 -2.407783463973300550e-02 -5.595706280672019250e-02 -1.909175330370221024e+00 -3.973372404030740546e-01 -3.560761985060134638e-02
8.412192863050049763e-02 -2.026912737853877114e-02 -5.162026364229699293e-02 -1.913598138807137916e+00 -3.873357578437788828e-01 -3.826266627821141991e-02
8.111850890918693990e-02 -2.142297175858731695e-02 -5.205764741610408031e-02 -1.909321476066639711e+00 -3.862329458384909375e-01 -4.371470806326543945e-02
8.799021968723252929e-02 -2.827170056384547409e-02 -5.016384524910622034e-02 -1.909891116888507545e+00 -3.821240186364445734e-01 -3.761452266045157283e-02
8.315682671743510057e-02 -2.576345258770949831e-02 -5.084349344014787997e-02 -1.908090115127164532e+00 -3.821297865744316402e-01 -3.606040474376210475e-02
8.366245414674577940e-02 -2.758594367549024526e-02 -4.588777137351895963e-02 -1.909999329137434421e+00 -3.811574324507390754e-01 -4.416708848141107785e-02
7.740969104891487484e-02 -3.221187639657305257e-02 -4.813506391640648419e-02 -1.898360953173070742e+00 -3.833423440096583867e-01 -4.593881442414125132e-02
7.688748196716864436e-02 -2.689998072335858179e-02 -5.055362825834291973e-02 -1.911257136815095459e+00 -3.969581158513276753e-01 -5.302885305575261166e-02
7.775080716828196292e-02 -1.650036137812371101e-02 -4.931185182138997369e-02 -1.914984630830612211e+00 -3.936749897970233669e-01 -4.028881144040903639e-02
8.228530647135537390e-02 -2.415227904601314340e-02 -5.253833796182871829e-02 -1.907818344377182340e+00 -3.949730096504208698e-01 -4.389838395333887228e-02
7.955207942518463526e-02 -2.500432493303909182e-02 -5.407940601801758396e-02 -1.898150787208975343e+00 -3.799120444701025723e-01 -4.406400885856389532e-02
7.923130149143950418e-02 -2.325491166637446566e-02 -5.817438832662319426e-02 -1.896273480434518266e+00 -3.847217888793297846e-01 -3.880452557124144247e-02
7.823497818036104223e-02 -2.464782557271327085e-02 -5.348122672557292789e-02 -1.904201205840284405e+00 -3.773364651033301320e-01 -3.748665656695227694e-02
7.854415796436249597e-02 -2.310760707973964767e-02 -4.923361045811397441e-02 -1.896701483519502629e+00 -3.811662493140798857e-01 -2.982590827932818725e-02
8.318668681028455747e-02 -1.591815008561957290e-02 -5.021261156770068235e-02 -1.904329780132864469e+00 -3.914509603162850127e-01 -2.209657550374572246e-02
7.947345742042016825e-02 -1.654859274196698524e-02 -5.601887722168302775e-02 -1.901689409963727595e+00 -4.004736497686607888e-01 -3.380804762139932168e-02
8.303391370977043773e-02 -2.231059229201901722e-02 -5.356255333287379683e-02 -1.899270807738284716e+00 -3.851340116195492436e-01 -2.023825948887754411e-02
8.276047970707364754e-02 -2.230903537815624380e-02 -5.975117893067771746e-02 -1.895436972993836955e+00 -3.919954024408917048e-01 -2.453992314432195190e-02
7.802205554590606329e-02 -2.583332006065785363e-02 -5.860258423428571506e-02 -1.886328560256447906e+00 -3.821305532456315546e-01 -3.468875703757817730e-02
7.907775997921159816e-02 -2.752551479731030204e-02 -5.980761403985540570e-02 -1.887011507713369118e+00 -3.834008123677940527e-01 -3.610066235809458735e-02
7.544135920333983059e-02 -2.594256489121692100e-02 -5.573360380576863893e-02 -1.896907674021713675e+00 -3.798627822054298497e-01 -3.793357674444464145e-02
7.803249922082211576e-02 -2.356312421323439668e-02 -5.584760212621359132e-02 -1.887804662127197552e+00 -3.725324595182419873e-01 -3.276336708127680630e-02
8.013710744771762595e-02 -2.497185900383903229e-02 -5.234828347742032095e-02 -1.884058863965256458e+00 -3.735983206930935108e-01 -2.833490143738367356e-02
7.925774307102341487e-02 -2.402121265463983552e-02 -5.703980661759044946e-02 -1.890136269471385022e+00 -3.835941455106814391e-01 -3.008731617350876922e-02
8.346188812461799444e-02 -2.862384589341657182e-02 -5.209005741362787711e-02 -1.886199586023318719e+00 -3.820207460717059411e-01 -3.196828125796635778e-02
8.287243953997136536e-02 -3.080293006870636618e-02 -4.835347172362536305e-02 -1.876318891826537438e+00 -3.814385935974630160e-01 -3.050248596595783040e-02
8.133208329789751168e-02 -3.028133912112775106e-02 -5.155478340543828697e-02 -1.884707345456447802e+00 -3.935922631626592727e-01 -3.005464691205133806e-02
8.515359592569085589e-02 -2.739809997686970186e-02 -5.205649121141736613e-02 -1.893767089686808625e+00 -3.810609719342192836e-01 -3.597465664612185116e-02
8.461386821511096556e-02 -2.678427142365048114e-02 -5.910829356840902049e-02 -1.880720065419973608e+00 -3.883388381745320195e-01 -2.424769642286338928e-02
8.201299453471208589e-02 -2.300314971878076806e-02 -5.344505142911354367e-02 -1.893661712302023847e+00 -3.874483861254683359e-01 -3.031439460420438936e-02
7.840185802452859232e-02 -2.391941710421571776e-02 -5.501307932970866954e-02 -1.882809836943084347e+00 -3.781284808591505731e-01 -3.275614186016461565e-02
7.657279682376588736e-02 -2.447302448290906637e-02 -5.402043591191824090e-02 -1.878964110590055858e+00 -3.911954747564405643e-01 -4.228527824496535609e-02
7.696539293272328108e-02 -2.615060191485531552e-02 -5.222893342476797596e-02 -1.882094047101581680e+00 -3.749786844196898450e-01 -3.991464120813222743e-02
7.732193414736764081e-02 -2.554300436958010373e-02 -5.655783299856304014e-02 -1.886856607331841129e+00 -3.757282011822533629e-01 -3.798212155245143246e-02
8.168742865200107062e-02 -3.072643811415362580e-02 -5.531889750074597822e-02 -1.889321516401444523e+00 -3.918235909150175611e-01 -4.007570169747193267e-02
8.073697269356229500e-02 -2.486079644534483837e-02 -5.055843869704546023e-02 -1.884793357916795475e+00 -3.908727255644254828e-01 -3.601295138545317076e-02
7.860619080554158422e-02 -2.278870705878018391e-02 -5.218288064960852068e-02 -1.896942045467450821e+00 -3.897268720326793612e-01 -4.227486220308533660e-02
7.990894323579157688e-02 -2.837719860293539537e-02 -5.519176697960598288e-02 -1.883712894482968858e+00 -3.825165331138004610e-01 -3.897762757747660900e-02
7.833988624773116638e-02 -2.194517044585299337e-02 -5.421667321975570664e-02 -1.888585820256113434e+00 -3.872606585180982108e-01 -3.115790640948313400e-02
8.115494807618439665e-02 -2.561771341587664591e-02 -5.146441073219348850e-02 -1.892095519881404231e+00 -3.821140583835554438e-01 -3.201135537149108617e-02
8.212760989500600406e-02 -2.462736375371523193e-02 -5.252977582609108520e-02 -1.878784136850726094e+00 -3.845307536588820629e-01 -3.373379826388031577e-02
8.388045232937295370e-02 -2.717465795905986414e-02 -5.568031582956073366e-02 -1.884559314378166039e+00 -3.908981011532975391e-01 -2.225628553667547554e-02
8.058753013960642808e-02 -2.617511333533102322e-02 -5.345993003000781840e-02 -1.887475454723675616e+00 -3.878620345206058584e-01 -1.985217965839157148e-02
7.976644168639909771e-02 -3.018657029848674164e-02 -5.288319028842830560e-02 -1.884781305603367763e+00 -3.802950262693211014e-01 -2.331884554943542201e-02
8.078851554760238529e-02 -2.826022058346600030e-02 -4.553594375711450537e-02 -1.891601503024702868e+00 -3.930813409017541726e-01 -2.021709452069344465e-02
8.460760842549350236e-02 -3.010086257008224436e-02 -5.190992482622897031e-02 -1.887440730729886162e+00 -3.921422594497080416e-01 -2.056974375258072141e-02
7.851246727021238270e-02 -2.929933922598610199e-02 -5.481063742447783715e-02 -1.879811881967935028e+00 -3.891831033793759498e-01 -1.983274904585687753e-02
7.723409677840128995e-02 -2.899299608835820621e-02 -4.905776732028588327e-02 -1.880032281072441691e+00 -3.791180732016993793e-01 -2.697025265876723185e-02
7.547142506665766026e-02 -3.124041645170449327e-02 -5.379068337121201138e-02 -1.882119681135137501e+00 -3.776512658981636128e-01 -2.758937626124780343e-02
8.231066804504122425e-02 -2.785576495229468569e-02 -5.553312306458857428e-02 -1.883845693096531271e+00 -3.776206897665598805e-01 -1.685235951151858869e-02
8.207175940265479253e-02 -2.750532056920642829e-02 -5.232906236062517813e-02 -1.895510018122145812e+00 -3.732245796818679517e-01 -1.906594719674700386e-02
7.872624764374297479e-02 -2.620180757950619360e-02 -5.029871804279778535e-02 -1.895984209355764172e+00 -3.861020708798962309e-01 -2.487653371378076295e-02
7.979368344820345071e-02 -2.743143452820507797e-02 -4.991029723242551563e-02 -1.884046374442279737e+00 -3.926691369143380239e-01 -3.533294780840262606e-02
8.088242895474988259e-02 -2.375294434711590005e-02 -5.511224710696582818e-02 -1.882902875207248306e+00 -3.910607648542510084e-01 -2.517285632317054975e-02
8.048728523725640072e-02 -2.917117906970880317e-02 -5.667981419135009746e-02 -1.892790747534464080e+00 -3.916146248008727238e-01 -3.620829598972165331e-02
7.963827334791979962e-02 -2.301977153450296062e-02 -5.681243295494176060e-02 -1.881474213271506990e+00 -3.870094184488174216e-01 -3.082873600632498809e-02
8.131256887263263455e-02 -2.175094128902964330e-02 -5.623020932680750095e-02 -1.888588480028303707e+00 -3.908818132516239663e-01 -3.724185078579499847e-02
8.141893958957258093e-02 -1.735001598917293095e-02 -5.165057919378057694e-02 -1.888789664219082232e+00 -3.805094897249912678e-01 -3.058641627861394263e-02
8.150610172463146341e-02 -2.163820030220907353e-02 -5.986235944368895057e-02 -1.883352309272692038e+00 -3.775431987123299415e-01 -3.744916054054035076e-02
8.291418279531201363e-02 -2.345769427181968944e-02 -5.831843066772540718e-02 -1.881416228539144919e+00 -3.840960098070159146e-01 -3.384232820430651406e-02
8.562706135088776760e-02 -2.852367760497291280e-02 -5.256298387743008060e-02 -1.870859471330391210e+00 -3.882054144937187035e-01 -3.737993772329267772e-02
8.599248724722749482e-02 -3.223830275477258811e-02 -5.751987125770213760e-02 -1.876550322390392322e+00 -3.987115744347820567e-01 -3.008133003195476857e-02
8.440682110412833783e-02 -2.955394643481874806e-02 -5.485879355570971727e-02 -1.879721525890611034e+00 -3.993011788303831855e-01 -3.056895763812471009e-02
8.326327216314910462e-02 -3.043797247294745267e-02 -5.380636235529467903e-02 -1.886202199511174848e+00 -3.916389952242408379e-01 -3.475220793412637371e-02
8.317826704601471999e-02 -2.515196430051767559e-02 -5.291823239378617982e-02 -1.896848639258101210e+00 -3.892029864750041201e-01 -3.752208576293851461e-02
8.220237897743604139e-02 -2.344645639061926357e-02 -4.779232986961140517e-02 -1.898074601013897356e+00 -4.027045049872617355e-01 -3.686383623088378830e-02
8.329918037628883387e-02 -2.459639390023652533e-02 -5.415703844739194750e-02 -1.890463935992449773e+00 -3.945890848026301634e-01 -2.576925815986923912e-02
8.417657326809101226e-02 -2.510907408538960717e-02 -5.438641146497635859e-02 -1.890847037359791649e+00 -3.883035739114688578e-01 -2.474489016671465105e-02
