2.217866696977994698e-02 3.665298842159473575e-02 3.471675083444103471e-02 4.094474392633898896e-01 1.226153266484085874e-01 -3.757615031779688863e-02
1.554993529889796625e-02 2.551013431268726178e-02 4.068173099074917642e-02 2.476320965908611615e-01 3.426189119603852973e-01 -2.580034063698385255e-02
1.453351610681567763e-02 3.933317465624920628e-02 -9.579577444715103862e-03 -8.001530783987299833e-02 5.124286134444698826e-01 -1.757920607081643258e-02
9.118930936338979359e-03 1.872060570730698509e-02 3.923304411448763629e-02 -1.622933979374364954e-01 3.915582348969459670e-01 -1.082557962404896885e-02
9.932889050725045993e-03 3.096553581465790600e-02 3.467122290977259214e-02 -8.452073278952844382e-02 6.553601145782974591e-01 -8.322925884897617102e-03
1.084579746266730108e-02 1.855432685858319358e-02 -4.819545520565315933e-02 1.895016412919992288e-01 4.932216414040645480e-01 -9.431297428162984178e-03
3.365477347726984758e-03 2.042002039531508328e-02 -2.971775286166311592e-02 6.242669531420633744e-01 1.309706106024916439e+00 1.218470205918822068e-02
1.170841842376719316e-03 1.192594830186157785e-02 -4.473671320288868936e-02 7.115027030556985155e-01 1.314841971062553849e+00 1.546616190727341349e-02
1.990234493517005140e-02 1.987992138407380233e-02 -2.996145332873201284e-02 4.749278057860308877e-01 1.057787724313000277e+00 2.669460799296322073e-02
1.879831834587533668e-02 1.990920877881440301e-02 2.785153589383898565e-02 -1.355162355703441457e-01 1.368807375942325155e+00 5.910772644726036132e-04
1.203798750589345559e-02 2.806858280276956427e-02 -1.116289714062801419e-03 -1.952384273930813929e-01 1.468200523697784865e+00 -1.858373463661685404e-03
1.550813876385702395e-02 2.406684836089996449e-02 -2.935820304897324151e-02 -4.428943702887026823e-02 9.246750500729378208e-01 -9.326439274336019783e-03
4.319117257201569859e-03 3.929106939916833519e-02 5.583619605924700080e-02 1.760848103760632999e-01 1.127739388248255370e+00 -5.335802417094706596e-03
6.382417619379503887e-03 4.146652497652630887e-02 6.246997603540804800e-02 2.882230211313995816e-01 1.167307501697595784e+00 4.789981158950160881e-04
1.945303174320754669e-03 2.829210917243078424e-02 4.629785515764089920e-02 1.485855755926184518e-01 1.097605773204312740e+00 8.691088504490832381e-03
2.520184589986373958e-02 2.225126927347084380e-02 3.827626509400305910e-02 4.207006903920355173e-02 1.058296394329116374e+00 -3.030374635999969445e-03
2.320620531740761813e-02 2.008999814595970740e-02 3.398759535703405055e-02 7.680142613824968156e-02 1.091419941803472238e+00 2.926965359907724405e-03
1.178994756745619515e-02 1.095383730075985725e-02 2.741230425303170515e-02 1.566945244113983615e-01 9.503941639641287908e-01 2.196515596912655341e-02
1.668661375199928174e-02 2.434461118488041170e-02 2.432136877882162818e-02 1.426716904077952597e-01 9.496600066373280802e-01 1.689244322381451904e-02
4.983994440458262148e-03 2.429713497212743906e-02 3.960886097065574596e-03 -1.748901337090455130e-02 8.984692389835987614e-01 3.148734990323462379e-02
2.301293992936645494e-02 2.635026517275479777e-02 -1.274349693265608430e-02 -1.672816878153909059e-01 7.382833056874086308e-01 3.214320751022371053e-02
1.734531429118440354e-02 3.067148622743432265e-02 2.726773073365645894e-02 -1.468819026135080759e-02 7.516827505754074545e-01 1.873162351076037777e-02
1.848510579969273385e-02 1.488812299227478507e-02 3.366687715766630840e-02 1.454974247470618431e-01 7.321872116455722113e-01 1.442452100346836019e-02
1.274447351774590786e-02 2.014875214098551387e-02 5.124482055183293694e-02 2.439677641041196055e-01 6.086439869002022718e-01 1.767820064177510336e-02
1.770530703099862727e-02 1.835747536739277402e-02 3.350766148303829794e-02 1.372001871549297092e-01 4.643176300422007241e-01 4.132318671377220587e-02
3.287229956362400229e-02 2.166029722113267664e-02 6.336905464701614310e-03 -8.057745373771228736e-02 4.120404392892315082e-01 2.165189749781446654e-02
3.409102573902145217e-02 1.486158257189779293e-02 4.104873645432438600e-03 1.219718079107129788e-01 4.900903525632184232e-01 4.185744835315172857e-02
2.983375059284791228e-02 9.751301322993880319e-03 4.107964505715600012e-02 2.411199730027089871e-01 2.925515065871028275e-01 3.583137518449970582e-02
2.798412715374815757e-02 1.133812087805776032e-02 3.083626529213245870e-02 1.875795533835047657e-01 1.079298086974300880e-01 5.009612371827670829e-02
4.098023643839183994e-02 8.606308149023050857e-03 4.067517844909190883e-02 7.666157210022976620e-02 1.417794293862456589e-01 2.538941425789655384e-02
3.562166713097508070e-02 1.758718382386049300e-02 3.203191988289938452e-02 -1.622966618890836210e-01 -7.299809805958454301e-02 3.739524342215497232e-02
3.244867465319541122e-02 1.187941138237462793e-02 1.823136801496627601e-02 -5.382255987784598239e-02 -2.005322063593888149e-01 5.150912024064369793e-02
2.982330785489339595e-02 1.497158356889584548e-02 3.580159596013543499e-03 1.319682352919171464e-01 -8.758938542256261561e-01 4.390956840353248125e-02
3.631009989586936326e-02 1.063538494997397221e-02 1.238240767744042126e-02 2.624376145322100395e-01 -1.248887218571309798e+00 3.620506739652815803e-02
3.699914159008410586e-02 7.032546886059078302e-03 1.611167868377705314e-02 1.330821066970711564e-01 -1.119478809446907697e+00 3.513135927054013979e-02
3.389569696670474697e-02 1.125391385722935428e-02 -5.226652680488219627e-03 -1.768430286833677645e-01 -1.014870915358890846e+00 3.701119611105568863e-02
4.582364325955618628e-02 6.081515527156324680e-03 -3.074322626199865738e-02 -5.031622649111050505e-01 -1.206764020476561061e+00 2.215831761776675818e-02
4.415836774661565517e-02 1.233228297487329837e-02 6.853251113687974794e-02 -7.480026958881673682e-01 -1.666354020534565272e+00 1.315442635222031052e-02
5.479871860096052760e-02 5.294142591867218375e-03 1.060995040575407611e-01 -9.307117299304837887e-01 -1.524686736280627564e+00 -2.347254645670168380e-03
2.655668791990817984e-02 2.031731964025828077e-03 9.778578889183753287e-02 -4.482897484386451636e-01 -1.509764739560258473e+00 4.872938006911408347e-03
4.869593566510808241e-02 -1.001733721452344010e-02 4.707726858314620344e-02 -1.676939543081748529e-01 -1.345437992337070732e+00 1.296707384419050653e-02
6.563699554578976414e-02 -8.032335699533493453e-03 4.131856055142629769e-02 1.844145523003546672e-01 -1.475574329547329366e+00 3.178858078903722822e-02
3.021680807746327663e-02 -8.451285440060561996e-03 6.092703862435511208e-02 -2.607492921096246086e-01 -1.165887150326890165e+00 -3.213244360849576431e-03
3.733405587654708285e-02 -1.274885463895162295e-02 8.742418437663812547e-02 -2.080924439336495277e-02 -1.151368825989360856e+00 1.045313984178456151e-03
4.826006929542409063e-02 -1.230160994311182455e-02 8.058288753009307248e-02 -9.804074376488008946e-02 -1.008771361165382130e+00 7.459197382757991627e-04
2.176952985344680902e-02 -1.033864395358918831e-02 1.107671191919670783e-01 -3.568853958383008118e-01 -9.849704526626968937e-01 -2.448242399389318966e-02
3.374056087085928329e-02 -7.102610559010551911e-03 1.670354374353013593e-01 -5.039728728501158272e-01 -1.486853424613500563e+00 -7.654182208615409495e-03
4.867816755651194205e-02 -1.132943549703926620e-02 1.221506925855616599e-01 -6.091135871367241439e-01 -1.654617838935124041e+00 -2.616676530076867562e-04
3.056292008990001141e-02 -7.810346957573193610e-03 7.546159173365613038e-02 -6.296827850853353725e-02 -1.302586270744220620e+00 1.442825476053883130e-02
4.120101063193871982e-02 -9.402407347425489198e-03 6.113499411314388121e-02 -1.065729003878136544e-01 -9.539746283823734574e-01 1.877572547210400178e-02
4.125782158324028948e-02 -3.429948667572344997e-03 7.558228235225633584e-02 -2.266050170654219376e-01 -2.807575565380043825e-01 2.971273944159120300e-02
4.591368061750861207e-02 -5.402732586059414907e-03 8.885372823145154531e-02 -3.309436507785920578e-01 -6.747726042496161591e-01 1.820054728318376905e-02
2.981299408114149868e-02 5.135868796889412127e-03 6.768537604767288496e-02 -6.499127743009873726e-01 -2.426486904951436152e+00 2.245640147504938261e-02
4.551820851205853197e-02 9.700688626085597274e-03 1.287763759436950095e-01 -4.306366917067196987e-01 -3.188136864706569540e+00 8.208276277059693357e-03
5.335881189487473586e-02 7.515487876666743054e-03 1.352042175479607478e-01 -4.881688877712239000e-02 -3.160665555188538534e+00 1.425097524625631475e-02
3.348736006168178542e-02 1.229990161859426112e-02 3.511368523833569011e-02 -1.451192070315953375e-01 -1.240545430979944186e+00 5.854397354253340104e-03
3.623242236749328604e-02 4.603651848739936242e-04 8.795584196977068725e-03 3.752463432294095846e-01 -7.642989656116706554e-01 -7.455297314144426236e-03
4.538151435580008164e-02 -3.065721919820130204e-03 3.832934295429846205e-02 4.743342738770144895e-01 -1.110587813517986078e+00 -3.466954773666197902e-03
5.575510246912786932e-02 4.779653471865766973e-03 5.057529508975089350e-02 3.065467563361172210e-01 -2.243505174043089134e+00 1.544529686142411332e-02
4.470446467186321021e-02 1.728686739075092037e-03 9.558877873097010314e-02 8.793979807819907180e-01 -2.717575506260007767e+00 3.424577699798941888e-02
5.325086265688932369e-02 2.004380606164170991e-04 7.692429873989686806e-02 6.290070151343138960e-01 -2.572261166036724944e+00 9.474359479211770865e-03
4.344792890254785267e-02 1.287914809594385701e-04 6.842762871106222722e-02 8.647140890392510104e-02 -1.957397117411656229e+00 2.370705448927156941e-02
4.385405424378653605e-02 8.477315340130943400e-03 2.994899050933647056e-02 -7.232023505785801776e-01 -1.151065741346050109e+00 2.100069770797721377e-02
4.699468920052811416e-02 1.589124477799200297e-02 1.389561209961859278e-02 -1.321502546162303338e+00 -8.675526813101701595e-01 -8.756338103037988960e-04
3.404380539182228632e-02 6.310984527099538013e-03 6.161063374945535687e-02 -3.756813178560536870e-01 -1.432908933169026566e+00 -2.461045254178058188e-03
4.902785949664035386e-02 3.590005493386855956e-03 4.951777040311461375e-02 -1.535512209452082888e-01 -1.916500068829219972e+00 1.752740977937332009e-02
5.629375829387016361e-02 7.265149446592298992e-03 4.419807796112829035e-02 -5.752798137097274445e-02 -2.023544738236065843e+00 2.772132575243328040e-02
5.788628764955543876e-02 1.204468421353507672e-02 4.915649013525896782e-02 -2.476194059662211733e-01 -1.821008111877948643e+00 2.095913031440791580e-02
3.929872157189159831e-02 1.036124172057039175e-02 6.091595538170624380e-03 -6.006220742419589032e-01 -7.027679250469233141e-01 2.313869139550109311e-02
4.950274467112449062e-02 5.396543762370024921e-03 1.545089591029813469e-02 -6.539641502196695821e-01 -3.168549042178948061e-01 2.183016960318202512e-02
6.526003894070513123e-02 5.988774046207075152e-03 8.835602115540630574e-03 -6.251964424538575260e-01 -3.092360188340548266e-01 2.126228310482268166e-02
5.721251807637074693e-02 1.314193251412055022e-02 1.146798703042156697e-02 -6.514158430528144139e-01 -5.328649901508420994e-01 -3.148896992439976540e-03
5.778485226521403589e-02 1.292890609288461709e-02 1.135494441629658624e-02 -8.156448618619390745e-01 -6.258185008959623596e-01 8.997932436874347614e-03
6.757255588221050546e-02 1.353093429996365948e-02 -5.676172117671796080e-03 -1.071404156060037804e+00 -4.010166072729162146e-01 1.141897027430481722e-02
3.168960495038419117e-02 1.027786117972886645e-02 3.169285417341005662e-02 -8.369867322945639954e-01 -1.321378878426241021e+00 -1.477016956155629982e-03
3.871922917162008704e-02 9.498491935684777454e-03 2.422436789132553780e-02 -8.884826886783682154e-01 -9.447026908701703363e-01 5.954268191431983520e-03
3.958117808460355491e-02 7.758012907175954043e-04 2.316767505412636874e-02 -7.763634305835214189e-01 -9.221342751181332842e-01 2.081602990214738869e-03
4.804727759889187988e-02 -1.076084981091175036e-03 2.736116370876051640e-02 -6.816647401385925731e-01 -1.102909351995229104e+00 8.746567789831629150e-03
5.015834058193221340e-02 5.603408590590670812e-03 3.378505718576418904e-02 -7.750647431789776665e-01 -1.241252368876732959e+00 5.744292537026775280e-03
4.507130343357147739e-02 6.605886547982772056e-03 2.675775873474511846e-02 -9.235637344774573210e-01 -1.213638610463367185e+00 8.555695407709151476e-03
5.415202172914621026e-02 1.453511663429532010e-02 1.280827091956382446e-02 -1.040930801304472020e+00 -9.898073712124368928e-01 1.098827961391128302e-02
5.820844108562663044e-02 8.691850019052552168e-03 -7.795668863547211558e-04 -1.104947437257663756e+00 -7.708222691379380542e-01 1.177387748698861293e-02
4.792377170291692995e-02 6.059148453042175267e-03 -2.042281446804539158e-02 -4.910228618120880406e-01 -1.383871761579081872e+00 2.146843058568083037e-02
4.729255408188596382e-02 6.075679187023326142e-03 -1.713988926055343143e-02 -4.872188088883349089e-01 -1.312780609733969817e+00 1.808141260108470094e-02
3.861932581068037995e-02 5.800739797794053978e-03 -1.484194189533222241e-02 -4.435586570355135039e-01 -1.292234518895932993e+00 2.780592470472149566e-02
4.147924357763672909e-02 6.547821704127546744e-04 -7.845739586951672173e-03 -4.453269273630943714e-01 -1.208295155486437178e+00 3.031478007425045598e-02
4.615492687088500884e-02 8.048523900443024098e-04 -1.901163251034598822e-02 -4.790608978320449185e-01 -1.193938135106974885e+00 2.768938595314864720e-02
4.091268473149849844e-02 -1.355516049788323824e-03 -1.617536683379255935e-02 -5.119405459906852807e-01 -1.166703906081778319e+00 9.074778036400835829e-03
3.955010780229082507e-02 -4.811682167659658144e-03 -1.497226811922686140e-02 -5.652803643468217176e-01 -1.167234611481862805e+00 1.211169164892514881e-02
4.005566613682736560e-02 -1.063879400083343058e-02 -1.050992067216061088e-02 -6.448067009782162406e-01 -1.208720381986756021e+00 2.454986660607675480e-02
4.096331238099623628e-02 -1.208540235231626847e-03 -1.890205806076322714e-02 -6.916009975205714699e-01 -1.240801066387456020e+00 1.683084059259790100e-02
3.929765364091902802e-02 -8.429331042432909593e-03 -2.645640468629345543e-02 -7.112856827402121995e-01 -1.238740552453776234e+00 2.052433112824183711e-02
3.902278447705734288e-02 -5.918092382598678231e-03 -2.736056491275556946e-02 -6.962535207477784649e-01 -1.194253167348627853e+00 1.557613728508086895e-02
3.907109520096616745e-02 -1.127760558262001084e-03 -2.439405688823770291e-02 -6.801458789176436648e-01 -1.197515565870169052e+00 1.441372387406117395e-02
4.335730747576256594e-02 -1.740021056884893946e-03 -1.967774695445190236e-02 -6.957904025740503373e-01 -1.195138278667827514e+00 1.941094695846132950e-02
4.723323051625204216e-02 -7.482652011094513556e-03 -1.680901570942422429e-02 -6.896083091061288028e-01 -1.201310887821279483e+00 1.941935769338275913e-02
4.534872564523034083e-02 -5.580092077629349168e-03 -1.873557614124848891e-02 -6.912839968253016165e-01 -1.197746876858508003e+00 1.529394716984031066e-02
4.909976205152068868e-02 -8.332986739549335525e-03 -1.057469588856257969e-02 -6.883261365716214497e-01 -1.207973107413077951e+00 1.177794927934467002e-02
4.631260384461120122e-02 -2.714482798812926229e-03 -1.615359997541171433e-02 -7.000130813065685853e-01 -1.216556881626331910e+00 1.160263663446899247e-02
4.728883829461417304e-02 -2.261684581215461093e-03 -2.639340062471534631e-02 -6.767349036670747831e-01 -1.242632865983532175e+00 1.725433306328343422e-02
4.481368245238814135e-02 6.728998901581392800e-04 -2.448056413424753996e-02 -6.829387181899669867e-01 -1.227914222898759622e+00 1.809262436914795685e-02
4.631350357070004864e-02 -1.027413926192696780e-03 -2.633290499455032130e-02 -6.722954406132845007e-01 -1.242884674827848368e+00 2.163682437513447451e-02
4.908437682328441187e-02 -1.936265065056390344e-03 -1.884618465345216931e-02 -6.763506276953211716e-01 -1.216779058896122478e+00 1.188536988031916111e-02
5.004752635724485366e-02 1.578169421549122792e-03 -1.828644572556670234e-02 -6.856169283419981664e-01 -1.216344666326191426e+00 2.064820859422763361e-02
4.719715532739167385e-02 -1.597056146675247812e-04 -1.720489347761938737e-02 -6.869040986594771026e-01 -1.222514067234067303e+00 2.167426946086803072e-02
4.321816370723845224e-02 -1.934647387042777444e-03 -1.485605895839131607e-02 -6.791320741743531730e-01 -1.210253910667868027e+00 7.248169176373728609e-03
4.609401247913807315e-02 -2.635737754995263332e-03 -1.333656856396286949e-02 -6.944686629012144508e-01 -1.205731133258306942e+00 1.376878315167136616e-02
4.280793133120115029e-02 -1.094802814795708956e-04 -1.161410826883119141e-02 -6.925492270920829974e-01 -1.215498831981165484e+00 1.937774946152576172e-02
4.673298381585021949e-02 1.848295375492666273e-03 -1.578108537191708072e-02 -6.916948361850370208e-01 -1.205553656882121238e+00 2.224798202438409839e-02
4.518942743811183577e-02 1.464043936314936983e-03 -2.287342437882999846e-02 -6.792591347909163746e-01 -1.202461113791467362e+00 1.690540592937232398e-02
4.339240057724306349e-02 2.574359668114489103e-03 -2.193483092757841924e-02 -6.728713255660656589e-01 -1.225827264042017584e+00 1.486013504104594443e-02
4.778009144464473446e-02 2.646315639862195992e-03 -2.148936780612475950e-02 -6.691720795840047087e-01 -1.217439942825059962e+00 1.930245343729579052e-02
4.414095471697810497e-02 4.272538534442951036e-03 -6.724449997665304934e-03 -6.868733566538645086e-01 -1.194394311981141321e+00 1.400328032226870641e-02
4.847524062574372350e-02 -7.779874718162466118e-04 -6.680215975982783938e-03 -6.700456687798952427e-01 -1.201348693582815041e+00 1.685301024275771484e-02
4.258038747030200299e-02 -5.173459194503834957e-03 -6.377978430350594863e-03 -6.756786240540940680e-01 -1.188641425332249035e+00 5.577752269988952259e-03
4.884616696586687595e-02 -1.021930411126468694e-02 -8.432719417556244768e-03 -6.654403369396619805e-01 -1.184184990805977167e+00 7.875956042646615335e-03
4.637949498226807271e-02 -8.123596540928357951e-03 -1.086008269353394562e-02 -6.659451932331834634e-01 -1.208675425806135184e+00 1.372244260913006025e-02
4.587650849355355553e-02 -4.064023035452633825e-03 -1.446739747341069249e-02 -6.789395888181680716e-01 -1.194200679267965803e+00 1.427785012239767351e-02
4.028379596917654182e-02 -2.246653647891429240e-03 -2.246994365225779555e-02 -6.681782670984858230e-01 -1.192980738085976045e+00 1.822577982792165929e-02
4.388262921665549848e-02 -6.593551481340418491e-03 -2.031609595145777991e-02 -6.641592308653078147e-01 -1.190118606340583307e+00 2.138020853637954966e-02
4.403612049928253697e-02 -7.752648511521711278e-03 -1.081507378208584891e-02 -6.598469041077156261e-01 -1.204745431419755652e+00 1.792678041945038048e-02
4.714719017559081127e-02 -6.011802634512349031e-03 -7.471644791334997038e-03 -6.663947497047411073e-01 -1.222410646725519578e+00 1.856320090456787045e-02
4.405532609155391605e-02 -6.240644198095963296e-03 -4.704933561299973199e-03 -6.677295219559353789e-01 -1.201072689173658725e+00 8.067600738363992635e-03
4.552156399278549370e-02 -7.033144966501210515e-03 -2.846783519343920599e-03 -6.590613058481623598e-01 -1.201706470935685500e+00 1.092088556970950003e-02
4.709448498629499602e-02 -4.957839030661714830e-03 -1.801348279739900526e-02 -6.528706692757991759e-01 -1.195335430580384051e+00 1.369326961844803160e-02
4.833286660189408529e-02 -4.723951987530543989e-03 -5.984629099395566421e-03 -6.574964445535007584e-01 -1.210236525951188469e+00 3.125616542860043534e-02
4.895782714841886291e-02 -1.129454438856297011e-02 -1.402703624587603448e-02 -6.600005214178132906e-01 -1.214027273843058419e+00 1.894414656403093158e-02
4.571206813579110906e-02 -5.743769760676691039e-03 -5.566025600277302310e-03 -6.679960221508893792e-01 -1.207420863065795880e+00 1.038852366509509378e-02
4.606855609080768438e-02 -2.154700540840746165e-03 8.254858663275799202e-04 -6.650639034658809567e-01 -1.192205730768939542e+00 9.553615443653556277e-03
5.112723901297423074e-02 -3.394900903788692498e-03 -1.101636934584115934e-02 -6.583719930112336138e-01 -1.202209748419174939e+00 1.910657876897139604e-02
4.661536398592623642e-02 -2.898681876428686743e-03 -5.167380953749189931e-03 -6.556079162454586662e-01 -1.197452581995856136e+00 1.108211550118821768e-02
5.132087978332477290e-02 -5.659795736577346442e-03 -7.116080669266944270e-03 -6.539743867763182505e-01 -1.205220031295419769e+00 1.024615140027599312e-02
4.556478604295971513e-02 -3.863663349517633405e-03 -3.446021893397432923e-03 -6.708943016539637982e-01 -1.205260862911810671e+00 1.606410192849696064e-02
4.763221989525579653e-02 -5.232530609932600080e-03 -1.601613987786576487e-03 -6.838107314973101980e-01 -1.193650279563259975e+00 2.939103855544729447e-03
4.903467606946302487e-02 1.348760084305029167e-03 -5.040844937506450130e-03 -6.729794329048532919e-01 -1.206477010883876266e+00 8.714820185066210478e-03
5.039568101643313036e-02 -4.396632413391641375e-03 -2.669392592244801410e-03 -6.627665462050937872e-01 -1.199530429384510377e+00 1.251257966579415182e-02
4.573824625479642331e-02 -2.269109791865311226e-03 -4.641567299160320736e-03 -6.714921430213817155e-01 -1.207262068989328530e+00 2.098897728840076748e-02
4.487745555720377283e-02 -9.582682903697979648e-03 -9.873898810639714085e-03 -6.663392731538688718e-01 -1.200658835676179814e+00 1.590843240979764386e-02
5.357193330179035179e-02 -2.102394033138450802e-03 -1.059953108011713052e-02 -6.739977524275998499e-01 -1.196234567471426757e+00 2.744218603693393196e-02
5.252391848006174313e-02 -3.683543293579172317e-04 -1.082818440259203374e-03 -6.733290185664722038e-01 -1.185310055797078377e+00 2.756155655672859472e-02
4.687344748392759802e-02 -6.184739916715795149e-03 -7.055019468468537447e-03 -6.744804760199810678e-01 -1.201083633321087696e+00 1.504920185705647777e-02
4.614241965592458250e-02 -1.106193327776246182e-02 -2.925958377497317464e-03 -6.727188133752888266e-01 -1.212558897741623065e+00 8.369883847728297119e-03
4.457965242775527304e-02 -1.940996412384049519e-02 -4.684045380195622776e-03 -6.678433066019664466e-01 -1.210407803536135640e+00 1.973534987897228310e-02
4.721267899071536489e-02 -1.432974159651938945e-02 -8.827186460202696150e-03 -6.563205335331098178e-01 -1.198725503103671652e+00 1.995256491496063753e-02
4.885200828013996910e-02 -1.081995645335905379e-02 -7.232409943481843406e-03 -6.566562080826745529e-01 -1.201383681193010977e+00 2.155749274115132882e-02
5.268672709779465002e-02 -1.158109213344687277e-02 -1.532905297212172613e-03 -6.671770152804227250e-01 -1.180507847807760857e+00 3.302907812833502654e-02
5.168301297396600547e-02 -1.126729259817333198e-02 -3.209952454597431171e-03 -6.617485721872730098e-01 -1.193922568044817556e+00 2.756853795801046322e-02
5.151740061821050154e-02 -1.361955763633834054e-02 -1.170742472232277898e-02 -6.673718184969790190e-01 -1.207280296886668713e+00 3.238526742335395142e-02
5.413787758753594442e-02 -1.018118594973387372e-02 -1.545204690389806457e-02 -6.576358118879801484e-01 -1.203451135774673997e+00 3.045767974270516612e-02
5.225160493201854578e-02 -8.187982710089660582e-03 -5.857249013151599737e-03 -6.641645434245826429e-01 -1.186066429660890487e+00 2.047648863228371599e-02
5.486772957164509634e-02 -8.550857629760662271e-03 -8.599544022230731777e-03 -6.760653156117276685e-01 -1.207567392633560610e+00 1.577932757631330535e-02
4.743187692865206279e-02 -7.261048745991590531e-03 -1.092833956363503667e-03 -6.706231389458551240e-01 -1.201892388120488597e+00 6.063944546186732058e-03
4.850593125213770174e-02 -5.784449761405633522e-03 1.007557917029888728e-03 -6.812740993599120110e-01 -1.184117467042867800e+00 8.094036819213556999e-03
4.721551118844976441e-02 -5.273837700301448744e-03 -3.059846923357034676e-03 -6.676890537732306230e-01 -1.194808031116058267e+00 4.016731528367955238e-03
4.815293020389031092e-02 -9.194355757674625707e-03 -4.925093808493041792e-03 -6.592498777672316512e-01 -1.191821024766219761e+00 9.318057551530032831e-03
4.772173013187808871e-02 -6.457754910658437125e-03 -1.963203387398776423e-02 -6.424814483084054784e-01 -1.204484650884285024e+00 1.767896566062973629e-02
4.911761958620503715e-02 -8.115400636420730396e-03 -1.241267569634485479e-02 -6.595557415904830245e-01 -1.199969802490542525e+00 9.757453418765988165e-03
4.791882583134050161e-02 -5.618564883921789432e-03 -1.035096570348398304e-02 -6.577139712909868541e-01 -1.201646284960512290e+00 2.649847354138366515e-03
4.341251202008551691e-02 4.653849818938952942e-04 -1.149443812524220121e-02 -6.569797228972430458e-01 -1.202343613061566341e+00 8.973959277959716110e-03
4.574431806256619437e-02 -3.960376532513711773e-03 -1.299651743422508554e-02 -6.528358897976481723e-01 -1.187491726640467204e+00 1.095496766887544063e-02
4.777180787035565507e-02 -2.965069320882699616e-03 -1.338835960429440863e-02 -6.486259136770058387e-01 -1.209697552748300042e+00 2.391516202463782065e-03
4.433100307537986978e-02 -1.463467349354305447e-04 -1.424910296717274427e-02 -6.618892836415635195e-01 -1.218744591215452644e+00 9.011335791007313994e-03
4.688273803214042940e-02 2.685364617137468712e-04 -1.406822380863326227e-02 -6.570367744642345853e-01 -1.211234717693517204e+00 1.292756798937488155e-02
4.512664855252965929e-02 -4.769501955568723750e-03 -8.366136103838794913e-03 -6.580353579245487028e-01 -1.204380739258476440e+00 1.426862566129363276e-02
4.411919413248766020e-02 -1.533483975865470444e-03 -1.616278021858652547e-02 -6.666874114083523040e-01 -1.192831057225399727e+00 2.356196604153460578e-02
4.261759671086137041e-02 -2.755866177182909882e-03 -4.121077015709573299e-03 -6.669285948792380569e-01 -1.197622901811887131e+00 1.263753330001695166e-02
4.371241500656858348e-02 6.100085045773594866e-03 5.977438132539480975e-04 -6.595192743125155577e-01 -1.187283235425366623e+00 2.550496444781958499e-02
4.755962792679000600e-02 5.245397494185038978e-04 -4.690760927361925514e-03 -6.515819633426422897e-01 -1.189444205581145830e+00 2.880004925363062462e-02
4.732391651358198309e-02 -5.496569507954865430e-03 -4.346368216412377361e-03 -6.654620696727716611e-01 -1.197138118199238654e+00 2.273885534310485582e-02
4.556105409095221465e-02 -1.563214535976041597e-03 -1.184230330988467195e-03 -6.730417964274374443e-01 -1.172953183191671966e+00 2.402690023086474086e-02
3.827217352181788712e-02 -8.578121921699016772e-03 -8.771140517935926972e-03 -6.620227156136752056e-01 -1.205194533404955193e+00 2.472092516508862803e-02
4.300668714376756213e-02 -5.924510344787289884e-03 -1.071682993456246624e-02 -6.775213838461484617e-01 -1.198646094461717881e+00 2.864995486172253192e-02
4.800147942273803869e-02 -8.165210759003060925e-03 -4.717876830880929351e-03 -6.693920849624609426e-01 -1.211151604906051116e+00 3.530311741179283785e-02
5.003792916295540794e-02 -7.146457574314195316e-03 -1.181833327208392515e-02 -6.682222822470308410e-01 -1.201937787429009141e+00 3.024287493957020928e-02
5.413343753489321952e-02 -8.465205311640713187e-03 -1.178783895028090445e-02 -6.766806034758254818e-01 -1.197773481734710987e+00 3.452591407312448346e-02
4.813886718612730986e-02 -1.096417614852654085e-02 -4.027284752957660530e-04 -6.796526277322521015e-01 -1.197886199684648600e+00 2.207793338098714905e-02
4.556252503478679799e-02 -8.790213679215723441e-04 -4.659065900896486312e-03 -6.864412497348192366e-01 -1.202438786476912824e+00 2.356095835300828570e-02
4.759319953073799098e-02 -2.861823502079616915e-03 -7.966445788641918213e-04 -6.665538270601960580e-01 -1.205578173224626459e+00 2.400951639666444246e-02
5.055104008758064260e-02 -1.027914503541043495e-03 -2.663829278270524181e-03 -6.657805741299828162e-01 -1.203018755225621961e+00 1.506972821080419626e-02
4.334671402041832128e-02 -1.898398852945022697e-03 -2.193493909270038955e-03 -6.568516574245977235e-01 -1.186792364687797141e+00 4.344802608476567782e-03
4.527971100498788537e-02 -3.936677053585014435e-03 -1.047230247952146698e-02 -6.560754533888274453e-01 -1.194855122938627279e+00 5.867733552577497624e-03
4.619540100580469405e-02 -8.555009193217662927e-03 -1.718254503537741673e-03 -6.613152261463427495e-01 -1.192783106994415476e+00 -2.154865866433167186e-04
5.158582625919612419e-02 -8.515471378035998490e-03 -1.687084704543878599e-02 -6.404471420511163027e-01 -1.189930608743700491e+00 5.960670022873119575e-03
4.907434772880753943e-02 -4.811601871676444986e-03 -1.455917277140966748e-02 -6.545844686001162094e-01 -1.185350434802264763e+00 6.223648087492927861e-03
4.940817318358826232e-02 -1.595750238856854381e-03 -1.188830532778639704e-02 -6.574944458354182730e-01 -1.193879194756667150e+00 1.210638789527277055e-02
4.881937194347643616e-02 -4.848413385319185614e-03 -1.635733429639263381e-02 -6.563397070059396876e-01 -1.203975444114910198e+00 2.214042132285073960e-02
5.050198120344585179e-02 -3.918922179937993355e-03 -4.056384176272354036e-03 -6.501778546933788538e-01 -1.193566458520164852e+00 1.319713683740031222e-02
5.154064478161395069e-02 8.973951723055609286e-04 -5.776168968784578528e-03 -6.614403552062024794e-01 -1.183695040539364030e+00 4.367873240138369674e-03
4.796299709974252701e-02 2.613992391110190119e-03 -1.272980000094026121e-02 -6.669767702427890077e-01 -1.186204272626857348e+00 1.028427648431272205e-02
5.045752914263953309e-02 -1.633538940446765952e-03 -8.156247941100702725e-03 -6.636001012618667483e-01 -1.184285945092310444e+00 1.136201356239265568e-02
4.412227852737574813e-02 -3.912383456820607563e-03 -2.310906120765343630e-03 -6.648352465742251027e-01 -1.194352511505882619e+00 5.391627240191912765e-03
4.511202621895609582e-02 -3.314872253620388537e-03 -5.183926058316523644e-03 -6.638685890626635500e-01 -1.191559037196034065e+00 1.184707196549269689e-02
4.787517424905667063e-02 -2.589317513233518886e-03 -4.866614496041365978e-03 -6.672230596690218452e-01 -1.201981595139865133e+00 1.999969578970659662e-02
4.818597007932698406e-02 -3.518339959562525460e-03 -3.884078006612001754e-03 -6.740649713663714460e-01 -1.203631185913384360e+00 7.756946862880298270e-03
4.229726380443956518e-02 -6.953351702250126082e-03 -1.709213927267749789e-03 -6.605134162645120988e-01 -1.205510163287796921e+00 6.645369593711224427e-04
4.037735247520900933e-02 -4.864484944652840842e-03 4.517073368330293270e-04 -6.651627827246278102e-01 -1.199620685222490435e+00 3.506238065976029390e-03
3.879574205288532224e-02 -1.206588528840031246e-02 -2.697638699901638848e-03 -6.633033287824108282e-01 -1.202297282844455806e+00 -4.283839499347556583e-03
3.849363786407653670e-02 3.613573950488599418e-03 -6.017489582701318618e-03 -6.777731297986819836e-01 -1.200859682745406332e+00 2.556265049927611364e-03
3.779382722390646487e-02 4.441728353298292353e-04 -6.824496911111810338e-03 -6.659238708968107101e-01 -1.207896998122512500e+00 7.294086579303057753e-03
4.473404880737659461e-02 1.891028033176823595e-03 -7.455034247655090152e-03 -6.781456966649531681e-01 -1.202401414776199662e+00 9.219285339247859645e-03
4.419868857948249657e-02 -6.398783979603601263e-03 -1.764444002907777920e-02 -6.655021643141487697e-01 -1.211514356066489162e+00 1.269569894811865829e-02
5.420876744288037619e-02 -9.162816654372900327e-03 -1.002935769380242093e-02 -6.780550535343599083e-01 -1.203726450021711081e+00 9.628344933438880496e-03
5.022659761077639257e-02 -1.388387141032364561e-02 -6.991642145488807802e-03 -6.637240482390245333e-01 -1.212039572002802101e+00 3.123984264165388571e-03
5.186740243648134407e-02 -4.863012679587861570e-03 -4.722132939036505217e-03 -6.648573804697915923e-01 -1.207087635281075766e+00 1.415730684816597640e-02
5.023136254492701486e-02 -7.011877534783932109e-04 -1.941043699565936365e-04 -6.756140470586562419e-01 -1.200089067518937291e+00 1.157155895160011730e-02
5.174171350978191974e-02 -1.133636629352480218e-03 -7.822870912389479070e-03 -7.012471165306182197e-01 -1.194774980812561616e+00 1.592596973509052133e-02
5.043404043409512733e-02 -5.096590010484798594e-04 -2.094041157056025781e-03 -7.653148378661368545e-01 -1.184613460135617524e+00 2.150069308061900580e-02
4.312324465377916777e-02 3.879339274123523237e-03 -5.519878646031706193e-03 -7.820115636463689235e-01 -1.178167474930299052e+00 1.964574594639774408e-02
4.769713479389059430e-02 -2.159270400423012048e-03 -1.218608493683992489e-02 -7.765507162031146660e-01 -1.179848480950466350e+00 1.048008328496459300e-02
5.092390914322626055e-02 1.693216060077478574e-03 -1.712925257683428626e-02 -7.759765742153689194e-01 -1.158081429578352584e+00 1.347936612152825404e-02
4.878927075791379686e-02 1.777224621664571375e-03 -1.634827674200578507e-02 -7.690765528298250109e-01 -1.142440985332864756e+00 3.181645043216912126e-03
5.035341395022689681e-02 -2.984122634546490516e-03 -2.385362525932060995e-02 -7.808019080811740009e-01 -1.130467391858233750e+00 1.252147784667442809e-02
5.588252487304842808e-02 -1.264639614253368349e-03 -1.710065477165761960e-02 -8.230598746982344949e-01 -1.069815051132014583e+00 1.668592858338568616e-02
5.207954351153061545e-02 1.334982400054071650e-03 -1.632459433217076095e-02 -8.368902223394112383e-01 -1.027476315596868250e+00 1.981203226721124297e-02
4.716436393233511964e-02 -8.660323315212055395e-03 -9.138590756153308625e-03 -7.749591428553216366e-01 -9.735496315780991505e-01 2.950644464733533784e-02
4.652748147011624008e-02 6.506918640284686806e-04 -6.810681061399981306e-03 -6.857375610012517164e-01 -9.023457605655288427e-01 2.857102692851354667e-02
4.703570996352109124e-02 -3.681069629479141042e-03 -1.048942988569734336e-02 -6.040029410851471825e-01 -8.303680205172132567e-01 1.347254537682873211e-02
4.783920356389519124e-02 -3.130276813127840646e-03 -8.568239569054447724e-03 -5.102802977616266444e-01 -7.418311074246287662e-01 1.778574053797678245e-02
5.220456447357564589e-02 -4.448159459168852387e-03 -2.763748562875906201e-02 -4.167120938216600234e-01 -6.740872567320308484e-01 1.463290657816948559e-02
5.619472428963580291e-02 -1.452072325991041885e-03 -2.131945737118051687e-02 -3.072230100501088801e-01 -6.920863484912247454e-01 1.347728746884725194e-02
5.642698883005900501e-02 -6.744895419580464874e-04 -1.693167562928143965e-02 -2.632269753094979015e-01 -8.714854412213932644e-01 1.350708216077718161e-02
6.340131652334096701e-02 -5.488921776130351732e-03 -2.313406252390087792e-02 -2.340548329622889057e-01 -1.135566415670302698e+00 1.766114418483323914e-02
6.172931485777256172e-02 -1.354822711293048737e-02 -2.589394973261088806e-02 -2.076499658550508831e-01 -1.396096741621500881e+00 -4.052558033164441187e-03
6.083257039340866923e-02 -7.248084504859112973e-03 -1.451444394663287119e-02 -1.629067829647881660e-01 -1.597292634143901102e+00 1.127903706639976980e-03
6.833177746888782766e-02 -6.499616079161494794e-03 -2.063781788680091323e-02 -1.819704858436291262e-01 -1.644060520131582548e+00 5.663309287218194592e-03
3.547734310202352304e-02 2.500997776588774132e-02 2.936088378544604582e-02 -1.069643237417935655e+00 -1.338759811510143560e+00 2.463997546230271081e-04
3.635297476009910489e-02 3.212921367656895733e-02 3.727905692853605846e-02 -1.298463163863804004e+00 -1.016934833953113015e+00 2.005659534601724608e-02
4.743515963351658399e-02 2.914896483599769411e-02 3.553763959379108162e-02 -1.489706987609076494e+00 -5.667459916336211601e-01 5.547916460273005779e-02
3.405852821630567240e-02 3.074917626481796576e-02 2.927042287659226139e-02 -1.574449772984049867e+00 -1.614101668807764733e-01 3.347060973512818588e-02
4.772039671153413543e-02 2.607037272096061897e-02 3.784080847455467689e-02 -1.430938598750842505e+00 5.361541472861278829e-02 4.620426949520058113e-02
5.190072954506363273e-02 3.406171704720219184e-02 1.689959031407622936e-02 -1.080490755411510406e+00 4.428164268078305099e-02 4.503869496345288409e-02
3.973629542155855676e-02 3.498796847111686203e-02 4.013357722123933602e-02 -1.222588460268227539e+00 -1.370926217110826517e+00 8.652880022760899015e-02
3.458524382128375096e-02 4.213680169230525629e-02 9.417916567430906216e-03 -9.603578488009275604e-01 -1.725790748636862437e+00 8.240399101800598147e-02
4.316220533410786153e-02 4.031100967696740756e-02 1.324550522309353440e-02 -1.018718633532360140e+00 -1.492863851238616535e+00 8.749422795297494282e-02
4.114725727403815980e-02 4.362929786865361870e-02 -4.595485298133328289e-02 -1.089356548166459770e+00 1.030114468634904523e-01 8.408398550510275127e-02
2.960623385969198343e-02 3.324055577055175237e-02 -3.522731723220706712e-03 -1.066096671280416519e+00 6.104493193076638846e-01 1.056582822943005623e-01
4.427819634740323695e-02 3.040501966834865261e-02 -3.504897914521926117e-02 1.896360076787598492e-01 4.836249195266520418e-01 5.324447038014077510e-02
5.359926650605573162e-02 2.218739139436261623e-02 5.657039778791367324e-02 1.130032038790452775e+00 2.698756925245776039e-01 1.724579794085913040e-02
4.090136469314215040e-02 4.041549259076175626e-02 6.223184996742670005e-02 4.019953790175790909e-01 -2.153468401584173186e+00 7.517325333612331906e-02
4.462471939452906239e-02 5.020604052802792039e-02 1.556331103780411729e-02 1.427067261366729289e-01 -3.059628140850714217e+00 9.724881255175402139e-02
4.568700091773456040e-02 5.097197710576909652e-02 4.599175253782744610e-02 -4.874370751319623274e-01 -3.612540462735973179e+00 1.551563768525467402e-01
1.485493705236973216e-02 6.018963033338754764e-02 1.093395198858386763e-01 -1.358630731436051287e+00 -1.427387761591118132e+00 1.837157388929209489e-01
2.262170381015794762e-02 6.694218465866198786e-02 3.283802903848959120e-02 -2.437675223318182649e+00 -3.737616628388131801e-01 2.272840152249482049e-01
1.585757325940261378e-02 7.558733732805639205e-02 1.327656038747804246e-02 -2.862295486593666727e+00 4.367198754052000753e-01 2.390598571219721691e-01
1.867438185648560497e-02 7.151700557572854278e-02 8.939921905086467557e-03 -2.734387899541710354e+00 1.898294132250760158e-01 2.318861451363330162e-01
7.853097707298292707e-03 7.001981620529081074e-02 8.291772153334259210e-02 -4.353087691712191343e-01 -5.753222788390999209e-01 1.233655432519937950e-01
2.025674044064697255e-02 7.158490645648685202e-02 5.550225373846834342e-02 -5.873701828130322156e-01 -1.632539117013315666e+00 1.194054122335251877e-01
1.562732158046628572e-02 7.493990833908723004e-02 5.715652958262401606e-02 -1.200937742433064948e+00 -2.418753490538999795e+00 1.562690828847591029e-01
-8.359332859326263493e-03 7.653719668693470535e-02 1.594711289707378965e-02 -1.176416895421797948e+00 -2.587096451357618676e+00 1.657500746783669987e-01
-6.267296609526722823e-03 7.405656180984285242e-02 3.292309460808107158e-03 -1.101942653927325377e+00 -1.953605879132996215e+00 1.439307170182067830e-01
-1.167784206699397018e-02 7.560476708021904302e-02 6.312588232469440452e-02 -1.275360992329077070e-01 6.040248797055591812e-01 1.295294943825616996e-01
4.575046202844285786e-03 7.520609069265601909e-02 7.688778289465658666e-02 1.158324490376469451e-01 6.795066312947243281e-01 1.343016396260796330e-01
3.033621054159243297e-03 5.870696462040403407e-02 8.299288261462117733e-02 3.929851554511509248e-01 7.668121798901224029e-01 1.223186811912856942e-01
1.237957544561520476e-02 6.192568598072421132e-02 7.230700562670916431e-02 3.344810344797227719e-01 4.283296004201951335e-01 1.155221826626454534e-01
1.265515617881692034e-02 6.846322356834402822e-02 5.574217368328626687e-02 2.785537969425407878e-01 2.738350460166003586e-01 1.206765350116746766e-01
-1.157151203923504484e-02 7.102551363422063280e-02 6.222772854602875992e-02 -1.658741355639373749e-01 -5.091142964405600546e-01 1.255924457257703575e-01
1.884129426219662007e-03 5.795546950434987687e-02 7.310964180072676566e-02 3.400251261600067271e-02 -2.250860194271014358e-01 1.026813360122289243e-01
-1.622727484887763125e-02 6.801378402878663354e-02 7.703685629297585269e-02 3.029378728549366739e-01 4.711755097341949194e-02 7.651943777119954437e-02
-5.735984001885647415e-03 6.869364990182794117e-02 6.777430413987184377e-02 2.535126593617539892e-01 -2.101293575855288087e-01 6.590169808078880087e-02
4.865855524438616325e-03 7.629999888929850371e-02 3.156913595512705895e-02 1.009206788770210389e-01 -6.516434672696750363e-01 4.965057986289854453e-02
-1.201914890640324793e-02 6.778337906003724378e-02 1.983064360494851686e-02 2.010664219546828280e-01 -7.431156425051782533e-01 6.200277394698466144e-02
2.032295681375171498e-03 6.649247120053933258e-02 2.875541866390191048e-02 1.592925165523641218e-01 -5.409906005967910492e-01 6.089089332640160862e-02
6.663341261696133222e-03 6.908347583696487770e-02 2.642449108422528781e-02 2.234055627701197200e-01 -2.171578320932484041e-01 6.098044707040804063e-02
-1.870558057218337650e-02 7.723350509706969347e-02 6.785849882492533958e-02 2.349862127328535832e-01 -3.204549683214744649e-01 4.814236813760204570e-02
3.846251452885481037e-04 6.980916379793471183e-02 6.074839451904306964e-02 3.138866222682117346e-01 -4.627101056751796171e-01 3.543773402603552641e-02
-1.460613801146171641e-02 7.437857055776675441e-02 5.319038066807024734e-02 3.455229649435054284e-01 -6.679390569519201293e-01 2.377524476748581195e-02
-5.677842268500390976e-03 7.159425302856868567e-02 5.286635882428136757e-02 3.001147242929143588e-01 -8.231141993526954748e-01 2.423672021776421617e-02
4.650921129744904625e-03 6.597139746017238737e-02 3.485914558119135309e-02 3.044386987948143330e-01 -6.821985405515289536e-01 2.910416866397567623e-02
-1.779640746673145577e-02 6.353252282199992051e-02 5.174934403156622453e-02 4.527845567920687486e-01 -3.953620889987737863e-01 3.237034840699408444e-02
-2.809439404102370003e-03 6.385043495351444554e-02 2.964486602027049944e-02 4.823286038017401967e-01 -2.243814703487646278e-01 3.269948368418528623e-02
-3.705762006829853988e-02 6.474543697415678645e-02 5.571009906079121832e-02 4.107188424991853881e-01 -5.657954851444534083e-02 2.864511721144517853e-02
-1.895089335612374845e-02 5.998674625109744196e-02 4.705903148149331860e-02 3.998546107245483094e-01 -1.421526169288601926e-01 2.995041033139204945e-02
-7.591454147660350177e-03 6.326648719415303712e-02 3.855951403254176402e-02 3.167768095566799169e-01 -2.084814062361146914e-01 3.576729703408111638e-02
9.231360603061615488e-03 6.031159962754296250e-02 2.345485603118036000e-02 2.230196590514745558e-01 -2.222039650674559330e-01 3.308007608230472546e-02
-3.647419076295529972e-02 7.002259900719970398e-02 3.704173544487254777e-02 2.149936158799001240e-01 -8.853145679093349374e-02 2.452349071564036836e-02
-2.405875757005398671e-02 7.197669545751284037e-02 2.991139863863134796e-02 2.276362952097703285e-01 -9.718694431385610510e-02 2.470743283110968941e-02
-8.736015555820358242e-03 7.416479877420854849e-02 1.684279153530315876e-02 2.555333272915297216e-01 -8.633154935132084096e-02 1.533192881627466406e-02
-3.658730210389950221e-02 6.734857369805584415e-02 3.941350382866792845e-02 3.367332384719248783e-02 -1.303813603430889201e-01 1.858034825778838092e-02
-2.498978831180177426e-02 6.508397065661725156e-02 2.533187407629344801e-02 9.713312370678210683e-02 -1.052116710893479939e-01 1.791147859546544582e-02
-4.069113734841026120e-02 7.465180884041941467e-02 4.440568918715831481e-02 8.010195601631855955e-02 -1.276818071263612353e-01 8.315359289347798791e-03
-2.732149974683874619e-02 7.817595859220277665e-02 3.222422711219757874e-02 6.235698292297040674e-02 -2.945961485194917295e-02 1.099849571913114749e-02
-2.920639523903249476e-02 7.656704074185813336e-02 2.923649676879819248e-02 1.308810007292288691e-01 -2.462880138568011509e-02 1.725573995254360213e-02
-1.060748768007494826e-02 6.624424207063626946e-02 2.751125370736973164e-02 1.477458006980510996e-01 -1.469584037828945179e-02 5.656231783060353818e-03
-1.427003634131611236e-02 6.727241751346613174e-02 3.091888654456131924e-02 1.188940449821599132e-01 -7.233191892928068217e-03 3.006612038862355174e-02
-2.097568746220841718e-02 6.629843520317270367e-02 3.713060175965038345e-02 3.663621059866244145e-02 -2.836943799659409626e-02 1.925381305079643991e-04
-3.071140496719066901e-02 6.135297244632423319e-02 3.072634558843878594e-02 -3.525581984157345056e-02 5.050343482213680117e-03 -4.762194434634442995e-03
-1.271969910794135648e-02 5.785920244421142999e-02 2.816547515129930179e-02 3.995562245917257810e-02 2.957138985118181948e-02 8.028841248136192252e-03
-2.202416722686668937e-02 7.328988172524232569e-02 2.869795976785666225e-02 -2.359551592925895978e-03 6.443013083436850696e-02 -9.525947732876502427e-03
-2.126698755028057566e-02 7.934606675070784987e-02 3.148187086997578099e-02 -8.276397642365475316e-02 1.132808279641071281e-01 1.862302575750242328e-02
-1.927464794135198140e-02 6.971572209822565758e-02 1.310333062723634256e-02 -7.986409814656213191e-02 9.037535876784245914e-02 1.930830549514472860e-02
-2.202851461365890745e-02 6.265506794330646945e-02 4.434252672277599894e-02 2.818778252081005631e-02 2.123219605871165261e-01 1.023098638396050149e-02
-3.020069456224124677e-02 6.902882538964794090e-02 5.076226689107071754e-02 1.523469276291948039e-02 3.097819341264598236e-01 7.278029163738361290e-04
-1.421787114562076022e-02 7.568927549113652065e-02 9.964884193993045480e-02 1.405691183984229264e-01 2.059636948308297133e-01 8.059521780929777487e-03
-1.887582932582542936e-02 7.635640225030450312e-02 7.427800546977569862e-02 7.066780319416605949e-02 1.234701129733711267e-01 -1.249465503145114932e-02
-1.855708334810902971e-02 7.446947643355524005e-02 4.388192258949585867e-02 8.747622996071469093e-02 1.331552098839607068e-01 -1.537607169089510659e-02
-2.742131630912648596e-02 7.275954010191092169e-02 4.615925681972943284e-02 1.125088929800607956e-01 1.875336011440034145e-01 -9.468285753531802823e-03
-3.291996137777535719e-02 7.761554513359167351e-02 3.518231701545609935e-02 4.422096861817352564e-02 1.936006739679617950e-01 -2.113474527444867551e-02
-1.517156118180619864e-02 7.379043884274928689e-02 3.698276645552905917e-02 9.034769854832702674e-02 1.922709287789416410e-01 -1.903320513637889524e-02
-1.451399072057931415e-02 7.324013689774241942e-02 6.361910492337624623e-02 4.722632212468631796e-02 2.022127562556919056e-01 -2.745796180716192011e-02
-2.029386744871669243e-02 6.217449390898165118e-02 3.457289272020924731e-02 -8.501016261613956321e-03 3.246074879117712420e-01 6.932916945148824561e-03
-2.146799395395486074e-02 5.588631544102112825e-02 4.687635850883886679e-02 2.604174629475882602e-02 3.258636214052220703e-01 2.375348156262114142e-03
-2.012919938705498915e-02 5.933773893804050042e-02 4.987048082014100547e-02 1.060128593892653570e-01 3.603882647011247831e-01 3.540533148608662490e-03
-3.518111561678947258e-03 5.341319419373931343e-02 5.174662172255634074e-02 1.092438667619578668e-01 3.356428894239128491e-01 6.071466702993589095e-04
-1.018502998208219504e-02 5.810364546457376378e-02 7.773921899493951848e-02 1.830300623805859450e-01 1.198286577171251283e-01 -7.082265116043690197e-03
-1.730852987588669609e-02 5.906890355799235270e-02 5.026310893894692100e-02 1.770479529820050690e-01 -1.442745255467191463e-02 -4.475488734107114196e-03
-2.747750954254496794e-02 5.688462794862219479e-02 7.402615061181194722e-02 1.168864542147511343e-01 -8.793863252836298106e-02 3.918505417885548400e-04
-3.839593898027073710e-02 5.590937892795592307e-02 5.353772047384131039e-02 8.785418005312677081e-02 -1.093610762023378286e-01 1.460667271276277872e-02
-1.704210540430270773e-02 6.162988940413430261e-02 4.559863569048211440e-02 7.038171753080926145e-04 -8.312877151734515691e-02 1.152810167843424174e-02
-2.200979462824288746e-02 5.934609594561418566e-02 4.144503396523763206e-02 3.211927115284486656e-02 -6.670000831225801619e-02 5.687290945114908437e-03
-2.415136355593953954e-02 6.404046192785399494e-02 3.700587413685313409e-02 7.734317591484972387e-02 -5.325593063793686993e-02 -9.784844322074210191e-03
-2.996880570236910152e-02 6.325240176443214235e-02 4.821923159539670545e-02 5.499542148799173996e-02 -2.667783497614424626e-02 -1.894894800127702641e-03
-3.169485587700918844e-03 6.460510013137561736e-02 3.715029139447922901e-02 6.011712331372313228e-02 -5.388368003563808600e-02 -5.547136813080353300e-03
-9.032358056730929730e-03 5.450075084908437284e-02 1.687101535913898553e-02 2.891151500526153648e-02 -2.700298746609517547e-02 -1.125021178898464973e-02
-1.412822870555230891e-02 5.418106948378051402e-02 1.492009737193084051e-02 1.767050832690761700e-02 -4.504468336854731275e-02 1.049570403638945722e-03
